-0.5808162612951278, -0.5968910479580674, 0.12093152757195635
-0.43337820753748063, -0.5968910221555807, 0.23667468851489915
-0.46996836142820964, -0.5968911153166241, -0.18122121999742133
-0.47276657263879374, -0.5968909953590658, 0.3568767975106398
-0.5781287184367, -0.5968910105926941, 0.28854275251097516
-0.5451835387090045, -0.5968910458304566, 0.13047542933837064
-0.4259810373034235, -0.5968911308526832, -0.2509118904163204
-0.6419197317023622, -0.5968910045355293, 0.3157135984811419
-0.5670136984365775, -0.5968909968424855, 0.35022256786920514
-0.5764819306791448, -0.5968909883963869, 0.3881095419671165
-0.4339893785938516, -0.5968909982106358, 0.34408540519419484
-0.43619363027865554, -0.5968910905405811, -0.07008241582028776
-0.5652375845263282, -0.5968910129231942, 0.27808874246693915
-0.5618425078269347, -0.5968910084562835, 0.2981261279768918
-0.5544006807543984, -0.5968910410166026, 0.15206911056305084
-0.4831634702120038, -0.5968910891377801, -0.0637898195804345
-0.43013104308771355, -0.5968910014050092, 0.3297562879576824
-0.4337036564080249, -0.5968910420168186, 0.14758240496692626
-0.5297736727930835, -0.5968909951900251, 0.35763506970526593
-0.4839520207906332, -0.596890998506283, 0.34275920967657464
-0.42062892043867806, -0.5968910503290266, 0.11029602890419152
-0.5091912011685699, -0.5968910103553974, 0.2896072027520126
-0.4184452016704662, -0.5968911517021694, -0.34443719495645797
-0.41827337205895043, -0.5968910504367858, 0.1098126491924234
-0.6457812361854564, -0.5968909965079474, 0.3517232172139612
-0.48303993293024233, -0.5968910871232567, -0.054753198393555
-0.5908662255939768, -0.5968909934959495, 0.3652342465120607
-0.5000557129953578, -0.5968910789566383, -0.01811989870326569
-0.4978374940714069, -0.5968910342394111, 0.18246980648394018
-0.5025697817754128, -0.5968910546356294, 0.09097774265296535
-0.4906232737135573, -0.5968910278048523, 0.21133354366465673
-0.5993878767513449, -0.5968909935315098, 0.3650747325051317
-0.6053929813238019, -0.5968910297819474, 0.20246481550432766
-0.4412145900293346, -0.5968910733439232, 0.007057262598596459
-0.44044273803047035, -0.5968911131641561, -0.17156581564590972
-0.5069887397054809, -0.5968911525242315, -0.348124722522643
-0.6130428122902108, -0.5968911462078754, -0.31979117924958494
-0.45676422424364754, -0.5968911639069329, -0.39918453520664166
-0.532637228778292, -0.5968911012517559, -0.11812991604198592
-0.5923825364805504, -0.5968911523924575, -0.3475335899214144
-0.6439085052873665, -0.5968911124072721, -0.168170579565369
-0.620713985689693, -0.5968911419384827, -0.3006398069127772
-0.4511715358925852, -0.5968911580654902, -0.37298136607196
-0.6499770783865195, -0.5968910929929067, -0.08108285584566774
-0.5329396540990319, -0.5968911224037297, -0.21301208934949817
-0.4856536140337949, -0.5968911398852146, -0.29142943433734353
-0.5952569354572868, -0.5968911011842128, -0.11782691357390984
-0.5369625677766253, -0.5968911486498157, -0.33074510532897766
-0.669241019618305, -0.5968911396665919, -0.2904486870551286
-0.5005171672574014, -0.5968911287785585, -0.24160790057903736
-0.6669113576897684, -0.5968911188488167, -0.1970656411800018
-0.6571685151119375, -0.5968910673847361, 0.03378864349345667
-0.5782261890684399, -0.5968911381325352, -0.2835673454931771
-0.6604375359944419, -0.5968911308833158, -0.2510492312434518
-0.5558014357768293, -0.5968910891404161, -0.06380163258182306
-0.5719427971528859, -0.596891093175131, -0.08190029328061113
-0.6445156213810572, -0.5968911179566441, -0.19306359807971202
-0.6031433280548402, -0.5968911123619038, -0.16796708330730642
-0.6494800893685392, -0.5968910428914423, 0.1436590941576668
-0.6295064394458646, -0.596891051620932, 0.10450089962246689
-0.6074639388337288, -0.596891157478777, -0.37034947118844314
-0.5796023431459962, -0.5968911320303577, -0.2561945865731501
-0.48400243631177503, -0.5968911283199798, -0.23955084329074455
-0.5466278326093136, -0.5968911136077776, -0.1735557639708361
-0.4802629868005326, -0.5968911546869244, -0.3578260020565816
-0.6625681110511916, -0.5968910610892324, 0.06202861374443727
-0.6695041504474875, -0.5968911077274272, -0.14717802102106117
-0.6688152923390643, -0.5968911511821088, -0.3421042575844509
-0.5773700600343596, -0.5968911416796359, -0.2994787032603763
-0.5646511227840282, -0.5968911357233748, -0.2727604924610735
-0.5214231433228096, -0.5968911369902743, -0.27844348397756014
-0.6305832501709359, -0.596891030305355, 0.2001169550601529
-0.5554836539498433, -0.596891074025311, 0.004000740309461431
-0.5077743448991757, -0.5968911237597548, -0.2190948688764358
-0.5971011408664647, -0.5968911403863568, -0.29367738768342344
-0.6101335973836111, -0.5968911255596074, -0.22716849741401512
-0.6192820024079719, -0.5968911573251373, -0.3696602807718186
-0.6651571435643473, -0.5968910422383238, 0.14658881714449112
-0.45807533431028524, -0.5968911583092396, -0.37407475880917596
-0.6590382419977039, -0.5968911553856211, -0.36096010849948695
-0.6498044701531911, -0.5968910316376308, 0.19414072402894672
-0.5056366059143622, -0.5968911214390868, -0.2086849657652213
-0.5971659792822643, -0.5968911208494685, -0.20604006123982094
-0.6583600984318403, -0.5968910071353899, 0.30405131524334816
-0.6634000439798227, -0.5968911324406052, -0.25803481924627436
-0.6402315790162585, -0.5968911505800087, -0.33940340582085765
-0.6288962156112121, -0.5968910429327903, 0.14347361135674383
-0.6516660448576803, -0.5968910687810689, 0.02752506088724757
-0.5565889085704862, -0.5968911241749102, -0.2209571292775286
-0.5615254300443341, -0.5968911645955316, -0.4022733710943257
-0.5888112403234846, -0.596891113583477, -0.17344674347944433
-0.5807066684069153, -0.5968911134215197, -0.17272024810018213
-0.5680469845077575, -0.596891140421683, -0.2938358621368046
-0.6664850850426862, -0.596890996099661, 0.3535546862344261
-0.6228507967079521, -0.5968911606731802, -0.384678716471204
0.9075305852168013, -0.7061778033512817, 0.4024288018814817
0.9069700312155913, -0.680960123297698, 0.40242883052661793
0.968977810232377, -0.7287130503683495, 0.4024287573531722
0.8702432777272461, -0.6410738871430929, 0.40242888696608914
0.9658026133317443, -0.6975230345225502, 0.4024287935532579
0.9553147163254359, -0.629996032487997, 0.40242887304953967
0.9576937005810857, -0.6761273298234047, 0.40242882022789733
0.9281298491561174, -0.6963138444916397, 0.40242880661977276
0.9496302964132197, -0.6084231308606458, 0.40242889917117813
0.7534119022551327, -0.6345148123334886, 0.40242893065969365
0.8059713392914842, -0.6345291948126135, 0.4024289143182629
0.9647622231624808, -0.736039606142317, 0.40242875039079395
0.7040240446094936, -0.6792822473784377, 0.4024288954569021
0.802206537689603, -0.7198726035665237, 0.4024288191340466
0.7700919984014072, -0.7084996408999835, 0.4024288419491598
0.8086994882043135, -0.6849281789111312, 0.4024288565699141
0.8090955758813954, -0.7144585772798311, 0.4024288231067699
0.7201114690353926, -0.7116934875449925, 0.402428853867457
0.7903248224589512, -0.6837397925516597, 0.40242886361887004
0.6986416829773497, -0.6990227139291599, 0.4024288748415025
0.9508539558258127, -0.736539082758322, 0.4024287541468516
0.7846431980801021, -0.7179284611750543, 0.402428826784257
0.7421378668913892, -0.6834142119966191, 0.40242887895354384
-0.7371235326944922, -0.7352941784026176, 0.4024289160363099
-0.8718157711466463, -0.6675149584222373, 0.40242898848167524
-0.9487318829772574, -0.7128304064904705, 0.40242899190751313
-0.8761493807908025, -0.6950587214052183, 0.4024289773888379
-0.9141069368367397, -0.6673376311562931, 0.40242900169757667
-0.7056761109131733, -0.7344167777419598, 0.4024289066648419
-0.8852735663367133, -0.7331710403728513, 0.40242896301117154
-0.9146726844815778, -0.7183771867145109, 0.4024289788236297
-0.9158917276789121, -0.7010016508808956, 0.4024289870491324
-0.7552185434777721, -0.7175172672366609, 0.40242892968482424
-0.9304550571453569, -0.6646136064598703, 0.4024290080055545
-0.9039782078092605, -0.6131077654421334, 0.4024290363373435
-0.8482324504582608, -0.6459230513446966, 0.40242899928851794
-0.7448934405485889, -0.6430861789719178, 0.4024290024913786
-0.7423997021945383, -0.6173775460779203, 0.4024290315167133
-0.7476222518481371, -0.635407495223834, 0.4024290111606986
-0.7743606182324908, -0.6394168630810451, 0.40242900663407744
-0.6859819209225123, -0.6129605861256189, 0.4024290365035106
-0.7306251041717533, -0.7111319977053588, 0.4024289256668866
-0.8416202855148853, -0.630719487084493, 0.40242901645351237
-0.7572800386426696, -0.6577493532373488, 0.40242898593649057
-0.6876725689353291, -0.6079282918534525, 0.40242904218502723
-0.8896502876337654, -0.6068585630329396, -0.40651601552963257
-0.8807094402595369, -0.6708276328528818, -0.40651601552963257
-0.800262258154351, -0.6188604809448932, -0.40651601552963257
-0.735245509853238, -0.6301314656175486, -0.40651601552963257
-0.9484824247542796, -0.6903805102878192, -0.40651601552963257
-0.9307586852001544, -0.6660510057226703, -0.40651601552963257
-0.8869413951652237, -0.6571693983149927, -0.4065160155296326
-0.8294340117814443, -0.6439215177137492, -0.40651601552963257
-0.878721839646533, -0.6809395361884728, -0.40651601552963257
-0.8548740971945772, -0.6824801580775902, -0.40651601552963257
-0.9603094478807817, -0.6164691574149532, -0.4065160155296326
-0.7362609940787459, -0.6843250589461491, -0.4065160155296325
-0.8023308321050422, -0.6867392971015334, -0.40651601552963257
-0.7518308899950101, -0.7312666946696594, -0.40651601552963257
-0.7111849663161813, -0.6935263640457789, -0.40651601552963257
-0.8486776241389327, -0.715221133281748, -0.40651601552963257
-0.8565508111031745, -0.7101926696790795, -0.40651601552963257
-0.8102061210554476, -0.6911328377537884, -0.40651601552963257
-0.7260020484047197, -0.7324027565889295, -0.40651601552963257
-0.8366436871481013, -0.7303429491529159, -0.40651601552963257
-0.6891620135253143, -0.6397588100555108, -0.4065160155296325
-0.8968935951699872, -0.7257149639033986, -0.40651601552963257
0.776063757830832, -0.7261109118733045, -0.4065161838345354
0.8513090697634114, -0.6801681371513808, -0.40651619941554384
0.9460485560059892, -0.7291247865999801, -0.406516219033221
0.9643537656698985, -0.6662992642398392, -0.40651622282366173
0.9689501593024562, -0.6486387006434556, -0.4065162237754319
0.9418855323321222, -0.6878328097232311, -0.4065162181711776
0.9706993422861045, -0.6323056222262269, -0.4065162241376315
0.798407859341463, -0.7025832727839525, -0.4065161884613153
0.9481089584968365, -0.6412805189048171, -0.4065162194598513
0.8293210415475809, -0.7207398000052967, -0.4065161948624991
0.9700469882284898, -0.6459423584050259, -0.4065162240025513
0.8881990577495873, -0.6389626843381782, -0.40651620705433184
0.6859004695772963, -0.6555494787484439, -0.4065161651644534
0.7414701433364465, -0.6977157379208679, -0.4065161766712453
0.7321972235197148, -0.6560608692974872, -0.4065161747511019
0.7453552217656916, -0.647821322072049, -0.4065161774757221
0.7325565350213183, -0.6660640783127137, -0.4065161748255054
0.6885409868703014, -0.6533750492890293, -0.4065161657112239
0.7418593390990812, -0.6706651997792905, -0.4065161767518334
0.8447651631573863, -0.655590393533429, -0.4065161980604959
0.8286331484684022, -0.6308189047319147, -0.40651619472004435
0.7759747662725258, -0.6482066819921073, -0.40651618381609783
-0.7551871935911794, -0.5980472689258324, -0.40428991310914314
0.8471795160954023, -0.5987772257396796, 0.4009545170342626
-0.8636632711723593, -0.6007736936176409, 0.40181819713688
0.879828209182457, -0.6001937929980028, 0.40160314498129
-0.7642164844693846, -0.6021392092478817, -0.40641109768686723
-0.7978568509334076, -0.7474599480628967, -0.045990353625902425
-0.7429159542845054, -0.7474599480628967, -0.10420758845229591
-0.8655418978245094, -0.7474599480628967, 0.31499782931146836
-0.6744433943462843, -0.7474599480628967, -0.31022392613826144
-0.7997884125659991, -0.7474599480628967, 0.14214528110191788
-0.712898460359157, -0.7474599480628967, -0.08791537430737384
-0.7211112867156815, -0.7474599480628967, 0.11398256454587682
-0.9021247559099689, -0.7474599480628967, 0.21515587294500865
-0.8680267275905222, -0.7474599480628967, 0.25906188553163667
-0.7879426354404863, -0.7474599480628967, 0.2635601806596285
-0.8696395389777406, -0.7474599480628967, 0.2954097510546852
-0.7083512906943281, -0.7474599480628967, -0.12092266493163287
-0.7481454954669777, -0.7474599480628967, 0.03586282945028532
-0.7692220242858873, -0.7474599480628967, 0.3069484638891361
-0.6963260382989716, -0.7474599480628967, 0.18558192270935606
-0.6870928431005852, -0.7474599480628967, -0.18974265698695503
-0.727283464646791, -0.7474599480628967, -0.15798437419006892
-0.7476335833903288, -0.7474599480628967, -0.1651962895533311
-0.8780164776046985, -0.7474599480628966, 0.3703406370484411
-0.7620002640805935, -0.7474599480628967, 0.2848561642725065
-0.8882824601255558, -0.7474599480628966, 0.2097580517972851
-0.7852846098588733, -0.7474599480628967, 0.10829976166869579
-0.8202118462064442, -0.7474599480628967, 0.3048173741763173
-0.7324265537850461, -0.7474599480628967, 0.34979366182252836
-0.7608060473921355, -0.7474599480628967, 0.20721969875470364
-0.7931064256921906, -0.7474599480628968, 0.27043280701783423
-0.7463332409568911, -0.7474599480628967, 0.3331891821486239
-0.8023827704229253, -0.7474599480628967, 0.29872244825956806
-0.7113686795988747, -0.7474599480628967, -0.07026192021658698
-0.6741854782978132, -0.7474599480628967, 0.002551628283398638
-0.7292131686112784, -0.7474599480628967, -0.11936377325482528
-0.7916648048967482, -0.7474599480628967, 0.0035879057208776655
-0.6744822240848527, -0.7474599480628967, -0.012808198140194016
-0.7969059313889364, -0.7474599480628967, 0.10426295974694708
-0.7705693120393227, -0.7474599480628967, -0.09386922666051137
-0.8027342477363504, -0.7474599480628967, 0.3382908350109778
-0.7381733540151513, -0.7474599480628967, 0.02040777142405245
-0.8367080232078192, -0.7474599480628968, 0.22932828092376373
-0.7378281689780084, -0.7474599480628967, 0.041001171739447034
-0.8855013701872637, -0.7474599480628967, 0.33031740010085103
-0.6950544840675562, -0.7474599480628967, 0.07959105805755304
-0.7316298188036837, -0.7474599480628967, 0.040913046789142316
-0.7087118706568476, -0.7474599480628967, 0.28574759156031965
-0.6894095818297274, -0.7474599480628967, 0.23107369036160985
-0.8552982068831625, -0.7474599480628967, 0.21516408660235584
-0.8560052306027941, -0.7474599480628967, 0.2033211073522111
-0.7503382094744693, -0.7474599480628967, -0.07018964276731046
-0.8796092500898772, -0.7474599480628967, 0.3323799557958504
-0.7462321909115559, -0.7474599480628967, 0.2958641288216397
-0.7820571830892233, -0.7474599480628966, 0.36746803731964367
-0.7959930194393658, -0.7474599480628967, 0.009411574697050729
-0.7148069553452586, -0.7474599480628967, 0.3801185985915595
-0.860820316046371, -0.7474599480628966, 0.1630561478148898
-0.7330421420048956, -0.7474599480628967, 0.32046629416958006
-0.6921753577176468, -0.7474599480628967, 0.1232950268788161
-0.848480348758134, -0.7474599480628967, 0.23787690437222858
-0.8324542408510827, -0.7474599480628967, 0.17992400626988309
-0.6763080651828046, -0.7474599480628967, -0.31432691699912874
-0.7261246802395738, -0.7474599480628967, 0.030931812247541407
-0.7126490954895344, -0.7474599480628968, 0.14471839995304459
-0.9218365172848462, -0.7474599480628967, 0.30581317242782263
-0.8028893736195106, -0.7474599480628967, -0.06501556232188097
-0.7597254642559782, -0.7474599480628967, -0.03286288702028356
-0.949098288457535, -0.7474599480628968, 0.36816577509044185
-0.704923268800633, -0.7474599480628967, 0.11829517103647447
-0.7108321451900178, -0.7474599480628967, 0.08145166569938334
-0.7111233424800806, -0.7474599480628967, 0.277264234615382
-0.8239831359631093, -0.7474599480628967, -0.004681533100531127
-0.7387085964445941, -0.7474599480628967, -0.09752964496387104
-0.6742855196349762, -0.7474599480628968, 0.28719311308103784
-0.708949610695417, -0.7474599480628967, -0.12659302590600696
-0.7257675783403295, -0.7474599480628967, 0.15529971260764094
-0.742346698941347, -0.7474599480628967, 0.19430169473020448
0.8226356505402458, -0.7474599480628967, -0.335753458217244
0.7538206234025489, -0.7474599480628967, -0.10051299039988368
0.8855611560480086, -0.7474599480628967, -0.2234971989467452
0.7261594685254382, -0.7474599480628967, -0.21311311263658522
0.9342698602932338, -0.7474599480628967, -0.3443137100512745
0.9064506382177626, -0.7474599480628967, -0.31075409564831735
0.9446838381136653, -0.7474599480628967, -0.38583943739006094
0.6960878968006623, -0.7474599480628967, 0.28125468266206954
0.9566955323105305, -0.7474599480628967, -0.3718225226323302
0.7975287724709582, -0.7474599480628967, 0.07476487650890976
0.7806374573099275, -0.7474599480628966, -0.19694906006297036
0.8483703037020661, -0.7474599480628967, -0.3748240963067837
0.8169950408455129, -0.7474599480628967, -0.17510981977595255
0.9209073001871853, -0.7474599480628967, -0.2241827686371201
0.7194384082012862, -0.7474599480628967, 0.24168955298323647
0.9273158062841378, -0.7474599480628968, -0.2898812137144719
0.7085534186768604, -0.7474599480628967, 0.08130190606850948
0.6886812804882843, -0.7474599480628967, -0.1389398901945319
0.8081683354209213, -0.7474599480628966, -0.08270055613433902
0.6891249084796298, -0.7474599480628968, 0.17599389187565526
0.9385698010268884, -0.7474599480628967, -0.3426538123339427
0.6989191715527406, -0.7474599480628967, -0.26564300892642156
0.9181292918544441, -0.7474599480628966, -0.26548077750991955
0.8252744181240281, -0.7474599480628967, -0.35560032897988486
0.6986919305914969, -0.7474599480628967, 0.052058710945541126
0.7960068866584077, -0.7474599480628967, -0.30698965947685014
0.8694281281404664, -0.7474599480628967, -0.16783600290845085
0.7922305352570238, -0.7474599480628967, 0.008579693937518451
0.7601649012626603, -0.7474599480628967, -0.08239178754230761
0.871582474170459, -0.7474599480628967, -0.2639213079939499
0.7272349941492734, -0.7474599480628967, -0.2513172299179945
0.6816060678959792, -0.7474599480628967, 0.3841975764096587
0.8858403045630019, -0.7474599480628967, -0.3829381490782787
0.8754816671137385, -0.7474599480628966, -0.2414868912598544
0.8618457453126027, -0.7474599480628967, -0.07663142909441856
0.822140472936201, -0.7474599480628967, -0.29189862320472626
0.7151522805657062, -0.7474599480628967, -0.12253294310913537
0.7306543350208963, -0.7474599480628967, 0.0564550375112336
0.7008940684313423, -0.7474599480628967, -0.013293267652282642
0.8884115856173509, -0.7474599480628966, -0.3043824243748402
0.7330631226797664, -0.7474599480628967, 0.12003916643875256
0.8343710053305149, -0.7474599480628966, -0.24171480078881952
0.8652943380768198, -0.7474599480628967, -0.14477787256396535
0.7603502513249417, -0.7474599480628967, 0.09097477603712645
0.6796640640718636, -0.7474599480628967, -0.2509605902591169
0.7156489441167079, -0.7474599480628968, -0.3918967422137703
0.8736989705573582, -0.7474599480628967, -0.37384670805522635
0.7395609136718893, -0.7474599480628967, -0.10226207184883249
0.7454247518194267, -0.7474599480628968, 0.20346430003413918
0.7118114258211876, -0.7474599480628967, -0.2195015581517994
0.7293452561685476, -0.7474599480628967, -0.013246015852055315
0.7647825063352179, -0.7474599480628968, -0.2372135248672697
0.6972055243545775, -0.7474599480628967, 0.3302415497182159
0.7075255035830903, -0.7474599480628967, -0.022396719198776865
0.7892384787244254, -0.7474599480628967, -0.3618055613516505
0.7517417376783783, -0.7474599480628967, -0.3387061048488083
0.9270239447074666, -0.7474599480628967, -0.2602020457342846
0.8838168190551198, -0.7474599480628967, -0.37283302323239487
0.8621882309704683, -0.7474599480628967, -0.3941130035166885
0.8843987778581192, -0.7474599480628968, -0.3088155323747419
0.6875692081392517, -0.7474599480628967, 0.2051383588775093
0.7460591747315352, -0.7474599480628967, 0.20824410878066255
0.8136642223419668, -0.7474599480628967, -0.3510350933588707
0.8133247309610773, -0.7474599480628967, -0.211571735234667
0.7767092173482886, -0.7474599480628967, 0.12565327951917324
0.7918192365629532, -0.7474599480628967, -0.29340871213633046
0.7217256089483899, -0.7474599480628967, -0.14808277851811938
0.8080858952297724, -0.7474599480628967, -0.3838272011171641
0.9188639469201157, -0.7474599480628967, -0.3922071646549629
0.707552812147482, -0.7474599480628967, -0.3184891620593022
0.928106556419196, -0.7474599480628967, -0.3470182184034297
0.7160185895776034, -0.7474599480628967, -0.3183452766499266
0.853262241522496, -0.7439712400659441, 0.4016348529780922
-0.8941226658843577, -0.7446394096442156, 0.4013942868256422
0.867968443831503, -0.7445212708374704, -0.40552414995393066
-0.8707372697928302, -0.7461023722641238, -0.40445662470142324
0.9551481727670087, -0.7461932525284698, 0.400278700112605
0.7948203109888222, -0.596891029898168, 0.09833419865056056
0.9057203747891427, -0.5968909878106458, 0.37664319707931154
0.8018638727101788, -0.5968910498473934, -0.036206315509970055
0.7787096170052491, -0.5968910072615368, 0.2513563066966847
0.6854755104220215, -0.5968910085697775, 0.24665745758254523
0.7163325696373538, -0.5968910864347541, -0.27862352162733806
0.883828215616149, -0.5968910239731994, 0.13428321331291257
0.9008855585433085, -0.5968910166503056, 0.1828052869024503
0.8626273368495536, -0.5968910276647742, 0.11037723567539626
0.7692655166859641, -0.5968910306208597, 0.09459630899274427
0.7820288975250312, -0.5968910526604595, -0.054261274092828854
0.7646386853898048, -0.5968910202712835, 0.1644381880480002
0.718122524055224, -0.5968910415352235, 0.023408959112208694
0.7975518370914344, -0.5968910046395787, 0.2681690733856207
0.830158601818845, -0.5968909934813251, 0.3418133505425936
0.7385006672272024, -0.5968910052738905, 0.26650023206462387
0.7710110736474522, -0.5968910429802652, 0.011357902223831456
0.8951462128041695, -0.5968909945757328, 0.33158902113964395
0.7420165742149717, -0.5968909900082998, 0.36906162592897473
0.6811062238482297, -0.5968910113693694, 0.2280124244768889
0.7515075209634001, -0.5968910616697088, -0.11353753929789878
0.7203277739592574, -0.5968910192713882, 0.1731164760504904
0.7510516950065939, -0.5968910084401031, 0.24464358775995948
0.6851431706962023, -0.5968910739707438, -0.19338527186317353
0.7263174867797562, -0.5968910087173176, 0.24386702029080748
0.7749084958558311, -0.5968910017395557, 0.28867885449641756
0.8540297429759348, -0.5968910172326062, 0.1809496196377368
0.7746917430313067, -0.5968910429171932, 0.01162028118868702
0.9062464817358344, -0.5968910154529217, 0.19062604700425767
0.8597987282126144, -0.5968910141557534, 0.20139862265308822
0.7472888872893106, -0.5968910536263753, -0.05923142678219337
0.8464053103686822, -0.5968910372644554, 0.04649878866606261
0.6922737707195462, -0.5968910395643532, 0.03780792675904496
0.7052395563228429, -0.5968909961003882, 0.32968913667717303
0.8481592944475991, -0.5968910220537622, 0.14876835194260513
0.7699730163900251, -0.596891019161892, 0.17166805086358228
0.7185539400184056, -0.596890995794855, 0.331158903266333
0.7011830848308672, -0.5968910589407491, -0.09296036637789235
0.8669410739222366, -0.5968909902136982, 0.36218091095755817
0.7461263008011347, -0.5968910242161835, 0.1387093491700092
0.7717389325376554, -0.5968909970941519, 0.32007545880362875
0.7520397834971955, -0.5968910296682333, 0.1017643645411426
0.6935091769233683, -0.59689099812233, 0.31660060968928233
0.9335256673113502, -0.5968909896834114, 0.36281821816724513
0.8077586181566644, -0.5968910256348448, 0.12645093108975128
0.9237761552663657, -0.5968910056542569, 0.2557858196204944
0.8514763233095307, -0.5968910053310978, 0.26114257550987663
0.8192474080893041, -0.5968910350427533, 0.06264312749295403
0.6991361075382296, -0.5968910492095914, -0.027393137087858815
0.8822024371682253, -0.5968910054918489, 0.25870850524995764
0.9255251112482281, -0.5968910023218581, 0.27813123697428216
0.8647192766021231, -0.5968909912849175, 0.355070892322547
0.8458703760757045, -0.5968910371439178, 0.04733338397345804
0.7919942431879674, -0.5968910321105318, 0.08357246544181546
0.7015218100016369, -0.5968910342387227, 0.07323493636220077
0.7892270923174196, -0.5968910042351577, 0.2712566835489212
0.7295905151492076, -0.596890986083007, 0.3960203205652255
0.8382145140483379, -0.5968910091809059, 0.23582246381750024
0.749323037756257, -0.5968910218818667, 0.15427534001656745
0.7173584220837577, -0.5968910576671358, -0.0851026962540429
0.6878863786924492, -0.596891064867435, -0.13225343596358025
0.729053740012372, -0.5968910691794762, -0.16307948363203528
0.842356633996441, -0.5968910404913047, 0.02496479546745542
0.7324902685817886, -0.5968910520396247, -0.0479034320758773
0.7959394136749263, -0.5968910219262342, 0.1519249446758954
0.7287195853644148, -0.5968910724826235, -0.18529035301143834
0.8190942721861342, -0.5968910322564203, 0.08139800576548895
0.7369306681469353, -0.5968909868159797, 0.3907653518169776
0.7366241517119941, -0.5968910323006225, 0.08473058757775742
0.803871355492388, -0.5968910037046734, 0.27418152298176185
0.7083226702401167, -0.5968910808831679, -0.24091652033430946
0.8653949814987507, -0.5968909943972467, 0.3340995132452486
-0.7709019718828227, -0.5968910734802424, 0.01084936708845502
-0.8491060839041609, -0.5968910939219363, -0.07740446048572361
-0.8440342506691331, -0.5968911321108326, -0.24893302024141806
-0.7544171878818847, -0.5968910944864968, -0.08410474329377801
-0.6883220592036567, -0.5968910513235635, 0.10660356066504123
-0.8105849720736014, -0.5968911316595125, -0.24838081601150297
-0.8769662062865073, -0.5968911082454874, -0.14042984697094563
-0.771265687452235, -0.5968910704102979, 0.02463633772474269
-0.8119257498975364, -0.5968911603593571, -0.37706173606840493
-0.9308044661867313, -0.5968911445170668, -0.3007648501150126
-0.8007446783775197, -0.596891062355721, 0.06206458874714943
-0.7091471072988347, -0.5968910339811687, 0.18531360254119555
-0.6975825706007117, -0.5968910046739999, 0.31626881097154674
-0.7868624575352644, -0.5968911013471649, -0.11345178500391975
-0.7185555313735164, -0.5968910560504618, 0.08673069303637049
-0.7006362533587782, -0.5968910878725475, -0.056803525084090395
-0.8349117288956206, -0.5968911458217269, -0.3108380130657103
-0.6851694625576229, -0.5968910445209985, 0.13697930858970914
-0.8730974197405542, -0.5968911117818394, -0.15646327737940913
-0.7812296866193549, -0.5968911632673943, -0.39145753803751604
-0.8629669585248632, -0.5968911643095574, -0.39253467034449313
-0.9574571809834261, -0.5968911638563821, -0.3863427775292782
-0.8172194994091564, -0.5968910943630632, -0.08078675499033383
-0.8891284692688326, -0.5968911587469476, -0.3664307481284279
-0.6816561043662197, -0.5968911466007245, -0.3210780687969043
-0.6900152488801108, -0.5968910861351683, -0.04947759240749988
-0.6734459910579768, -0.5968911400671494, -0.29213154863957436
-0.7348027864374574, -0.5968911538772613, -0.3513793972809878
-0.7882766695334269, -0.5968911260900966, -0.2243798044925265
-0.7278924383669059, -0.5968910466981827, 0.1290935231749403
-0.8637576501564147, -0.5968911301385694, -0.23921782571985017
-0.8310066754864809, -0.5968911129532963, -0.1635707849714455
-0.7983058220270021, -0.5968910764049906, -0.001064078914143729
-0.6796272633394606, -0.5968910587852562, 0.07274966557828458
-0.7877363318984758, -0.5968911604068179, -0.37833935120400014
-0.7059887915243894, -0.5968910397012346, 0.1595158794696745
-0.7679701897597075, -0.5968910678194053, 0.036113344640174516
-0.7645960693402323, -0.5968911131879363, -0.16754643747829534
-0.952408521197179, -0.5968911576143029, -0.3585646772116225
-0.9057814639061369, -0.596891161890049, -0.3797968762641878
-0.9222471482455312, -0.596891133593989, -0.25214346130736265
-0.7098747072811968, -0.5968911633055771, -0.3947695665328734
-0.7052623686050707, -0.5968910542289817, 0.09431626262995801
-0.8984279214440792, -0.5968911459775289, -0.308741179601428
-0.6969390666423149, -0.596891069635896, 0.02483855036182256
-0.673442482305207, -0.5968910851093536, -0.04560552301638479
-0.686544437952944, -0.5968910673636572, 0.034573685946187566
-0.7335589721065222, -0.5968911301004044, -0.2447774339584437
-0.8106026662492729, -0.5968911450815226, -0.30858763533570965
-0.9445288657780886, -0.5968911449584298, -0.30214059717754443
-0.7222516140637164, -0.5968910457350087, 0.13316578151904104
-0.7657246107232374, -0.596891049899292, 0.11639940662015996
-0.8357653627052953, -0.596891140811972, -0.2883280000461397
-0.8006489994052662, -0.5968911527242641, -0.3433090778471557
-0.7224054480907677, -0.5968911533036219, -0.3493518811631694
-0.8274015909518253, -0.5968910896037622, -0.05898961240025091
-0.7332028891495075, -0.596891051153009, 0.10934409085434352
-0.7033108780697325, -0.5968910195611331, 0.24974119323168292
-0.7222126499136126, -0.596891058288575, 0.076852078469267
-0.8357198109054804, -0.5968910826950301, -0.027632727938508433
-0.7548541113201332, -0.5968911208260864, -0.20223796522834467
-0.7868159835964977, -0.5968911571536268, -0.3637869029607682
-0.8057107419492072, -0.5968911054679584, -0.13110695489240837
-0.7648621148597147, -0.5968911132434758, -0.16778386270877904
-0.9128413614447072, -0.5968911303358497, -0.23794231168206814
-0.732136558586608, -0.5968910366454816, 0.17437409767865508
-0.7267647779297252, -0.5968910923237907, -0.07562055876406937
-0.7521261289833452, -0.5968911095927842, -0.15196840836476205
-0.85400446574878, -0.5968911081328463, -0.14093524957627382
-0.8524511801032812, -0.5968911372723819, -0.27171589121386663
-0.6841596640275218, -0.5968911636863754, -0.39760959672397894
-0.8252862392464546, -0.5968911017478994, -0.1135581181509493
-0.6966773318235004, -0.5968910417880124, 0.149745292414766
0.18050928204094255, -0.6931013337782295, 0.4024288581310459
0.16991209832899218, -0.6662613567665582, 0.40242889550667205
0.23180782471145853, -0.6275881507415723, 0.40242895213739094
0.1889375922325316, -0.6993405648498932, 0.4024288496573492
0.23245830320769234, -0.695164135732699, 0.4024288570986749
0.19113099007296175, -0.6946530812702778, 0.4024288563303723
0.12353374525565086, -0.6779038307251859, 0.4024288778684009
0.16472293972593502, -0.6470798823849301, 0.4024289231810884
0.12007502542349768, -0.6470543182983515, 0.40242892316431755
0.10179413147397817, -0.6422480851665205, 0.4024289301996624
0.19190386467459722, -0.620807626257052, 0.4024289617929282
-0.14036216377146732, -0.6437767488993473, -0.40651612758697564
-0.20422763628960372, -0.6643784021282209, -0.40651609845193415
-0.11975724943756326, -0.6119606002472631, -0.4065161369942478
-0.18179166162160101, -0.6297946667947804, -0.4065161086951681
-0.19181498844877093, -0.6655647122477203, -0.4065161041129757
-0.22429604592226188, -0.6788153370267509, -0.40651608929449506
-0.06339171929403566, -0.6248082036985053, -0.40651614726169233
-0.08820966589437051, -0.7067310629449409, -0.4065160753538255
-0.09793469082970524, -0.6652056793623957, -0.40651611230488155
-0.14329541969725884, -0.6595042994790912, -0.4065161183692845
-0.11317608036338059, -0.6499020658650918, -0.40651612618511174
0.13373233140259258, -0.5987382392511847, 0.40091445248742513
-0.1566436012725348, -0.717239254451024, 0.09547264799738059
-0.19325341491664857, -0.7182057579997871, 0.19062486740726792
-0.16738831560460288, -0.7175229152623981, 0.05360233325177732
-0.2268951141598919, -0.7190939039798421, 0.35188484198357145
-0.19525557283268805, -0.7182586171921513, 0.3399396803441515
-0.17893469564797782, -0.7178277432368523, 0.23886272676483233
-0.2057647950497185, -0.7185360553717144, -0.1111533157098108
-0.13812804797397632, -0.7167504450411561, 0.2991032019043743
-0.21178071051837796, -0.7186948824302237, 0.35275176850254464
-0.15389117330395857, -0.7171665916160919, 0.20478715937141517
-0.24511852821156768, -0.719574996158718, -0.19615902303862603
-0.19038168884649317, -0.7181299411261538, -0.032012432130471724
-0.10526849234461236, -0.7158829495133182, 0.26842862647946153
-0.24244532430791244, -0.7195044219065638, -0.30089046675347186
-0.2440406848535139, -0.7195465429264665, -0.05594445994206004
-0.19218025191155919, -0.7181774247394831, 0.06943148195216561
-0.23087798341642002, -0.7191990457452356, -0.10884588936372491
-0.201632212086153, -0.7184269590993707, 0.20013927103454132
-0.2141169868127242, -0.7187565601760332, 0.3418186430844958
-0.18507360731109107, -0.7179898088969189, 0.08317036005831902
-0.23450683990801363, -0.719294850337143, 0.07080982018312595
-0.21104437621088484, -0.7186754383889608, 0.006714064210836479
-0.22888925459061354, -0.7191465442010332, -0.031033215187981023
-0.09083014570853133, -0.7155017773715657, 0.37448669909099774
-0.24316388395168023, -0.719523400702719, 0.3369776065597662
-0.21716299843723752, -0.7188369744608581, 0.29192683590924356
-0.15982444463746323, -0.7173232310217962, 0.2433862333291644
-0.11773589301452406, -0.7162120914993315, 0.379956623297812
-0.08395904552398903, -0.715320379586777, 0.36382001595324953
-0.23321592252268522, -0.7192607712066139, 0.15818937078435702
-0.21856363723712946, -0.7188739501794758, 0.19968784166992665
-0.24203139853296268, -0.7194934969928921, -0.09972215777174775
-0.23531900999900474, -0.7193162904180954, -0.022370444650230747
-0.23724571608652928, -0.7193671531251344, -0.20442632634828753
-0.09968903405670167, -0.7157356518586857, 0.30673567567444887
-0.12849651408459917, -0.7164961721942041, 0.33402596336133267
-0.15811399041306362, -0.7172780760032174, 0.324993755677303
-0.18183815146952903, -0.7179043919303222, 0.03562299086499848
-0.18283076684510813, -0.7179305956021367, -0.07068206035655061
-0.21607961448993573, -0.7188083702086262, 0.08639528844474828
-0.1380965047872071, -0.7167496115009843, 0.24104246964195336
-0.17185859190968417, -0.7176409345478069, 0.31610948420158513
-0.15849193215887594, -0.7172880531958767, 0.2884328148752943
-0.12635474828202875, -0.7164396205841065, -0.2990118640721757
-0.1105985906943178, -0.7160236616738341, 0.06072021964886673
-0.07927593576390551, -0.7151967382376252, -0.12573955283772578
-0.18673042348929056, -0.718033544470394, -0.24322295239141134
-0.18984911677942387, -0.7181158794337184, -0.15825361107071823
-0.0865780503392753, -0.7153895161167512, -0.02446203310225309
-0.12382170734982245, -0.7163727512105866, -0.07517987792547895
-0.08881088957884321, -0.7154484583070732, -0.37937819502059905
-0.11486015910673564, -0.7161361675735072, 0.06936463899125817
-0.21155454605902507, -0.718688901472504, -0.38667148422457026
-0.08664135961757319, -0.7153911826869392, -0.36788769166239627
-0.11251308050044281, -0.7160742058661732, 0.1676047347146393
-0.15489930492026774, -0.7171931998524046, -0.2649377565171544
-0.21759929940954367, -0.7188484847497864, -0.2965207690051917
-0.1506681674667664, -0.717081496042492, -0.36588762536136216
-0.10007632213745088, -0.7157458664606972, -0.39735702379170895
-0.15889988400614855, -0.7172988153141711, -0.27753129409793104
-0.10933559631115015, -0.7159903128644888, -0.34329198184984777
-0.12370323712826894, -0.7163696237954359, -0.060223123021067054
-0.07754407242444038, -0.7151510239306796, 0.3776842811027256
-0.10445791112837655, -0.7158615492507707, 0.2077114987403888
-0.16604670657495132, -0.7174874948521972, -0.07742076101127374
-0.15977905973869788, -0.71732202572326, -0.2708886546734421
-0.21111685973538968, -0.7186773468773204, -0.36076987685864237
-0.2405957679624531, -0.719455592181727, -0.39305606978607893
-0.12337989996572897, -0.7163610882112124, -0.021221713033489742
-0.12427990126950965, -0.7163848444787251, -0.2963480218341713
-0.11968309192578958, -0.7162634913029928, -0.08221950257385988
-0.13960296988112234, -0.7167893758500611, -0.2233966121589037
-0.14081886101900976, -0.7168214748780821, -0.26663497470125236
-0.08672152602034264, -0.7153933004560181, -0.2699434703700951
-0.0857209187895146, -0.7153668854096901, -0.19324350187352965
-0.08806494582973994, -0.7154287752092082, 0.32763134071386696
-0.0817135359308111, -0.7152610903444356, -0.1794545142407094
-0.16987199882884563, -0.7175884831707184, -0.058217090503327185
-0.07971548301299847, -0.715208349078381, 0.35752585055996106
-0.24139948761212518, -0.7194768109620988, -0.3564749371743961
-0.11011450624967442, -0.7160108801644682, -0.05644398988576191
-0.12864665194054342, -0.7165001263158495, -0.3509026272908871
-0.13020875689740044, -0.7165413670972035, -0.27407612792494424
-0.08594453472447859, -0.7153727877307913, -0.27617147307926515
-0.1817409386852882, -0.7179018237138937, -0.09450365387022522
0.22502131756537652, -0.7181070442386958, -0.40380378369009806
0.150117105391451, -0.5968910502769516, 0.29560633111011136
0.24841490395518462, -0.5968910746940254, 0.024040293214853015
0.173767384940171, -0.596891037162228, 0.31544966032526767
0.22477142792362093, -0.5968910744654559, 0.06404029520230825
0.22371586196407914, -0.5968910119181353, 0.3463513581373375
0.13070330578683267, -0.5968910570710521, 0.297132119258633
0.25403744563252145, -0.5968911508697272, -0.32693250402938245
0.1960905702609504, -0.5968911148901563, -0.07001592236704071
0.25274015331287, -0.5968910386469848, 0.17860806748085534
0.15341807018062775, -0.5968910573433864, 0.25846671852437114
0.18353322843397565, -0.5968911033359612, 0.0025131383478481373
0.229009666394476, -0.5968911271808228, -0.17941360162708142
0.21190397395925198, -0.5968911113455051, -0.08018288317875283
0.23222011112461954, -0.5968910259777441, 0.2692649159273782
0.2078848086146892, -0.5968910136757342, 0.36456366577238364
0.19595694198622093, -0.5968910789180621, 0.09156582520219766
0.25922297531354976, -0.5968910287417615, 0.21235382483280182
0.19510478404439732, -0.5968910151777069, 0.37889322729189867
0.22308852293638837, -0.5968911171405524, -0.12461494509005569
0.22605187947111322, -0.5968910282586973, 0.2692010722098875
0.2622903105539889, -0.5968910715027189, 0.015482979709815797
0.14088268526428946, -0.5968910727816086, 0.20987861372814332
0.19443139191204456, -0.5968910438760686, 0.25126987345405044
0.24651163539697912, -0.5968910710956298, 0.04331917290039536
0.2457695408219531, -0.5968910095281582, 0.32071815108724533
0.18914325841131077, -0.5968910530053536, 0.21903540929954068
0.2425127875447927, -0.5968910720640164, 0.04556707701800464
0.2608020718565066, -0.5968911490149374, -0.32976343539197844
0.19787013399664533, -0.5968910939078655, 0.02117169075321529
0.21227887460452605, -0.5968910313992343, 0.27781732215615756
0.2486281277037863, -0.5968911474133977, -0.3025114061040775
0.24948302447467585, -0.59689111392274, -0.15369025609480808
0.26069990130630016, -0.596891124019384, -0.21747145457680073
0.1433126964667253, -0.596891053324437, 0.2931527187303504
0.24326618691878282, -0.5968910909880485, -0.0405631443868219
0.21251477490997453, -0.596891015153612, 0.3503020983572326
0.20099138188931742, -0.5968910982310696, -0.003366249097625146
0.24193674629599246, -0.596891054089614, 0.12714514279083394
0.10356092068054465, -0.5968910944897015, 0.06985388578330051
0.10900127910504859, -0.5968910912811564, 0.09144291969911578
0.18483185557557855, -0.5968911366460304, -0.2137994211886744
0.13425750792904806, -0.5968911214615218, -0.11162885291937577
0.1962331004192349, -0.5968911440850979, -0.26385397200179034
0.15482381797761638, -0.5968911614244099, -0.3805233620886259
0.15594546010515867, -0.5968911428562959, -0.25558584735077977
0.10169488304396311, -0.596891161836707, -0.38329754636127034
0.16310612822185366, -0.5968911361154483, -0.21022934386450004
0.11425150035015744, -0.5968911266303589, -0.14640791929517422
0.1322744351203412, -0.5968911263312465, -0.1443953094972354
0.1673647122575722, -0.5968911237339625, -0.12691920968209966
0.20122812385512628, -0.5968911584049329, -0.36020649216843553
0.17296128326318405, -0.596891099654167, 0.035104234451307864
0.11548841127515161, -0.5968911194420872, -0.09804087339585982
0.1574673053292752, -0.5968910896849822, 0.10218294628407609
0.12708027948899622, -0.5968911478158913, -0.28895700919108996
0.19683868052977488, -0.5968911642540647, -0.3995629931700515
0.16060216790119247, -0.5968911181404293, -0.08928253175917086
0.11628247590609994, -0.5968910950252936, 0.06625009748870514
0.13920231978563977, -0.5968911309007727, -0.1751418488112056
0.22703759425219613, -0.5968911488187025, -0.2957045301950361
0.10858458010848511, -0.5968911301710418, -0.1702317773716815
0.12836549058005192, -0.5968911371348423, -0.21708844397716723
0.20640588918400465, -0.5968911494507142, -0.29995708736670423
0.16344649252529891, -0.5968910985475012, 0.04255055174828745
0.10221994055379147, -0.5968911646194968, -0.4020218409270943
0.19458921027046175, -0.5968911409611284, -0.24283401335484886
0.16546709494372663, -0.5968911339199465, -0.19545667807003042
0.11403322603497903, -0.5968910601871121, 0.300662476994044
0.16089926317252834, -0.5968910971315423, 0.05207798022983656
0.1352598793211065, -0.5968911628598362, -0.39018177929943065
0.13553833594148276, -0.5968911079109388, -0.020452325973616847
0.1289677063325933, -0.5968910723871008, 0.2185735659633271
0.1345781616279474, -0.5968911113964515, -0.04390496516369999
0.1497885512906917, -0.5968911578377438, -0.35639010108148167
0.16303707787820196, -0.596891111786899, -0.04653213333874029
0.13200598192404195, -0.5968910916198654, 0.08916387984272811
-0.12076884547133342, -0.6901157753362523, 0.40242887780090697
-0.22775095891424013, -0.7016742244657038, 0.40242889963665035
-0.12135203640981758, -0.697319724061217, 0.40242886703452574
-0.16446816613287657, -0.6782164268852701, 0.40242891205621606
-0.1388279469604021, -0.6832486179568916, 0.40242889492918243
-0.16328004287759837, -0.6937277549225632, 0.4024288879730774
-0.17434835677537414, -0.6596136993013317, 0.40242894313954825
-0.1954174912268149, -0.6102811790920055, 0.40242901895616284
-0.22517244128643338, -0.6553934627655826, 0.4024289645791347
-0.13130533080420237, -0.6348849627454775, 0.40242896479226453
-0.2359477195097906, -0.6680131988984507, 0.40242895011552043
-0.22186295761196356, -0.6321050616316988, 0.4024289963263569
0.10731714250599046, -0.6513201877245489, -0.40651612388703806
0.15279536276784794, -0.6665937235441393, -0.4065161104633713
0.12798063962824388, -0.6713155138825144, -0.40651610628510554
0.1743781132272729, -0.6100820412073913, -0.4065161602690871
0.11483879148596311, -0.6847125760424375, -0.40651609447195297
0.16006360920429263, -0.6941592285043618, -0.4065161128188933
0.17557435333424581, -0.6615835700781982, -0.40651612052636565
0.25313322119007287, -0.6656471119279183, -0.4065161591200197
0.24437863653032482, -0.6891643527206122, -0.4065161547714144
0.1898481015286479, -0.6523764118260522, -0.4065161276258452
0.11652373550355624, -0.5970282220445291, -0.4032406733396754
-0.1934984705085546, -0.6012537791005899, -0.40608308928910414
0.20541343272082874, -0.7182976904843916, 0.24200143124643525
0.11280085813509716, -0.7158527139801887, -0.005789370890133455
0.09500778794120768, -0.7153829705623029, 0.33962050441618535
0.15802123797848705, -0.7170465367171568, -0.0632773148998417
0.11474718195398673, -0.7159040996924946, -0.19147023358161191
0.20128310093384935, -0.7181886489683234, 0.27063042447417923
0.11272449448415331, -0.7158506993487799, -0.10420133106724483
0.12659783680253162, -0.7162169568847848, -0.11139844108296793
0.10757934895580751, -0.7157148639826842, 0.11613384405627569
0.15389323992017265, -0.7169375545023163, 0.13057291400016902
0.22471367004728496, -0.7188072181451591, 0.2614293177213096
0.13799012297713664, -0.716517710871815, 0.12840507240627708
0.11627612894956663, -0.7159444589491453, 0.17168596618678733
0.20949155894588173, -0.7184053527194141, 0.2884708460766392
0.19581786716617458, -0.7180443664897643, 0.2588313257478061
0.17094613002653927, -0.7173877503306525, 0.2696002861500326
0.16547313292330246, -0.7172432647408653, 0.12605540570161808
0.14094365982649767, -0.7165956828151971, 0.24892069211857892
0.10939776264478304, -0.715762871800149, 0.006028029179696276
0.21827671766465664, -0.7186372819551716, 0.26795007778695745
0.1648051613608906, -0.7172256306615373, 0.09546303936440106
0.10214617792304644, -0.7155714242418766, 0.3705604744877884
0.0892275247709214, -0.7152303742016795, 0.11881881495192387
0.12924636923895208, -0.7162868777066289, -0.06394971156628126
0.17672099540371813, -0.7175402094718137, 0.11246088162169143
0.21591842254139587, -0.7185750215216389, 0.3565627013346626
0.11418018582236458, -0.7158891317700335, -0.25044877433595547
0.19211305272229887, -0.7179465607068942, 0.14161433257459174
0.11078601833112459, -0.7157995197808402, 0.15550397312446027
0.23183330640103922, -0.718995176901856, 0.2798833485456785
0.10386879081036796, -0.7156169015082879, 0.3607298839347663
0.1520590747576992, -0.7168891334463776, 0.054540140854600794
0.1300810531555825, -0.7163089100081428, 0.18115340216525588
0.11497457081210456, -0.7159100951315829, 0.3555734549351882
0.17942919316250838, -0.7176117066832779, 0.07263076624476328
0.15305439941085516, -0.7169154060570051, 0.3440143214447547
0.12017489661329839, -0.7160473879997762, 0.08243063234314335
0.09585743413929212, -0.7154054030296814, 0.215539345824367
0.17371942425087525, -0.7174609671516352, 0.15413490163838217
0.08430103208913817, -0.7151003142779434, 0.12536137626799448
0.09156170410691133, -0.7152919935447818, 0.347251765692952
0.22039175127127075, -0.718693118226895, 0.32505256108276703
0.1867267066154834, -0.717804363666046, -0.06378772320772458
0.23368122329910257, -0.7190439686033672, -0.16480454127035893
0.11071481274314746, -0.715797646382824, -0.3037916112577555
0.24138030803348381, -0.719247221185737, 0.1033207009806621
0.25360975601779967, -0.7195700865224366, -0.3597454013361296
0.2329251409049267, -0.7190240097536879, -0.2866888802095891
0.18607236255599202, -0.71778709024793, -0.15375577659196826
0.2458688325919069, -0.7193657241997646, -0.27478364304731406
0.25669310842031, -0.7196514788715441, 0.2132587735602314
0.11474629001113625, -0.715904078615378, -0.36300056088466476
0.2294266787906001, -0.7189316504517086, -0.31466063779976455
0.23278931345564696, -0.7190204252668019, -0.37979851671402465
0.11854335652283726, -0.7160043215291729, -0.3641824623619357
0.17100779960611145, -0.7173893848930815, -0.18487857789530612
0.25109486498307465, -0.7195036859510708, 0.13113719814594416
0.25327402519822867, -0.7195612207146671, -0.19091737861017477
0.10846388178928358, -0.7157382217032462, -0.3105509889176306
0.1859444307414091, -0.7177837136583372, -0.20960872913402231
0.24611190405320377, -0.7193721381828933, -0.06237480251017016
0.20476058231437289, -0.718280457737051, 0.06294115022974267
0.1979379435537478, -0.7181003418827722, -0.10159043994823139
0.17544504452211934, -0.7175065285255673, -0.18275804285219427
0.22476903108879528, -0.7188086877881117, -0.29110370582023914
0.16033032124484514, -0.7171074985542214, -0.18809772949844283
0.23311490482492844, -0.7190290174098333, -0.14203394833703534
0.13646920138290022, -0.7164775655794839, -0.3735978241136756
0.17064846956235896, -0.7173798966688941, -0.05718439505535711
0.17592059509098967, -0.7175190830844139, -0.1814792141496584
0.2193114088810473, -0.7186646051715468, -0.22987525561285066
0.20262209967594297, -0.7182240048246681, -0.15597811243528578
0.20435917882091953, -0.7182698634160269, -0.1251327676317688
0.2615438458834906, -0.7197795437149941, -0.1224525084157804
0.14234504673436502, -0.7166326860860569, -0.2147208410232468
0.11002101256716482, -0.7157793313916532, -0.3986503754966541
0.2603593161171941, -0.7197482735489173, -0.2261660659522187
0.24839420559219194, -0.7194323868043295, 0.232857325927717
0.2543198669872058, -0.7195888298831072, -0.112854064408805
0.24575099743254664, -0.7193626079469029, 0.09182804605263206
0.21630475752970862, -0.7185852317843766, -0.39830196114816174
0.23985895756217704, -0.7192070638515042, -0.33537152431259265
0.2077359950674793, -0.7183590133581077, -0.24001890439661455
