0.34649197636285833, 0.32240256833002634, 0.2201679001158871
0.34879501478003594, 0.29989923731211665, 0.2201709770678232
0.4047742433052448, 0.29631899469897377, 0.2202457675681928
0.4155162075321387, 0.2925022036904027, 0.2202601192643603
0.35157664943838607, 0.28655704218839617, 0.220174693443583
0.39960703636207723, 0.3264003730389839, 0.2202388639719309
0.35275694164970417, 0.30140170176538034, 0.22017627036143975
0.37193767249930987, 0.3297932518834868, 0.2202018965891583
0.4295504737042887, 0.2739334518234144, 0.220278869608318
0.343032073987443, 0.3208101964728928, 0.22016327754718254
0.44217183079268463, 0.26845016794873333, 0.22029573224892332
0.45972626883015894, 0.3229492186125006, 0.22031918568404774
0.3447963926362049, 0.31911888527402055, 0.2201656347478448
0.38781052643736014, 0.3356205774070672, 0.2202231033603053
0.38746615551820274, 0.2808938863480619, 0.22022264326690935
0.3545856447586444, 0.2627769241196088, 0.22017871358232988
0.3754703601538297, 0.22323499380163334, 0.22020661640192263
0.4619584915310687, 0.3329187583178809, 0.2203221680233392
0.37716201449609105, 0.3046905172514811, 0.22020887652014942
0.4406712741829456, 0.29477954148025787, 0.22029372744495174
0.46483011001798835, 0.3403924178433829, 0.22032600462111243
0.37077835212165733, 0.24348535059539017, 0.2202003476905147
0.3951945200082897, 0.260568499440505, 0.22023296867264427
0.5122694924003485, 0.32889815139705203, 0.22038938554362741
0.345541883067085, 0.2959772474487694, 0.2201666307530384
0.370202973582056, 0.3171368814684913, 0.22019957896164843
0.3616810284623573, 0.3037907117341411, 0.2201881933002805
0.3479149923056001, 0.29718821140813634, 0.22016980132240954
0.3509565926987004, 0.2520295643665048, 0.2201738650228448
0.4953340796605109, 0.3269481975025388, 0.2203667591511931
0.38771575138098396, 0.30553044684969966, 0.22022297673701885
0.5443458292403349, 0.3141601163548579, 0.22052728439028102
0.482795116334786, 0.5004276397399858, 0.23613450122986085
0.5150185343607075, 0.43144026561863436, 0.23617751891010305
0.535920877278086, 0.4618605635023064, 0.23620542315983872
0.40448497695255636, 0.46625600704674086, 0.23602995861017484
0.5356181800778812, 0.40364785472913567, 0.23620501906455132
0.5119527120790903, 0.4381920493883261, 0.23617342609280834
0.5348980481059519, 0.36763093248472584, 0.23620405770139374
0.5216266930952111, 0.4278169521185886, 0.23618634068249234
0.5211121653309129, 0.41645313538169093, 0.23618565379723325
0.5384607065742077, 0.43382023049920126, 0.23620881378601133
0.5107603873685281, 0.4141988077066977, 0.23617183436088524
0.4773399355355359, 0.4370844984369287, 0.23612721866216127
0.5094505923995538, 0.37824508626330816, 0.23617008580829185
0.5339810109793817, 0.4456485978965379, 0.23620283347341614
0.47018321112331185, 0.4881775816645708, 0.23611766456451405
0.38714433451021263, 0.47644841700429713, 0.23600680916615313
0.4006932213484181, 0.48321751199671276, 0.23602489668502452
0.4332302568158559, 0.47998323477891114, 0.23606833303887872
0.45066523418938015, 0.4467938118864431, 0.23609160841832735
0.45393065063798665, 0.4599172346165292, 0.2360959676902249
0.4947418552270897, 0.4770208278644753, 0.23615044991020234
0.5250821053442427, 0.4855207588609656, 0.23619095359534703
0.46807489537217584, 0.4643105098578595, 0.2361148500011192
0.4103114356995182, 0.47635502748025205, 0.23603773682721935
0.4822304313393241, 0.44095973396643506, 0.2361337473856053
0.5186046629807058, 0.36896683809510583, 0.2361823063269487
0.4937061223942008, 0.4086165075743876, 0.2361490672256037
0.35684267827393634, 0.485946506379278, 0.2359663570031414
0.4874728339883863, 0.4847970955727389, 0.2361407458983229
0.4405189374527635, 0.49130205829876594, 0.23607806329569925
0.49678942634319123, 0.46377047151023065, 0.2361531833806081
0.509229031178401, 0.49610233272890025, 0.23616979002806895
0.49074172199649824, 0.4977376912220578, 0.2361451098046896
0.24951021726683012, 0.42990056122327974, 0.23624353722548963
0.168613103896737, 0.48378296723755176, 0.2365333832339245
0.18088133723115776, 0.46524621934792715, 0.23648942741999748
0.33418788890242856, 0.4443328543792604, 0.2359401458669519
0.23354963761304173, 0.4307995702139542, 0.23630072233522023
0.27125506329086196, 0.49235392900840835, 0.2361656276863042
0.32127929199758853, 0.3979555398997801, 0.23598639603746469
0.26724979729742926, 0.4676280871704348, 0.23617997814100594
0.1365242337416677, 0.49579650581867335, 0.23664835434404413
0.2940910291166384, 0.4142712923605662, 0.2360838087774752
0.3199694360545504, 0.49644490725866475, 0.23599108911612846
0.2895208626035173, 0.4085148246332809, 0.23610018321243992
0.22751895295848895, 0.49336949714298045, 0.23632232965595681
0.1825268355311563, 0.4779948627447837, 0.2364835317694078
0.31896743595168475, 0.42857059861006996, 0.23599467917908826
0.2274744260157437, 0.4918174530030905, 0.2363224891913974
0.3007611979005189, 0.40777934534432214, 0.2360599102510995
0.24731523994529608, 0.4574253126963777, 0.2362514016027059
0.2950567208762138, 0.39981241286467384, 0.2360803488035623
0.2833861428158452, 0.45247046243248285, 0.2361221632803218
0.244067434190247, 0.48552084712163734, 0.23626303815554517
0.30425628410144695, 0.4438546552563526, 0.23604738771794256
0.1966607103264725, 0.47592804517360904, 0.23643289155466496
0.19532122069383626, 0.4498358925069648, 0.23643769080778024
0.28646687355136424, 0.4660618334457787, 0.236111125340035
0.24106673339542944, 0.46747166162304354, 0.2362737893568137
0.30222978638484643, 0.4189730743359686, 0.23605464845012186
0.2727068661844644, 0.413751209382409, 0.23616042602636586
0.24820994945537808, 0.4843838558420219, 0.23624819595086743
0.2889917238911691, 0.48587249222275153, 0.2361020790618379
0.182568730771376, 0.47554754236649965, 0.2364833816630858
0.3063203576721105, 0.38385331979733794, 0.23603999235535608
0.319656188502697, 0.41752966834901717, 0.23599221144977883
0.30573339425785484, 0.42319093355431, 0.2360420953846934
0.3372384351019589, 0.5020871287587757, 0.2358306951926647
0.12243451774069686, 0.354437514047649, 0.23229434426045525
0.12243774943906413, 0.354671053406181, 0.2326245690648983
0.2909959628356499, 0.5024670958518982, 0.23061555030328562
0.28088813068802904, 0.5024670958518982, 0.22296918214848974
0.29758390535336143, 0.5024670958518982, 0.2301760207435328
0.4036231857829601, 0.5023738673180074, 0.22066829471429295
0.14607485009964227, 0.37401752149693557, 0.22082899101027287
0.16340139255496672, 0.4080894982053432, 0.22076695704702104
0.1377732117370652, 0.44326945470694473, 0.22085871324310968
0.1646511177670739, 0.41344544999444505, 0.22076248267435938
0.2427723737407016, 0.4353161934716642, 0.2204827862990006
0.16867342251374984, 0.47602734413249326, 0.22074808167626722
0.207458226253937, 0.49475127756732107, 0.22060922101805158
0.18297525381313456, 0.4864187306817469, 0.22069687704155447
0.150013774071806, 0.47158874236896964, 0.22081488853913234
0.2364299882575817, 0.4921827054570699, 0.22050549384778037
0.13583084685550703, 0.47978660183741006, 0.22086566746331804
0.1615510764511287, 0.4532603024443832, 0.2207735817063543
0.163287353073936, 0.3955302682493145, 0.2207673653408854
0.18207009576317085, 0.4438107849824664, 0.2207001177655104
0.258509927416925, 0.48331838659322046, 0.22042644136873302
0.16551197175865076, 0.42712327645113135, 0.22075940057156732
0.23186691168859916, 0.49838465220300476, 0.22052183096321615
0.17311152389203, 0.4600723029413829, 0.22073219200765515
0.2020423338639517, 0.44361993897547897, 0.22062861145733642
0.2636632495624003, 0.46657091596963085, 0.22040799100580444
0.26972247457724374, 0.4981797703201537, 0.22038629725225412
0.21447560073831762, 0.4976176739693402, 0.22058409681615088
0.19573784472492065, 0.4274700459353039, 0.22065118332639688
0.16163358580603016, 0.42192740090848757, 0.22077328629933335
0.26928428372885066, 0.4539494616649388, 0.22038786610045663
0.21868299071378938, 0.47049013204320717, 0.2205690331601562
0.1256996821441307, 0.47661605715647504, 0.22090193992223617
0.15487905219620374, 0.4596947229912025, 0.22079746945594497
0.12386771245163765, 0.43737887712308976, 0.2209084988961847
0.2887716580725193, 0.4927958493449888, 0.22031809574280872
0.15740362495202476, 0.44907934107869896, 0.22078843076551005
0.1247624163160417, 0.4960755246726258, 0.22090529560119443
0.28864018062101854, 0.48720316707482986, 0.22031856646958042
0.17582510614744493, 0.4171435593165577, 0.2207224766093091
0.27974686880748045, 0.2990725777954051, 0.2361352024235122
0.20687576982261227, 0.31063056425972146, 0.23639629205070817
0.3252473569455109, 0.23265351048330057, 0.2359721788702698
0.33362868591003164, 0.31074790914748324, 0.23594214943356256
0.21610676428317874, 0.2921192833501905, 0.23636321835021606
0.2770104458894871, 0.25363126459109564, 0.23614500674442218
0.28095633489289396, 0.27335283624687806, 0.2361308690313479
0.27184013821057335, 0.24228252741833617, 0.23616353142324795
0.29508440632893596, 0.34047418655355843, 0.23608024960944235
0.14781328538545646, 0.34281059241094197, 0.2366079068370608
0.30576421542607723, 0.23177363213462981, 0.23604198495562845
0.31515102322138266, 0.34202669596260765, 0.23600835299203826
0.20059750427452797, 0.3217361666345317, 0.23641878642823533
0.27745023445348416, 0.2707875501665717, 0.23614343102738458
0.3326678453408453, 0.2579278666050082, 0.235945592026161
0.2357621013247186, 0.3428164496490489, 0.2362927953060727
0.31066414582238433, 0.23695040082648677, 0.2360244290107027
0.2676123563324174, 0.23752017779347484, 0.2361786791294005
0.3160028399208642, 0.32793594139160515, 0.23600530102071346
0.30617214731184994, 0.2711075803849478, 0.23604052337778125
0.2508320562942875, 0.3071819125808454, 0.2362388012126711
0.31566608117028166, 0.33993716529857915, 0.23600650759256253
0.23506536497544264, 0.2757833996403509, 0.23629529164050736
0.2701541095131886, 0.2722128651687274, 0.2361695722900686
0.3226049529552055, 0.27401988066589916, 0.23598164633106483
0.3084306870038758, 0.27879641870141436, 0.23603243126315127
0.3025688587915368, 0.3230816782963807, 0.23605343358868175
0.18323002263653998, 0.31832081961158626, 0.2364810123225798
0.23366741612545394, 0.2902181002138214, 0.23630030034696528
0.27464959196014593, 0.32752762092530663, 0.23615346544040539
0.3079523562016804, 0.2954443506989077, 0.23603414507305068
0.3091749804371243, 0.23195712817217184, 0.23602976453659272
0.2803296145558338, 0.24000657230303055, 0.2361331145056366
0.3141571473831425, 0.27766098673128764, 0.23601191394659637
0.122681478237276, 0.25083731723409713, 0.23641850704759143
0.16199463060036334, 0.26704464353964, 0.23655709654070362
0.2651321733321333, 0.21277081020722613, 0.23618756536912985
0.18041721484840723, 0.27281255382346925, 0.23649109032259635
0.22297910589787467, 0.22694892452261525, 0.23633859545945224
0.1402174644018003, 0.23172294984526826, 0.23663512187973887
0.14851256426942389, 0.21443077374143188, 0.23660540139298675
0.13842733900177495, 0.2197412074651948, 0.23664153571430205
0.19667290779299407, 0.28531158611975993, 0.2364328478524012
0.21160618538607673, 0.19607108771282156, 0.23637934345993414
0.3114639297944194, 0.18903694900406814, 0.23602156346727043
0.2331674249289462, 0.2381832898702377, 0.2363020917638221
0.16221231170530376, 0.21755937337314032, 0.2365563166117698
0.17037239460786546, 0.2287878556739888, 0.23652707987686944
0.19275157611683014, 0.25060620368221015, 0.23644689757910636
0.30281876752959874, 0.19685794834553028, 0.23605253819146446
0.1309638311291396, 0.29758313168606915, 0.23666827669275833
0.17591330568950622, 0.30052314007146613, 0.2365072273642988
0.16644744388852262, 0.2539017467818271, 0.2365411425702328
0.13635385209762746, 0.27646752166087846, 0.23664896480389092
0.3108094774046218, 0.19460633095224134, 0.2360239083026421
0.18526500688867745, 0.2668573442460317, 0.2364737211840195
0.1265049086568014, 0.2740701220176451, 0.23668425255180556
0.22627071903065366, 0.23439435582978396, 0.23632680194929961
0.14010931224184903, 0.20123113025196082, 0.2366355093777664
0.22166495134023498, 0.24897387275612295, 0.23634330393960845
0.1694896019999404, 0.24623446901788704, 0.23653024283167737
0.1534888620411638, 0.29122660735627737, 0.2365875718316361
0.16802087251583692, 0.21199689539625727, 0.2365355051378426
0.20701888887276965, 0.20567044959325445, 0.23639577926992167
0.12510188697967595, 0.2095836404723689, 0.2366892794336796
0.18132747912065067, 0.29594800928452425, 0.2364878289396503
0.12657184089666954, 0.2850326716274792, 0.23668401274049766
0.15312536544366256, 0.22686050478674852, 0.23658887420243127
0.18939738992400923, 0.2619811234201698, 0.2364589152820754
0.4795308528491824, 0.18631803829269922, 0.2359117732738261
0.12239853633270262, 0.4392379248334919, 0.22861765415261015
0.12245742055128388, 0.4965225527763169, 0.2346346233607232
0.28274648487152804, 0.3825684757005192, 0.22033966758115442
0.29544722248480515, 0.3545365321469791, 0.22029419531844507
0.33254249962911553, 0.4910570678361356, 0.22016138364726948
0.3344219324350236, 0.43028645173027397, 0.22015465474183915
0.33196188575676244, 0.48084470076616626, 0.22016346241051463
0.30131595855050497, 0.40034310235331827, 0.2202731835696572
0.30101913039734424, 0.4759134889054974, 0.22027424629909625
0.23534517868549787, 0.3804417245005768, 0.22050937777541932
0.27205568986825257, 0.44812195527375515, 0.2203779436761154
0.25465027696976394, 0.38650670896195993, 0.2204402600180464
0.21690861309128992, 0.3741378034545234, 0.22057538593806977
0.2504902292544132, 0.3630024869140027, 0.22045515417524858
0.29964729889732433, 0.3467480233756337, 0.22027915784709148
0.29304081581582053, 0.39209043801665355, 0.22030281094058998
0.3216517249334806, 0.3853668280578192, 0.22020037572656026
0.20215253112042764, 0.38733310390523334, 0.22062821691973167
0.2667869892165198, 0.37964986253149563, 0.22039680712700052
0.2035880102839853, 0.3667503865233183, 0.22062307749494972
0.2646968631754981, 0.4193662441941653, 0.22040429037429898
0.3335685998325243, 0.3912799119310506, 0.22015770991591338
0.3335230798985036, 0.39666410195191953, 0.22015787289025876
0.268170798037338, 0.4013393320132795, 0.2203918526967811
0.24806107698428026, 0.3583236504304504, 0.22046385123313228
0.33415588084914766, 0.36344514368612546, 0.22015560728239042
0.3302003427635362, 0.3600802014436042, 0.22016976923679515
0.28778605864905077, 0.4459624876533723, 0.22032162446982245
0.2972218162473919, 0.4156738962598534, 0.22028784176668836
0.31550828822158694, 0.45728580771650756, 0.22022237098200192
0.296627820773951, 0.3950302157106641, 0.22028996843988158
0.2792125478544958, 0.42274535858351986, 0.22035232008349953
0.22113693523826183, 0.39672778381691465, 0.22056024733893162
0.17571420172858007, 0.3821737490853624, 0.22072287367875687
0.21354797707982098, 0.39644882674984977, 0.22058741797339224
0.2962312150557123, 0.45950145485780525, 0.22029138840145868
0.12241290746185106, 0.28442679862986225, 0.23008613999916425
0.12235563014919687, 0.27499588548705406, 0.2242333693440144
0.1223653155167634, 0.33329268043513993, 0.22522304976809288
0.16091926573547688, 0.21009255986517855, 0.22077584376889894
0.19001045276626116, 0.19101910896038587, 0.22067168902297243
0.24150932772881495, 0.19233344757969656, 0.22048730836392438
0.2764102980594, 0.24329219334776442, 0.22036235293692424
0.23017245044053852, 0.24834914789009796, 0.22052789761771832
0.3034967683291022, 0.2578544246308294, 0.2202653756487166
0.28532161525809013, 0.30648761457162194, 0.2203304478799832
0.32776528308541725, 0.22233960827779897, 0.22017848744488416
0.32035639664584786, 0.28474626419753574, 0.2202050133712376
0.2077808983746865, 0.23305974135155813, 0.2206080657598382
0.3155095829748705, 0.3296857949386893, 0.2202223663464159
0.2960843684851315, 0.26838691129554426, 0.22029191415405974
0.2237757445352101, 0.2299846292089698, 0.22055079964910096
0.29760695645958624, 0.30660993022461314, 0.22028646285489267
0.31508173075424195, 0.271063507431242, 0.2202238981793826
0.24010375876832918, 0.20943922305411244, 0.22049234070164941
0.33273008543174387, 0.28240337863714954, 0.22016071203659954
0.23119524164126795, 0.20466916066505927, 0.22052423573353552
0.2733708551807619, 0.24143837839026394, 0.22037323500923184
0.3333889776454788, 0.20538457754103426, 0.2201583530145685
0.14853061970699338, 0.19349815912632531, 0.22082019865473104
0.22147530503289573, 0.22024347738907343, 0.22055903587856895
0.2646170092479725, 0.22451951681377655, 0.22040457627413262
0.1392807014557137, 0.18936343821214746, 0.22085331600000416
0.24528636595358574, 0.19817680923854952, 0.2204737854899268
0.27852666867243225, 0.30004930130096547, 0.22035477572657347
0.18207645093099514, 0.2079604156325435, 0.22070009501219717
0.27563172003922387, 0.22895960812556745, 0.22036514046827488
0.31582333609348995, 0.2767701966736721, 0.22022124302077373
0.292429572859256, 0.22630505692949987, 0.2203049993646915
0.18373507119571286, 0.21131546648418603, 0.2206941566786367
0.2643356405784432, 0.2557419940226184, 0.22040558365421153
0.3154950336534257, 0.2310020609157386, 0.22022241843713597
0.24127165215590549, 0.21111471460188524, 0.22048815931025675
0.39372025714797687, 0.22127040326715694, 0.22023099899817924
0.5229286866354289, 0.27202550270077885, 0.22040362665575736
0.47955133206341116, 0.20206516954229387, 0.220345672765741
0.5279063842070191, 0.2711059256895389, 0.22041027705987826
0.42376388115989067, 0.19251824701318854, 0.22027113848798582
0.5157802266017837, 0.26696212906746575, 0.2203940760256956
0.523694951811824, 0.2600570627443939, 0.22040465041684643
0.45907439227226593, 0.2077855792278287, 0.22031831475075286
0.4036696667925368, 0.21218434654687096, 0.22024429180955415
0.5258446257172417, 0.26654051530722644, 0.22040752246762765
0.5015359054133854, 0.24006272231147108, 0.22037504503978936
0.4691088974233186, 0.2083174102587143, 0.22033172125314632
0.5204619665582326, 0.31696883095172845, 0.2204003310185415
0.5263611565091415, 0.32395023911342263, 0.22040821257353657
0.4031292800448052, 0.20007136036401202, 0.22024356983112897
0.5047990440791206, 0.3087971795757901, 0.22037940472426545
0.49990961720653404, 0.18908514207530264, 0.22037287225334803
0.44017318161821717, 0.19410096457266746, 0.22029306197325574
0.37746197123582403, 0.215122985664218, 0.22020927727441567
0.5071987595415223, 0.25010531467365515, 0.22038261084062158
0.4894964056390804, 0.26023225300450153, 0.22035895978395353
0.4067265875779593, 0.21206293406093202, 0.22024837597864966
0.4292824191630401, 0.22804266383081734, 0.22027851147667174
0.45828397460910486, 0.21641127322441567, 0.22031725872097027
0.39749756569715333, 0.2079722090601436, 0.22023604563429564
0.4288612723453602, 0.21430297942189763, 0.22027794880758803
0.5041695745973125, 0.2855820624361072, 0.22037856372772524
0.43337934531288896, 0.24247709075853194, 0.22028398513475528
0.5401943186297429, 0.20381837914809883, 0.22042669423439454
0.4818245742995485, 0.2777018013942859, 0.22034870990878105
0.4824079400917159, 0.22147579207831428, 0.22034948930893794
0.40196932299160804, 0.19560256708504267, 0.22024202008186117
0.5018516646487448, 0.2648782672175694, 0.22037546690682525
0.46757574900525334, 0.2233207447637217, 0.22032967290520822
0.1496689501720987, 0.18604695796966553, 0.23170745538833593
0.14483783846361056, 0.18604695796966553, 0.22507456817564267
0.24861033742192212, 0.18604695796966553, 0.23468216000764738
0.2492187581309186, 0.5132759888359908, -0.22394038736820224
0.1964122374266954, 0.5163389134504236, -0.2239403873682022
0.1487669773890938, 0.5127889183189478, -0.2239403873682022
0.15067639015409157, 0.5106654715267621, -0.2239403873682022
0.12259172714404197, 0.5029267487527306, -0.15568754068352614
0.2829401154137989, 0.5027263164520264, -0.03529161576459178
0.19938410851840077, 0.5027263164520264, -0.06843695589800342
0.1474753759190767, 0.5027263164520264, -0.15809846717218853
0.1627015855373686, 0.5027263164520264, -0.07457039354975606
0.29175027148698773, 0.5027263164520264, -0.03606871319438963
0.1539910315357357, 0.5027263164520264, -0.1759119544912686
0.22349629694063786, 0.5027263164520264, -0.0036507409251578605
0.2877402358538745, 0.5027263164520264, -0.03726181249402486
0.20986715937981443, 0.5027263164520264, -0.022569834609616774
0.1725384682976448, 0.5027263164520264, -0.0016168011885948775
0.19472723422066884, 0.5027263164520264, -0.10519148963525159
0.184953360166412, 0.5027263164520264, -0.029028250713280242
0.23223265711430216, 0.5027263164520264, -0.07225035528489822
0.15233527011117612, 0.5027263164520264, -0.1673004864363698
0.1553495545439431, 0.5027263164520264, -0.076742567025035
0.14756157371000095, 0.5027263164520264, -0.06258403672262584
0.16867053644884905, 0.5027263164520264, -0.017830196525708462
0.2137418957539309, 0.5027263164520264, -0.07936991921238515
0.14971452677805097, 0.5027263164520264, -0.1350719244735823
0.22007904304325857, 0.5027263164520264, -0.07152202931246442
0.26058498470528346, 0.5027263164520264, -0.005383241355650438
0.17511145849504006, 0.5027263164520264, -0.04578303927141742
0.13687326758669588, 0.5027263164520264, -0.19978249078524982
0.14887836760378462, 0.5027263164520264, -0.04235933610148038
0.2490077168583508, 0.5027263164520264, -0.08004380404487421
0.16521326315274418, 0.5027263164520264, -0.0906668787927035
0.23751264058349533, 0.5027263164520264, -0.05140351170448132
0.20195912168424104, 0.5027263164520264, -0.07506628590064303
0.14120035103212691, 0.5027263164520264, -0.18613782401906284
0.1389108550255581, 0.5027263164520264, -0.029347361288198953
0.29155382897404647, 0.5027263164520264, -0.0339624145719697
0.14469578434651048, 0.5027263164520264, -0.017095114183270192
0.1477400962283834, 0.5027263164520264, -0.025001507002396395
0.16984237346408665, 0.5027263164520264, -0.05105312345449579
0.1460393281738804, 0.5027263164520264, -0.04101348497553451
0.1613118905516311, 0.5027263164520264, -0.04467899635691371
0.2513523610131325, 0.5027263164520264, -0.04801928416364661
0.2766094608084584, 0.5027263164520264, -0.05847704732950901
0.18681427760756428, 0.5027263164520264, -0.13656003048645105
0.28838644764073185, 0.5027263164520264, -0.03561372424436845
0.1296479141338909, 0.5027263164520264, -0.09021779085846986
0.21681172821900765, 0.5027263164520264, -0.05129958441711247
0.14982572296939758, 0.5027263164520264, -0.009266176612324576
0.14881864826763888, 0.5027263164520264, -0.00019486669118735597
0.12358764732596998, 0.5027263164520264, -0.20803204530248842
0.16125211592141717, 0.5027263164520264, -0.06953170131711027
0.1564214546028035, 0.5027263164520264, -0.11652822066746513
0.26761369905156, 0.5027263164520263, -0.06922029094302758
0.13271764370572414, 0.518458707110373, 0.2333971360638806
0.40484227964362063, 0.5027263164520264, 0.11256402856332393
0.3522579402194429, 0.5027263164520264, 0.057306498787243865
0.43022957055708877, 0.5027263164520264, 0.15409012326300126
0.3869118475354075, 0.5027263164520264, 0.16139540136498437
0.36182129749204595, 0.5027263164520264, 0.23132459672013067
0.43324022432558273, 0.5027263164520264, 0.20260969637294435
0.40750236159281483, 0.5027263164520264, 0.09245065646870809
0.3890870623171545, 0.5027263164520264, 0.17784857919502012
0.3775520423483464, 0.5027263164520264, 0.04894733022184456
0.33993631924144135, 0.5027263164520264, 0.07179567236151006
0.41499801008459447, 0.5027263164520264, 0.215282940578354
0.3425580191480837, 0.5027263164520264, 0.13746096100837701
0.4910853067314658, 0.5027263164520264, 0.23103934741369223
0.3553940216935942, 0.5027263164520264, 0.1974284188464669
0.47409984503752606, 0.5027263164520264, 0.2148136667250512
0.37844791013842405, 0.5027263164520264, 0.2285522271211316
0.36354698976352, 0.5027263164520264, 0.07783364775230207
0.3542913586153969, 0.5027263164520264, 0.2101850893181101
0.385402011194214, 0.5027263164520264, 0.1499825265888075
0.38756179293068715, 0.5027263164520264, 0.16793706633707162
0.46487137263455425, 0.5027263164520264, 0.20716159008662569
0.47274749255285325, 0.5027263164520264, 0.2308247219883361
0.4559682143045866, 0.5027263164520264, 0.19948845937413273
0.49171614911140377, 0.5027263164520264, 0.191392268327702
0.41532723854320563, 0.5027263164520264, 0.14452289908985236
0.34458958331090445, 0.5027263164520264, 0.1441601072182557
0.40424721559332766, 0.5027263164520264, 0.09784011211647348
0.3381475781721085, 0.5027263164520264, 0.011673463645970968
0.44465730893928845, 0.5027263164520264, 0.17449582619636625
0.4429482115756648, 0.5027263164520264, 0.14284660366814714
0.5144234326198148, 0.5027263164520264, 0.2033479267527084
0.37829080275137383, 0.5027263164520264, 0.0991723073051487
0.35881399879075226, 0.5027263164520264, 0.14951136785728764
0.3642606415655545, 0.5027263164520264, 0.046492735777982026
0.5122574008632379, 0.5027263164520263, 0.2324190826760602
0.47160109457834676, 0.5027263164520264, 0.1931738364743417
0.4278995441601604, 0.5027263164520264, 0.179126895081406
0.37570655379258255, 0.5027263164520264, 0.1227486085487158
0.3384988736386031, 0.5027263164520264, 0.19636847358945672
0.36028651297754144, 0.5027263164520264, 0.12289769671426545
0.4254469490314458, 0.5027263164520264, 0.15986784767519563
0.503791470094304, 0.5027263164520263, 0.2149392047332208
0.398468835908671, 0.5027263164520264, 0.21141298331256794
0.38250781540508694, 0.5027263164520264, 0.18635118983537952
0.45022435097927693, 0.5027263164520264, 0.20103109311109507
0.4261403383980106, 0.5027263164520264, 0.1295238179614313
0.3357460537544864, 0.5027263164520265, 0.06339841533953226
0.3768957066523229, 0.5027263164520264, 0.10716139368394563
0.3564622684753705, 0.5027263164520264, 0.051358715676390304
0.2958722884658317, 0.5027263164520264, -0.18039273596917474
0.2307616202390353, 0.5027263164520264, -0.13426975540017794
0.2957300106600706, 0.5027263164520264, -0.09181375901267089
0.28740378455267895, 0.5027263164520264, -0.06880223096829251
0.2906221960672438, 0.5027263164520264, -0.16553297763037916
0.2588689909580365, 0.5027263164520264, -0.10323242668828517
0.2932604067081904, 0.5027263164520264, -0.2192829927047295
0.1781826946870757, 0.5027263164520264, -0.1941243376908614
0.25579436982936643, 0.5027263164520264, -0.11415281842614906
0.2660933879593179, 0.5027263164520264, -0.11114091171338836
0.3073942158655513, 0.5027263164520264, -0.03087678522958447
0.3295887635124739, 0.5027263164520264, -0.16552223581564302
0.3181635692811491, 0.5027263164520264, -0.12756580105578066
0.28860167071942583, 0.5027263164520264, -0.12957667697015413
0.3230190878714439, 0.5027263164520264, -0.07769297152439594
0.32115868462101105, 0.5027263164520264, -0.16542367331232471
0.22524175706623156, 0.5027263164520264, -0.16858861215483711
0.2402102441797471, 0.5027263164520265, -0.13946522497054725
0.2387787252521042, 0.5027263164520264, -0.1382362882911555
0.2653158223714051, 0.5027263164520264, -0.11902547156753648
0.2494001378839593, 0.5027263164520264, -0.15858439585424478
0.23849181812794154, 0.5027263164520264, -0.10280606957661373
0.31399382561507894, 0.5027263164520264, -0.162987052786282
0.3130285684459604, 0.5027263164520264, -0.05710814027791619
0.2594658867478827, 0.5027263164520264, -0.15502380112739955
0.274032352111806, 0.5027263164520264, -0.1109671765448559
0.2908316806672396, 0.5027263164520264, -0.12360183984263363
0.3304732062689356, 0.5027263164520264, -0.14682399426611592
0.2920249237036319, 0.5027263164520264, -0.15749693109261306
0.1549676020082522, 0.5027263164520264, -0.21108632165210578
0.3145458629454633, 0.5027263164520264, -0.14270071300713882
0.2986436303441402, 0.5027263164520264, -0.1795383472590032
0.25999590191748495, 0.5027263164520264, -0.19009498705355676
0.284502509048919, 0.5027263164520264, -0.11564017739952659
0.19317808010956972, 0.5027263164520264, -0.19358236878378368
0.2284930202087993, 0.5027263164520264, -0.17823149878231806
0.17654692863998145, 0.5027263164520264, -0.22173973977275016
0.21140778099973906, 0.5027263164520264, -0.20389219456488733
0.19192839139094808, 0.5027263164520264, -0.2023012804882366
0.21517521799557174, 0.5027263164520263, -0.13361850034659142
0.2302166114530271, 0.5027263164520264, -0.22294352623905364
0.1978384502675774, 0.5027263164520264, -0.20478937156565105
0.3221672836580668, 0.5027263164520264, -0.1083236556807917
0.205264589261489, 0.5027263164520264, -0.22177832276001258
0.2674689438058403, 0.5027263164520264, -0.16321495489438015
0.21135313590369914, 0.5027263164520264, -0.20460822266495832
0.33147111198273255, 0.5027263164520264, -0.2002088062230753
0.31697340977057753, 0.5027263164520264, -0.1783529579396315
0.2533566345403565, 0.5027263164520264, -0.13751409470370374
0.4403026889122458, 0.5185117125511169, -0.1994254282281758
0.3930316801258176, 0.5185117125511169, -0.1500065059380795
0.38244093543512037, 0.5185117125511169, -0.14523224065902848
0.3880844376034221, 0.5185117125511169, -0.06547541994867409
0.47823647718656637, 0.5185117125511169, -0.19500512797128522
0.45574374780904003, 0.5185117125511169, -0.14855629772975354
0.48409108858858585, 0.5185117125511169, -0.19240086009909368
0.35727530496234, 0.5185117125511169, -0.07991061388011464
0.34932555938029675, 0.5185117125511169, -0.19084715541364855
0.45996696924767905, 0.5185117125511169, -0.13497319254039464
0.34545349614736964, 0.5185117125511169, -0.06540723576283698
0.3865773125725912, 0.5185117125511169, -0.15683833781548434
0.4986704171649419, 0.5185117125511169, -0.17483050564695288
0.42062230195720374, 0.5185117125511169, -0.1979480490661312
0.39747225647643913, 0.5185117125511169, -0.11108900498615666
0.34410086649539523, 0.5185117125511169, -0.18290120394164383
0.3886542191572544, 0.5185117125511169, -0.11900853679781376
0.33674565879293955, 0.5185117125511169, -0.08628411105628438
0.525048163307278, 0.5185117125511169, -0.20631422520187306
0.4391819530537895, 0.5185117125511169, -0.19585124931502917
0.3722501144966095, 0.5185117125511169, -0.052511831764945706
0.3610472580424364, 0.5185117125511169, -0.030918236440459858
0.4204301965224822, 0.5185117125511169, -0.14905755627195433
0.48697801834215515, 0.5185117125511169, -0.17721554142167684
0.44435709242685584, 0.5185117125511169, -0.21108248924844206
0.36975652147600696, 0.5185117125511169, -0.12175265747947017
0.4909204229537085, 0.5185117125511169, -0.20770746316952593
0.3765948844665377, 0.5185117125511169, -0.11905544740819013
0.40471189726666446, 0.5185117125511169, -0.2129769046542191
0.3373948083617325, 0.5185117125511169, -0.017345790433745473
0.3904549785311941, 0.5185117125511169, -0.09580164578829269
0.42502970176398275, 0.5185117125511169, -0.1953298138599075
0.36786306167365157, 0.5185117125511169, -0.20318473241011675
0.43941301972840086, 0.5185117125511168, -0.16212546655351676
0.3879295609544099, 0.5185117125511169, -0.10056759015245303
0.3697801334247032, 0.5185117125511169, -0.19781533177383148
0.5053912375480928, 0.5185117125511169, -0.19742444093378642
0.3805724578646379, 0.5185117125511169, -0.1567272644412644
0.36411210057799803, 0.5185117125511168, -0.031648567405714374
0.5047446524196982, 0.5185117125511169, -0.21088761919040275
0.42046119711894536, 0.5185117125511169, -0.18733022014788858
0.4158570323757472, 0.5185117125511169, -0.11518048161625676
0.3814153734164709, 0.5185117125511169, -0.161309384037807
0.38187661690091035, 0.5185117125511169, -0.2093109168181584
0.46180881005957414, 0.5185117125511169, -0.18685129483541096
0.34621085553211234, 0.5185117125511169, -0.16469674252271765
0.3359910340529415, 0.518511712551117, -0.10633114411045308
0.19784794664140853, 0.5185117125511169, 0.1969727359984368
0.1733190125885301, 0.5185117125511169, 0.19132653956057089
0.2179897431892204, 0.5185117125511169, 0.14220451577849536
0.30288716506985625, 0.5185117125511169, 0.0724650633754187
0.22669959229123435, 0.5185117125511169, 0.13137264249797623
0.2873957601331796, 0.5185117125511169, 0.2098291684268244
0.27761489015179885, 0.5185117125511169, 0.13446078990967256
0.20254188059413508, 0.5185117125511169, 0.1965699308805857
0.21990601289337885, 0.5185117125511169, 0.22616280601518501
0.2937680953005135, 0.5185117125511169, 0.18943398437989434
0.24956636252667108, 0.5185117125511169, 0.10575274049950037
0.15277697090059106, 0.5185117125511168, 0.20430694856115433
0.23459523732307494, 0.5185117125511169, 0.18209371213401032
0.22159514356981705, 0.5185117125511169, 0.17218763460186703
0.20802951926944868, 0.5185117125511169, 0.22254085671599494
0.32432569035466835, 0.5185117125511169, 0.18078899740268672
0.2156320736955205, 0.5185117125511169, 0.20178620357095228
0.3079105701253142, 0.5185117125511169, 0.13388462471549928
0.29389450290300034, 0.5185117125511168, 0.04815009694452952
0.19642980159200196, 0.5185117125511169, 0.22698924813078908
0.2770712930795224, 0.5185117125511169, 0.21790373635366245
0.21924867700675763, 0.5185117125511168, 0.1478801937208595
0.27067705417928334, 0.5185117125511169, 0.18452819481699778
0.3073030809620042, 0.5185117125511169, 0.12307650125526783
0.29217646959490556, 0.5185117125511169, 0.15223276216135795
0.2442786446636691, 0.5185117125511169, 0.176596895516337
0.2624469336021593, 0.5185117125511169, 0.16040402814860175
0.1836147004757339, 0.5185117125511169, 0.18603874107471824
0.3164767031572939, 0.5185117125511169, 0.23101623508854924
0.31954145360803243, 0.5185117125511169, 0.13675434223165675
0.2872702779266478, 0.5185117125511169, 0.19036235018035266
0.30174433662732025, 0.5185117125511169, 0.17533254985272237
0.24573432596320313, 0.5185117125511169, 0.17281753087602986
0.23540701129382308, 0.5185117125511169, 0.21998778167723324
0.3201331048088113, 0.5185117125511169, 0.1951366730899102
0.2640972165879819, 0.5185117125511169, 0.1395802876482339
0.27875868172078067, 0.5185117125511169, 0.13793370956116618
0.3063428775248023, 0.5185117125511169, 0.2286209737938204
0.23165357176366097, 0.5185117125511169, 0.20796330840699695
0.25156995410835703, 0.5185117125511169, 0.12716501793145055
0.3342759836979896, 0.5185117125511169, 0.22407801015267592
0.2973499385104559, 0.5185117125511169, 0.09943677028040045
0.23559406865537924, 0.5185117125511169, 0.1431342207726413
0.17809834320908516, 0.5185117125511169, 0.1887089243702685
0.3126767615045229, 0.5185117125511169, 0.20835986125856057
0.27559899450162145, 0.5185117125511169, 0.21046644144590954
0.16609305513487108, 0.5185117125511169, 0.22686043623568086
0.17929527957829283, 0.5185117125511169, 0.18879927296117976
0.2490548735166721, 0.5185117125511169, 0.20683527506385976
0.24388981696109266, 0.5185117125511169, 0.10886590984915451
0.1640884263123098, 0.5185117125511168, 0.18869281894634649
0.5449289679527283, 0.5082748383485565, -0.09232885350969536
0.5449289679527283, 0.5049967524693001, -0.2017841048455692
0.5449289679527283, 0.5038539990689472, -0.01171754948138546
0.510108283618028, 0.5185117125511169, -0.08339240010735348
0.5045084528069848, 0.5185117125511169, -0.10646613589380763
0.46218239940190103, 0.5185117125511169, -0.012806520084831165
0.4586463265392865, 0.5185117125511169, -0.10059256392189807
0.4739370993809856, 0.5185117125511169, -0.09059089045805475
0.5305789802262154, 0.5185117125511169, -0.06364718204093626
0.5183712031618746, 0.5185117125511169, -0.057763945408699474
0.40577361598129225, 0.5185117125511169, -0.07251726498603975
0.36993479973650667, 0.5185117125511169, -0.020614196709013256
0.4118785345940184, 0.5185117125511169, -0.06554785466576338
0.45396650695337104, 0.5185117125511169, -0.06666296827718501
0.4156547366708444, 0.5185117125511169, -0.03738975191592267
0.4392056084764759, 0.5185117125511168, -0.10458565099279032
0.43186876069351365, 0.5185117125511169, -0.052478363785883546
0.5100380765740591, 0.5185117125511169, -0.11594939489647074
0.5316956551595723, 0.5185117125511169, -0.1535688180496708
0.4551290454866389, 0.5185117125511169, -0.04913321975496313
0.524040809815265, 0.5185117125511169, -0.14342282753613286
0.4325060806505908, 0.5185117125511169, -0.06610862444297654
0.5425521960509495, 0.5185117125511169, -0.015299205575432247
0.5339728752214519, 0.5185117125511169, -0.1813183960031063
0.3721733878868646, 0.5185117125511169, -0.004649860809222886
0.4707128037751659, 0.5185117125511169, -0.004948177173812397
0.4047662217729771, 0.5185117125511169, -0.035844652787550335
0.37440467557119694, 0.5185117125511169, -0.03934953991747628
0.4816440930363869, 0.5185117125511169, -0.019165764443206775
0.4812158137177887, 0.5185117125511169, -0.0016147594108474861
0.44605226223946465, 0.5185117125511169, -0.0830059664892874
0.536598775527204, 0.5185117125511169, -0.12164575448240941
0.483208504468818, 0.5185117125511169, -0.04346932382700588
0.5082173843538296, 0.5185117125511169, -0.13475048601521056
0.3409771317179963, 0.5185117125511169, -0.004505209199712262
0.3853047214144718, 0.5185117125511169, -0.028066425168607554
0.4760495537148848, 0.5185117125511169, -0.07540853101727119
0.4848792870093688, 0.5185117125511169, -0.08879623934285648
0.5122147704512275, 0.5185117125511169, -0.10269867176319973
0.43940558255750106, 0.5185117125511169, -0.07850806193622009
0.5164984322707941, 0.5185117125511169, -0.04931050152919205
0.5333145165477068, 0.5185117125511169, -0.20161359255941452
0.47195185923218896, 0.518511712551117, -0.11344907604949604
0.50994025788271, 0.5185117125511169, -0.1813059086650995
0.4025337867661587, 0.5185117125511169, -0.02345338406217203
0.4602935928210964, 0.518511712551117, -0.11751721587799506
0.40504750632947806, 0.5185117125511169, -0.0358788389172716
0.4993663609898892, 0.5185117125511169, -0.05853672023094901
0.39260563889558114, 0.5185117125511169, -0.03021462065197486
0.49464313703180074, 0.5185117125511169, -0.14876742751717234
0.4690332338548712, 0.5185117125511169, -0.13206691713849963
0.26544150342145023, 0.5185117125511169, -0.1473261251020624
0.22590187123800995, 0.5185117125511169, -0.021442664600539903
0.3262534972405531, 0.5185117125511169, -0.1559999069431674
0.3195739170772049, 0.5185117125511169, -0.019281776268152823
0.23626173856319632, 0.5185117125511169, -0.09776180830583506
0.2055662663974016, 0.5185117125511169, -0.03337247166267794
0.2672954309241555, 0.5185117125511169, -0.08970907081074561
0.19669513566396307, 0.5185117125511169, -0.043497623519732284
0.27123790457628194, 0.5185117125511169, -0.07041511226156338
0.26325392650235774, 0.5185117125511169, -0.1441984374380957
0.174385309891383, 0.5185117125511169, -0.020264004667777336
0.18217910773038365, 0.5185117125511169, -0.025372267122885234
0.2694666411253323, 0.5185117125511169, -0.09483778702534171
0.20745173571978337, 0.5185117125511169, -0.07912644642563287
0.2191917555932031, 0.5185117125511169, -0.04390904078896791
0.2771651429870221, 0.5185117125511169, -0.1207194789537246
0.3158971947915481, 0.5185117125511169, -0.13063551990832234
0.28884489763942334, 0.5185117125511169, -0.08815501308549237
0.28685176671627166, 0.5185117125511169, -0.10052331120189753
0.2114890009307163, 0.5185117125511169, -0.07831603021139098
0.3039880491432003, 0.5185117125511169, -0.04180899794799825
0.31910546612324303, 0.5185117125511169, -0.11345573259933596
0.2804813452707552, 0.5185117125511169, -0.07676177090534864
0.19299125913991966, 0.5185117125511169, -0.021329739718414294
0.21030120466154864, 0.5185117125511169, -0.03871172650506684
0.27891228784772093, 0.5185117125511169, -0.1441507597025966
0.2766000584564925, 0.5185117125511169, -0.0008276344288418384
0.24849336381527276, 0.5185117125511169, -0.002789668516879485
0.29579656621253575, 0.5185117125511169, -0.1584387486686274
0.31132471922155136, 0.5185117125511169, -0.10540732202541782
0.31563131465138294, 0.5185117125511168, -0.19914301643035554
0.3083507477905826, 0.5185117125511169, -0.07813719503628996
0.2877754447682727, 0.5185117125511169, -0.08198001760864046
0.3132722408673329, 0.518511712551117, -0.19629583119788632
0.282216212456605, 0.5185117125511169, -0.025166930282997935
0.20493547461337563, 0.5185117125511169, -0.027883185380485263
0.22661349237077494, 0.5185117125511169, -0.06599096775403648
0.23226873367258363, 0.5185117125511169, -0.06052729057282554
0.272773311572317, 0.5185117125511169, -0.011518368373712888
0.22758294406288215, 0.5185117125511169, -0.061179197847072056
0.22924770578753922, 0.5185117125511169, -0.09494154126841285
0.17928978853857291, 0.5185117125511169, -0.013710208080274478
0.18557799012334378, 0.5185117125511169, -0.049447814026099324
0.3326190720649763, 0.5185117125511169, -0.18885205489270046
0.3241278744628008, 0.5185117125511169, -0.16185966785856157
0.23476210857453064, 0.5185117125511168, -0.11011488054644024
0.1800019274670012, 0.5185117125511169, -0.04909424332830596
0.32659848123332397, 0.5185117125511169, -0.13197772854082843
0.422999609997165, 0.5123410507189623, -0.2239403873682022
0.3701157227135201, 0.5085754496242221, -0.2239403873682022
0.3985737513819324, 0.5163893099378059, -0.2239403873682022
0.4772233892724896, 0.517830838750655, -0.2239159542220255
0.12230264395475388, 0.5155464206006353, -0.17051338693943804
0.12230264395475388, 0.5165259222594527, -0.10104692960127235
0.12230264395475388, 0.5177222790275009, -0.04776285553402344
0.17770740326355788, 0.5057941635718869, -0.2239403873682022
0.3265304408546657, 0.5170402010536951, -0.2239403873682022
0.25767678571140157, 0.5096274309034491, -0.22394038736820218
0.5139923173653975, 0.512978583582657, -0.2239403873682022
0.4527399803976097, 0.5046569251805251, -0.2239403873682022
0.44164775969798664, 0.5065149180757635, -0.2239403873682022
0.33593672654407986, 0.5030573843442367, -0.22378195541724344
0.5004319848296791, 0.5027263164520264, -0.015500681233624204
0.43941546403276477, 0.5027263164520264, -0.09019276840369787
0.3691210202762648, 0.5027263164520264, -0.04921102738972773
0.42674995493141915, 0.5027263164520264, -0.05236013076027987
0.35723154968043214, 0.5027263164520264, -0.0032461129246721633
0.40504702428912304, 0.5027263164520264, -0.09285728385853705
0.5256129882777629, 0.5027263164520264, -0.017608800416101737
0.49077713398066786, 0.5027263164520264, -0.018937223720675425
0.3655299804337511, 0.5027263164520264, -0.10267034613329042
0.40912565232468123, 0.5027263164520264, -0.023480925619633775
0.366144434114711, 0.5027263164520264, -0.17048008734000614
0.48616379444897084, 0.5027263164520264, -0.006673995992190019
0.3513840544779221, 0.5027263164520264, -0.09701606589277555
0.35677889255138695, 0.5027263164520264, -0.051394351874959346
0.44491534267654365, 0.5027263164520264, -0.0018401817165834612
0.34916478294744424, 0.5027263164520264, -0.05254975356427773
0.37752764895745194, 0.5027263164520264, -0.003204473898865015
0.3553428262708045, 0.5027263164520264, -0.03581120579885353
0.4359060577819069, 0.5027263164520264, -0.044796194871249334
0.4533132582416683, 0.5027263164520263, -0.0943297206466031
0.4481383988878619, 0.5027263164520264, -0.08787782157127477
0.51798661618476, 0.5027263164520264, -0.014124727626083711
0.4598098992097059, 0.5027263164520264, -0.0880363817562456
0.390271292576894, 0.5027263164520264, -0.12815568867184335
0.3571802336143759, 0.5027263164520264, -0.08117056343206018
0.4118038643237879, 0.5027263164520264, -0.1124666399638001
0.4288922974999781, 0.5027263164520264, -0.10918103543119018
0.40823997311032817, 0.5027263164520264, -0.10032882301726939
0.39131668355475635, 0.5027263164520264, -0.06009491704512869
0.4981789812531092, 0.5027263164520264, -0.02027164476516381
0.42591160269318956, 0.5027263164520264, -0.04443474925536392
0.36841478636080405, 0.5027263164520264, -0.0014128630601239313
0.39176471622418463, 0.5027263164520264, -0.013853730012053735
0.49565610049794195, 0.5027263164520264, -0.050229043654865344
0.4643753811007899, 0.5027263164520264, -0.07953972638189225
0.34905822734231906, 0.5027263164520264, -0.044759474593710456
0.3793517041610889, 0.5027263164520264, -0.15810312869036774
0.4077461186574771, 0.5027263164520264, -0.0499229141188086
0.4101627788250716, 0.5027263164520264, -0.001272382483904342
0.3789964543809484, 0.5027263164520264, -0.13600016806031529
0.4018020478461949, 0.5027263164520264, -0.09079928655977404
0.41588488138249197, 0.5027263164520264, -0.13500664431792342
0.4089374598666042, 0.5027263164520264, -0.14112492537404486
0.4118218130975096, 0.5027263164520264, -0.12792515228772838
0.3354777210712646, 0.5027263164520264, -0.14363794158263585
0.5225922162066386, 0.5027263164520264, -0.016183592707268112
0.43330546924031604, 0.5027263164520264, -0.11171076836802933
0.41377464769545286, 0.5027617920341549, -0.22330061296857837
0.3028978288513432, 0.5185117125511169, 0.023519933099205206
0.2165977726758126, 0.5185117125511169, 0.05604804097405496
0.15702991295383995, 0.518511712551117, 0.15707158227030119
0.21802423666240586, 0.5185117125511169, 0.07285228443367794
0.16688939343160727, 0.5185117125511169, 0.011906986922571732
0.17092112397983245, 0.5185117125511169, 0.031076878882299853
0.14531447743420084, 0.5185117125511169, 0.1018535666658435
0.18624380106481386, 0.5185117125511169, 0.07676904429242488
0.14578899520249394, 0.5185117125511169, 0.11252208579541911
0.23303970375168798, 0.5185117125511169, 0.0016226151774635686
0.1830398172178882, 0.5185117125511169, 0.1630292695365658
0.18309257326011447, 0.5185117125511169, 0.12185863489328434
0.18897176847911193, 0.5185117125511169, 0.04356313857756127
0.23246908789969795, 0.5185117125511169, 0.06139054737848106
0.2268629651538134, 0.5185117125511169, 0.09864203494214929
0.15389060726950965, 0.5185117125511169, 0.06067137900111631
0.15901531507242136, 0.5185117125511169, 0.12007325899395468
0.1972192756112428, 0.5185117125511169, 0.008086759524171351
0.3091138826182745, 0.5185117125511169, 0.023550655636576157
0.14756312414910366, 0.5185117125511169, 0.021942867264368584
0.2181865968184101, 0.5185117125511169, 0.020642819554664668
0.14556274005557818, 0.5185117125511169, 0.06106184786426083
0.151262083777592, 0.5185117125511169, 0.011121130609566468
0.26880322808526785, 0.5185117125511169, 0.04877110535173843
0.1940035899778222, 0.5185117125511169, 0.016844424580292804
0.13678686654129385, 0.5185117125511169, 0.04383932458575533
0.1887369508609865, 0.5185117125511169, 0.025153479495952952
0.3045868720717516, 0.5185117125511169, 0.0151711717636968
0.1745671993115089, 0.5185117125511169, 0.11194083805116019
0.13863538717112117, 0.5185117125511169, 0.17268222190948546
0.1597675340948159, 0.5185117125511169, 0.04489248721153319
0.30655337840493757, 0.5185117125511169, 0.008629700298278078
0.16315873328493158, 0.5185117125511169, 0.0829114121695579
0.22133502960569293, 0.5185117125511169, 0.11496729023449617
0.16848950858296616, 0.5185117125511169, 0.13971882082984233
0.15747884349823632, 0.5185117125511169, 0.09824141723227735
0.26384151118656485, 0.5185117125511169, 0.0652172518283045
0.19464846400249897, 0.5185117125511169, 0.0047120420700435435
0.2288753466278076, 0.5185117125511169, 0.10470394347931218
0.15072932247775006, 0.5185117125511169, 0.03426534976261175
0.1251377742665016, 0.5185117125511169, 0.03228832517293398
0.18372798436312887, 0.5185117125511169, 0.04654469182509075
0.18269843012041037, 0.5185117125511169, 0.13342381906779513
0.14744739082395367, 0.5185117125511169, 0.1889589346153905
0.1516711866949199, 0.5185117125511169, 0.0011546230909125217
0.1819371342120699, 0.5185117125511169, 0.09680550689198492
0.1611952481600488, 0.5185117125511169, 0.03001599381021375
0.14878565178503925, 0.5185117125511169, 0.173549529594976
0.18817742905438614, 0.5185117125511169, 0.05540381860880904
0.1719994399892029, 0.5185117125511169, 0.09545131358156829
0.1515727190276021, 0.5185117125511169, -0.09578178096119225
0.15226583215672437, 0.5185117125511169, -0.13252758759535632
0.2149211727691861, 0.5185117125511169, -0.1646230016816027
0.137714954184351, 0.5185117125511169, -0.22163065423113862
0.12572173114161247, 0.5185117125511169, -0.00612362661077369
0.13691982470178987, 0.5185117125511169, -0.130636103278998
0.22376413898542794, 0.5185117125511169, -0.12180082743558004
