0.026771980166600092, 0.49892292005843597, -0.04217348883681445
0.05152245209041644, 0.4989228496613509, -0.10141098456406779
0.04739384111033927, 0.49892284312507795, -0.11201394781580469
0.02194476158808715, 0.4989229205412903, -0.04367712999282384
0.05651081628946131, 0.49892282653628806, -0.12383626782075194
0.025612359773110892, 0.4989229051809753, -0.058299921597644314
0.06500144268029388, 0.498922804235723, -0.14262845565151205
0.035749298372187634, 0.49892287690389026, -0.08261282082147248
0.036976757826274964, 0.49892287655040185, -0.08206922709761431
0.03727150640657267, 0.49892287962835785, -0.07834624859497946
0.04853604702176144, 0.49892284906405504, -0.1043888273969448
0.03464595817874409, 0.4989228864201132, -0.07265354247114202
0.02850915031740927, 0.4989229014002431, -0.0603637724288275
0.06504609597153609, 0.49892281243441794, -0.13328175385728555
0.053248787824831695, 0.4989228327813059, -0.1192546276510584
0.052676106037707976, 0.4989228295186045, -0.12340144325284341
-0.04306080437809727, 0.49892283670667975, -0.11888536023638993
-0.03199976946554709, 0.4989228692912172, -0.09075126953477272
-0.034354396733944734, 0.4989228600894917, -0.09879614775672595
-0.008651948756277596, 0.4989229468362917, -0.023410724874046315
-0.031503853359604116, 0.4989228652146163, -0.09451538535524741
-0.026975184644551953, 0.4989228870855884, -0.07525525733862098
-0.05790962886537346, 0.49892280194391314, -0.14850398826239028
-0.03647061758888789, 0.49892286206488595, -0.09672836831095113
-0.011447490859955748, 0.498922938775296, -0.030363045306646443
-0.025680101955067456, 0.49892288444846566, -0.0778168591625221
-0.02442285086866297, 0.49892289027900893, -0.07268882945636285
-0.033439427560354784, 0.498922863973115, -0.09539053360149682
-0.03261125680912649, 0.4989228682006728, -0.09166150545770449
-0.05298291042320973, 0.49892280702701897, -0.14453119208843557
-0.06355352688433649, 0.49892282589996095, -0.12010997058784334
-0.017085989123224555, 0.49892293800979587, -0.028613476873334674
-0.06279713804004876, 0.4989228270303194, -0.11927220215065612
-0.03313281355488806, 0.4989229018591443, -0.057804236771821255
-0.062099473189015125, 0.4989228451337258, -0.1024936890441123
-0.07734968700451805, 0.49892280877290573, -0.1321161527776045
-0.04670004901918963, 0.49892286672346786, -0.08677280751508229
-0.023921678195597564, 0.49892292192510446, -0.04169100094680363
-0.07628548655538368, 0.4989228121391839, -0.12927135460024233
-0.04580470791816957, 0.4989228721684489, -0.0819281366988355
-0.0512382595368307, 0.49892286716378215, -0.08502361742555498
-0.06243965377075846, 0.49892282416112854, -0.12206921352938262
-0.05556972288262172, 0.4989228424698371, -0.106915284012271
-0.013022124197446024, 0.49892294570256085, -0.02259287411980073
-0.05849118516197822, 0.4989228437290054, -0.10487386711768448
-0.08144539948877963, 0.49892282492262297, -0.10971761397419252
-0.07987560014966735, 0.4989228369303109, -0.09849974966708816
-0.07607127238787936, 0.49892284277877724, -0.0944796814377665
-0.038996947823693784, 0.49892290666868727, -0.04843347665190219
-0.06584055482483749, 0.4989228555296318, -0.08663484013244013
-0.1006060853820159, 0.49892280279441664, -0.12266401074503214
-0.09000573926487701, 0.4989228242484149, -0.10632365576934426
-0.01808407533542668, 0.49892294167650525, -0.023487129271876628
-0.09850350533656368, 0.4989227951908253, -0.13123818499151713
-0.09542167046416072, 0.49892280841366954, -0.11952777503703901
-0.09953059489738553, 0.49892280210207063, -0.12386460262021348
-0.09843120337896442, 0.4989228041149345, -0.12238130689588514
-0.06960707507492904, 0.49892285580932166, -0.08456729518711488
-0.04883381423343892, 0.4989228924317629, -0.05794596779768295
-0.09090234521334474, 0.49892281746040024, -0.1126608141412862
-0.11754323066969023, 0.49892280754510876, -0.10092734825054185
-0.09107437150343263, 0.4989228360094707, -0.08800589500883815
-0.08183237901976312, 0.49892284916830587, -0.07998174944490608
-0.05168593956833806, 0.4989228958209699, -0.04973929097518375
-0.09028021543917143, 0.4989228365437559, -0.0879669789975569
-0.11488696895267747, 0.4989228088440001, -0.10132966785687977
-0.10826666929919787, 0.4989228102956975, -0.10428007121486597
-0.1105526564553749, 0.4989228037985513, -0.1098015292536444
-0.07870938873890491, 0.49892285900274813, -0.07139322754442672
-0.09101647621136003, 0.49892284537217, -0.07783282109728083
-0.058939563247922835, 0.4989228885568402, -0.05269529050653732
-0.08416604710014967, 0.49892285044625295, -0.07698957207529024
-0.08834129983370881, 0.49892284336915627, -0.08184977400742556
-0.07928136963609225, 0.49892285979447343, -0.07013790296516964
-0.12033971373606989, 0.4989228126342107, -0.08591225348639395
-0.12751583739940411, 0.4989228047814761, -0.08885248420955694
-0.13259616277490774, 0.49892279533664474, -0.09574718154251616
-0.1259417511469915, 0.4989228074313392, -0.08705877306100034
-0.09992410920141162, 0.4989228405357532, -0.07065876712078331
-0.08965470256798652, 0.4989228529369743, -0.06500979682410452
-0.11615901711810878, 0.4989228238386809, -0.0759869121317024
-0.13475080769770303, 0.4989227966598011, -0.09207020638932167
-0.0629124096608764, 0.4989228915160863, -0.04251339789767928
-0.05476112505283678, 0.49892290240608916, -0.036733079814715935
-0.10645572425607402, 0.49892283549292527, -0.07072781601775807
-0.09482056816883566, 0.49892284811041904, -0.06610269618703558
-0.12110234877043147, 0.4989228134501077, -0.08418024225685927
-0.08171968576632624, 0.4989228683590511, -0.05341081863141138
-0.1216241995594451, 0.49892281028773355, -0.08760405609801751
-0.12182032197097367, 0.498922829152743, -0.05526925359932604
-0.0754400609808674, 0.498922883977845, -0.034629630944440735
-0.14052302379925533, 0.49892280697744074, -0.06369131610847556
-0.028977541545564547, 0.4989229392676167, -0.013411371708132908
-0.02772915867983432, 0.4989229414948184, -0.011747210438001475
-0.10638364354929677, 0.4989228493276654, -0.045556300909141555
-0.0599364504053494, 0.4989229030256944, -0.026666242409269205
-0.02282217078136165, 0.49892294595265696, -0.011544141892900024
-0.1257450700704146, 0.4989228263648702, -0.05428452567784829
-0.09848243938197332, 0.4989228559046053, -0.046115972506215124
-0.11360631744528958, 0.49892284003705695, -0.049881031243740756
-0.12545759889834643, 0.4989228266639505, -0.05421668720557098
-0.12725058757729152, 0.4989228193127848, -0.06273229745693476
-0.14754182729084758, 0.4989227987572952, -0.06670170219141089
-0.06736761471929387, 0.49892289296195924, -0.031860692450001185
-0.1104815547493344, 0.4989228492533919, -0.03164637202857121
-0.1517247763908533, 0.4989228059245086, -0.03745899654017376
-0.15411361425359527, 0.4989227999846428, -0.04424572754034874
-0.14481496994412996, 0.4989228127705639, -0.037262086078583126
-0.1275516916098674, 0.4989228289791553, -0.03845382887650582
-0.061886408098507775, 0.498922903512389, -0.01876840764369698
-0.1371362199541037, 0.49892281760482643, -0.042258709485507556
-0.12108349948082844, 0.4989228397508399, -0.030065171973325405
-0.059444599533261325, 0.4989229066083776, -0.017426366527727076
-0.07747752592360367, 0.49892288585180444, -0.023374538619555532
-0.020794384988364056, 0.49892295073174575, -0.0053629143388081455
-0.09764392510437087, 0.4989228650663185, -0.02546318957845334
-0.10655288410000915, 0.49892285257706087, -0.0326038801480513
-0.048998661213625616, 0.4989229186340649, -0.01397696654611091
-0.15499064105747554, 0.4989228029330487, -0.02332993982997123
-0.16112100392577394, 0.49892279998753464, -0.01401338193010618
-0.15798144770276024, 0.4989227994899508, -0.024168053488573853
-0.16564727043366442, 0.4989227952076616, -0.01412547719053372
-0.1640069121098242, 0.49892279507671367, -0.01908484376850144
-0.148883548211885, 0.4989228115044281, -0.017483962495381707
-0.11512834713796548, 0.4989228466632778, -0.017956629241450837
-0.14667561743398866, 0.49892281407257755, -0.016794604750809742
-0.15576381302827885, 0.49892280311630954, -0.02066622100404417
-0.15478749807754097, 0.4989228071687076, -0.012534083496965968
-0.11122746135857357, 0.49892285206878945, -0.014408845422807999
-0.11464143532341688, 0.49892285025753, -0.00967914697670908
-0.16410954760101976, 0.49892279703738984, -0.013534999061452339
-0.13575192363167235, 0.4989228269222407, -0.012998145424273884
-0.09864287097340306, 0.4989228669496282, -0.009827327933434148
0.1300076425971221, 0.4989227363161186, 0.0006857641186482939
0.12724148432704216, 0.4989227336518613, 0.006577213380563009
0.11504068874683632, 0.4989227523779913, 0.009242683722372694
0.11192946562730385, 0.4989227599653395, 0.007770633283726224
0.16100623013144666, 0.49892266857157025, 0.00934461665316003
0.11362151281139245, 0.49892274712617585, 0.01523787640317937
0.09848220352661989, 0.49892279309446974, 0.0011516439707397812
0.13111587965510826, 0.49892271748680406, 0.013549599602782271
0.15046747341397035, 0.4989226817514511, 0.013938875696123723
0.13318483291299515, 0.4989227247731415, 0.005092623436072993
0.11918065807184448, 0.4989227438738389, 0.009983339784340952
0.13867428718574557, 0.4989227212668613, 0.00012946383633305908
0.12377909098431619, 0.49892274470896425, 0.002939373029642954
0.12679626854697737, 0.4989227263977821, 0.012747871848318245
0.14172188469897576, 0.4989227029570231, 0.009894563723205544
0.05769377581418802, 0.49892285937730585, 0.007247088277634049
0.08364275528665358, 0.49892281932580806, 0.0017496908642472436
0.08670677940311461, 0.49892280791052424, 0.0062164686567141355
0.1037881040653711, 0.4989227685817311, 0.012517465267031147
0.1473302923356137, 0.4989226844788686, 0.01622160904130411
0.15498806946921947, 0.49892268588082367, 0.0044826960372461
0.15760643583134484, 0.498922674734942, 0.009364075589205675
0.1394302768264226, 0.49892270263479155, 0.013333005808955871
0.14560924436082415, 0.498922704406628, 0.003370845062144217
0.14748941153469933, 0.4989227049906643, 0.00030515845941398394
0.13558313961681429, 0.4989227051307299, 0.01678172567939193
0.12454626398032938, 0.49892274603098, 0.0008592558776927395
0.06548231800198925, 0.4989228467744702, 0.006041953814978219
0.12784761855276525, 0.4989227155027566, 0.0196199366672288
0.16708056467012072, 0.4989316508794988, 0.007027514673129984
0.18664362795107775, 0.49901663615712233, 0.007928450588468212
0.18101809396760948, 0.49899008399728745, 0.010248433189551667
0.1863246961424871, 0.49901272890428694, 0.010990449574854604
0.174811808932838, 0.4989608443139633, 0.012742543021249665
0.11496385026601355, 0.49892280769691605, -0.012088531778614492
0.06118876374273086, 0.49892287510853756, -0.004816866764596192
0.11019600084450379, 0.4989228412459147, -0.01576547605023963
0.10983452913702622, 0.49892282595946624, -0.013249562669417726
0.15336164197961744, 0.4989227477954417, -0.015436518039391783
0.14648991291570204, 0.49892279894335806, -0.021174048537677324
0.12325141501629966, 0.49892279358102887, -0.012625077406403014
0.15959582637905648, 0.4989227223656372, -0.013518582257831499
0.15161651134124635, 0.49892278982888694, -0.021445991068111556
0.15293818178978083, 0.4989228045672845, -0.02419451145127345
0.11004794741560946, 0.4989228407865124, -0.015644357982328796
0.1154526527739647, 0.49892282065767396, -0.014282151801163573
0.12057630146679807, 0.4989228092258734, -0.014189895972074595
0.054216619117187975, 0.4989229069813934, -0.007499901245578925
0.1745817197450531, 0.498949320588899, -0.00429036700478363
0.1668319487012998, 0.49892785593838374, -0.00621562846724429
0.180542961685148, 0.49896601728562506, -0.002432550641815912
0.19120513378161574, 0.4989931988921184, -0.004550620451002003
0.1862479222795397, 0.498979995964557, -0.004712673715241561
0.21037245662889864, 0.4990451422014359, -0.002111306617182417
0.18788864852233128, 0.4990234004742953, -0.019355583309705
0.16830899451916356, 0.4989435379625074, -0.020945154355738748
0.19205193900048684, 0.49903478817115926, -0.015294717444655825
0.19031006347098456, 0.49903450903394175, -0.019978925337738165
0.23264817453235348, 0.5240254050285748, -0.014263366711369014
0.22396611400990618, 0.524016911836996, -0.017223837256702672
0.2069202674016275, 0.5239998919302663, -0.014196806337874275
0.22938950929355095, 0.5240219739781226, -0.009139193807757174
0.15853243280118123, 0.5239656462086456, -0.021987710484624216
0.15668258139061383, 0.5239620068183181, -0.012960158166150992
0.16334444306926055, 0.5239681948774929, -0.018431201120709242
0.1621583886956668, 0.523967490322217, -0.01900934169806514
0.18858713408492594, 0.5239771097520771, -0.005327700137288091
0.20137752865752573, 0.5239882123256576, -0.008225615628399095
0.2046841378875184, 0.5239862700931806, -0.003464838982118292
0.2003036983228546, 0.5239828291672967, -0.0028862211298564307
0.178331662738112, 0.5239769711036888, -0.013037685176342389
0.20120543459459692, 0.5239927643452739, -0.013569380274950011
0.09125840522540932, 0.5239596247573608, -0.0019302631863998877
0.0818543152339251, 0.5239596137480219, -0.00152480035818343
0.11602115338805348, 0.5239596540647584, -0.0015587154205874182
0.13995718704165525, 0.5239596814546996, -0.0054530585028980776
0.10648253022231861, 0.5239596425820422, -0.002578300146035864
0.1381762484833678, 0.5239596802686182, -0.0013046954144539193
0.06272892873225802, 0.5239595907508531, -0.003450366557998674
0.1301754594806733, 0.5239596703666474, -0.0033852767437704107
0.05637768383437601, 0.5239595830670177, -0.004301950955765688
0.06156469947615906, 0.5239595897262048, -0.0018677134499576922
0.1317426796936545, 0.523959672794771, -0.0007649846814379195
0.05649058500509539, 0.5239595837451064, -0.0018339721859376998
0.15153239848725528, 0.5239596962928772, 0.0133380128682406
0.1908433574677553, 0.5239773843619181, 0.003911018596581055
0.19680667740239882, 0.5239875812654977, 0.011010214466838105
0.16725209155158466, 0.5239686134948115, 0.011969903819488602
0.20037299296309574, 0.5239936837592629, 0.015260774740604274
0.2029033767762592, 0.5239937649690868, 0.013412268239938177
0.16736150823273113, 0.5239664052088222, -0.005627746217420661
0.16191401588362891, 0.5239640601715578, -0.004159883588151084
0.16397217861142718, 0.5239651297415173, -0.0025496329996117597
0.1765408003365483, 0.5239705325437884, -0.006027604629612747
0.17841956756764582, 0.5239718497280406, -0.0005382167704615083
0.1562911727015226, 0.5239610548656045, 0.00954128229839687
0.16690414596015934, 0.5239663738960918, 0.0035520591853262866
0.16703540846698328, 0.5239665409336991, 0.002283920036172604
0.1557208218554359, 0.5239611468744708, 0.005407033753521956
0.16894274553965832, 0.5239674163435449, 0.0021570486293714945
0.21661526242426063, 0.5240047090145965, 0.004785787667395703
0.2093906183636427, 0.5239975334280328, 0.008375428904256523
0.1671225610274623, 0.5239694223624553, 0.024149585650469114
0.17508591137364354, 0.5239762461650351, 0.02109614091775259
0.17581729559846312, 0.5239739003233627, 0.024863236193776624
0.19130639127823593, 0.5239859630432626, 0.020571578734484612
0.19885729105193575, 0.5239900970267224, 0.020857582006563118
0.18087560567171146, 0.5239767521677163, 0.024942480971810364
0.19207729957237252, 0.5239855306546393, 0.021764219402565357
0.1643434432761824, 0.5239679669557615, 0.01473397965578952
0.1843559106486704, 0.5239829181292552, 0.016950669069277006
0.15555725402668044, 0.5239632506199173, 0.020982453364810482
0.17931016489539933, 0.5239796106130934, 0.018197913557183226
0.07882169109998026, 0.5239596112338724, 0.007841608060832011
0.07294415069967847, 0.5239596038543255, 0.003074655167807007
0.15043649750988888, 0.5239596952581784, 0.0024954587302132717
0.1111468076923337, 0.5239596496174286, 0.010349619323358917
0.11886966924631157, 0.5239596589626703, 0.012832255383578565
0.021099962835277725, 0.523959542621089, 0.002580140167626497
0.08368463057826632, 0.523959616666413, 0.004538909790674295
0.009115800912926176, 0.5239595282848295, 0.0005091279096729481
0.09762605447566362, 0.52395963382259, 0.012099730684045767
0.008243708070239846, 0.5239595273046925, 0.001037950782250737
0.10477368063382696, 0.523959642230861, 0.011804027083557786
0.043813750201869485, 0.5239595694315197, 0.002615361812313847
0.06907662897235836, 0.5239596000042978, 0.010766658354245381
0.0541556484545429, 0.5239595814010094, 7.271506108714741e-05
0.1388762349137442, 0.5239596828211641, 0.015485387107329197
0.146204530446883, 0.5239596904048005, 0.004016183954249393
0.14918200724828415, 0.5239596940725799, 0.00567106793789502
0.1255849074701653, 0.5239596664304031, 0.007904782188955281
0.05931935917424858, 0.5239595875517391, 0.0006803346949425799
0.11837057980560596, 0.5239596574606373, 0.0030030170384543926
0.1487355907790107, 0.523959693703236, 0.007366946366502981
0.12756531249102165, 0.52395966967368, 0.017658364935533712
0.09974291273027315, 0.5239596360674801, 0.009371030194808033
0.12123292013562635, 0.5239596621164899, 0.016758296307349155
0.06526689043397811, 0.5239595948697269, 0.0038952433991053872
0.19423090362508824, 0.5239830156461063, 0.03609088147579506
0.15907930666455017, 0.5239663887933022, 0.03798965446772462
0.17029970479059978, 0.5239721582068104, 0.037861207212782855
0.1962987578975579, 0.523993311566805, 0.04561000253931952
0.18240015177709504, 0.5239804344129377, 0.03984597308638307
0.20363904770772623, 0.5239927494746142, 0.021072584757561998
0.2083641771357964, 0.5239937700063736, 0.026131992155433523
0.22597230400215537, 0.5240168674286222, 0.020403365830919076
0.2130806449771604, 0.5240033166074922, 0.02031693842858525
0.15574452742324935, 0.5239624949784509, 0.02476276975477051
0.184963927851521, 0.5239758589292807, 0.033064671663110876
0.15475523514782583, 0.5239620120461588, 0.026854850333851255
0.16347674831978076, 0.5239659596256724, 0.03255334121379616
0.1938499476046214, 0.5239835807755224, 0.06272133589945666
0.19461232397846662, 0.5239871933992586, 0.05785514861696578
0.19738022245159997, 0.5239907865487368, 0.0551757943539935
0.19373912678755695, 0.5239879839390692, 0.055672139595550556
0.18024785525165607, 0.5239813538253519, 0.051602365915973364
0.1671205564229516, 0.5239721683961137, 0.0519456672145668
0.21443297292387725, 0.5240070285396697, 0.03910229426403854
0.20693043604011557, 0.5239913181397229, 0.03492743552177184
0.2053677832056769, 0.5239961041777956, 0.04009398245483024
0.03417032017808199, 0.5239595592157155, 0.008689372235180941
0.12678192365047045, 0.5239596711616176, 0.02799562926903522
0.13508940656221877, 0.5239596819924333, 0.032582338962014255
0.13801366886205846, 0.5239596874955382, 0.04031416531341207
0.12254358944590543, 0.5239596692675915, 0.03879628522253367
0.10477923225499584, 0.5239596449158153, 0.02467649247591745
0.0962757826990037, 0.5239596362098022, 0.028594362096033214
0.12379292441771161, 0.5239596683389691, 0.030232330353348803
0.1424715897088057, 0.5239596893155078, 0.028330901475301474
0.08521183064617105, 0.5239596200126386, 0.016071754073226228
0.0861442282459645, 0.5239596214043944, 0.01722392220851786
0.10321288896492159, 0.5239596440002902, 0.02788807739128848
0.019625966157578757, 0.523959541576326, 0.005445183119810019
0.0961707332551646, 0.5239596336538713, 0.019783624750234218
0.1268464379627285, 0.5239596705139331, 0.025383346935447956
0.052422317260126944, 0.5239595807454152, 0.010566685183352447
0.1268647633252219, 0.5239596707589891, 0.026193718644634982
0.08149023765225387, 0.523959616477087, 0.018780383064588697
0.10742554444876805, 0.5239596484902803, 0.026587535797678134
0.09116475639897463, 0.5239596282489657, 0.021078088535209937
0.12295354393849423, 0.5239596657453621, 0.024343978207241653
0.06070496446970611, 0.5239595905872776, 0.011678445862493461
0.11480949437341602, 0.5239596563808551, 0.024382163919656488
0.06516198621887269, 0.5239595967087425, 0.015263321282749773
0.10105378619739197, 0.5239596414379575, 0.027609928189433846
0.17792487822407207, 0.5239812207545644, 0.04370271295620583
0.15335505446198822, 0.5239636671302128, 0.04070430324404309
0.1743749802098805, 0.5239785487957278, 0.042897663181961
0.1596243331027947, 0.5239700067699312, 0.04656487436767201
0.1802264577345563, 0.5239833451557048, 0.06846134775318657
0.1738394524933018, 0.5239818628232945, 0.06929445464047915
0.15333529577933466, 0.5239683108330115, 0.06349563658168919
0.18494340754951225, 0.5239905963813828, 0.07377857079353214
0.18898069966249112, 0.5239812582696884, 0.06335069540764254
0.18899007146375038, 0.5239925316591306, 0.0742105956276373
0.1981096640297027, 0.5239911010701283, 0.0558960371579685
0.20153902546899066, 0.5239982264409766, 0.0507708749195204
0.2118777516576442, 0.5240061786296493, 0.05750001538128916
0.15918047207792546, 0.5239668972322692, 0.05188783512772454
0.1511808384869907, 0.523963179446078, 0.05089200641512967
0.16900276078838808, 0.5239718147980342, 0.05904435291664158
0.1853714818866491, 0.5239794196116724, 0.061040608503550024
0.15157616758539835, 0.5239633762272872, 0.051160834313641566
0.1758691842163339, 0.5239807474545499, 0.08911900792554042
0.17418982591061022, 0.5239849968320329, 0.07846132019367377
0.17239976748152397, 0.5239826900916007, 0.08023027637415416
0.1739744069870492, 0.5239833871922912, 0.08123242615044989
0.1806663859161668, 0.523989348191838, 0.07973284260340968
0.16751153029040838, 0.5239775253894652, 0.08288209639741626
0.20401814029574153, 0.5240062274749916, 0.07286175098701415
0.19498435290572072, 0.5239984232016732, 0.07440734771594752
0.19622825449314546, 0.5239923069038401, 0.06949439333397955
0.14618025409198376, 0.5239647900059534, 0.06520190871215514
0.15867424103069394, 0.5239726137244818, 0.06578416141142696
0.14006213703338158, 0.5239625091575902, 0.06824759014719521
0.14974515975808494, 0.5239672931452324, 0.06594985003299256
0.12810552909268166, 0.5239596962928772, 0.08168768286761889
0.09199369880501086, 0.5239596342952064, 0.0357542599005819
0.03183905929107973, 0.5239595590062082, 0.014796205255026226
0.08892003935801011, 0.523959634169713, 0.042897734111700184
0.09613743431283205, 0.5239596431254577, 0.045241273579881544
0.13233162799733406, 0.5239596867234004, 0.054093799721720195
0.13823052430947172, 0.5239596955641231, 0.0593665914848896
0.053245138645579046, 0.5239595843323412, 0.019019324952933805
0.11497286121446874, 0.5239596694753339, 0.05793019337747365
0.02021079572833747, 0.5239595438594365, 0.0094360896310528
0.06727873097713839, 0.523959602751217, 0.02579492650818209
0.11431241230987432, 0.523959668351429, 0.05704388040075256
0.13499609489778755, 0.523959695129078, 0.06621493034431974
0.09081452139620605, 0.5239596346340583, 0.03934899003792962
0.06254382832008544, 0.5239595975238509, 0.025687712086833778
0.09328585380016777, 0.5239596376438712, 0.04002617777814624
0.06423410970311513, 0.5239595993020572, 0.025532017567513464
0.10983434509465641, 0.5239596553860908, 0.039236699755542045
0.10845698919637357, 0.5239596559491686, 0.043804806068157204
0.09843169689687567, 0.5239596439493326, 0.04152095719119473
0.11338467135101513, 0.5239596648816334, 0.05162481816708697
0.1336024696888262, 0.5239596897914679, 0.05779781417961931
0.08800164901810331, 0.5239596274026894, 0.0301781760767046
0.05563293508672439, 0.5239595887418707, 0.022987759644837374
0.11001522637346937, 0.5239596582072675, 0.0450271547848317
0.18830808240475067, 0.523994042894905, 0.08329752271765872
0.19908319277636008, 0.5240039029636876, 0.09181845363964362
0.1929822821564709, 0.5239996991093443, 0.08371083487842881
0.18754261624826946, 0.5239892709886884, 0.09238553394604747
0.1727912028566641, 0.523992238447471, 0.10300999120298403
0.16761011960956018, 0.5239868463721332, 0.09898875629662274
0.1741140449404091, 0.523989368775721, 0.10011380776235901
0.1784832862217539, 0.5239894035699539, 0.09933632031791895
0.14097511340919808, 0.5239657386969008, 0.08442461398220268
0.15573806673465157, 0.5239711468374824, 0.08624173760539526
0.181121392150929, 0.5239832729832494, 0.09312188157648964
0.1509665176643048, 0.5239688199029447, 0.0845840001293888
0.138558021081704, 0.5239622282051508, 0.07612369869504759
0.17379293632955067, 0.5239796338994922, 0.09007505699713918
0.16596739236014416, 0.5239897917946796, 0.10588172369134981
0.15679031242779118, 0.523979415755948, 0.1125251901045776
0.15489836001788965, 0.5239822663229707, 0.1012043872654287
0.16530807700498662, 0.5239864871396929, 0.11286789808109095
0.16728726141776362, 0.5239891035319382, 0.11047214078164311
0.1374932317058968, 0.5239694769536323, 0.09628157897988346
0.1847556260905808, 0.5240054606832402, 0.10619360574336989
0.1871205978674094, 0.5239937703604933, 0.09804179891337586
0.18337566988229592, 0.523989665494401, 0.09754538097013751
0.1296131258444528, 0.5239596920700477, 0.07074124089189023
0.0794226434804056, 0.5239596244172957, 0.04327465128612991
0.12347305041859624, 0.5239596914900567, 0.07982329899537094
0.0050285314815294874, 0.5239595242198091, 0.002691739530022999
0.033375419992530554, 0.523959565944915, 0.023888215958009655
0.08380662902834338, 0.5239596385332503, 0.05894102762113946
0.029251100078231985, 0.5239595600696819, 0.021120368918272195
0.09112745134506509, 0.5239596411958398, 0.05129897386000287
0.03122722700623362, 0.5239595596458738, 0.01721047806453786
0.05755407418889536, 0.5239595966722599, 0.03410723291413435
0.04521221154543287, 0.5239595809761541, 0.028872400587288585
0.07511621640238426, 0.5239596270159742, 0.05450322544211459
0.09218153416426778, 0.5239596408568876, 0.04903090386398546
0.09879432541149362, 0.5239596550255935, 0.06114547897280216
0.048105271527072536, 0.5239595853259338, 0.031183375211037465
0.12640031148377137, 0.5239596894450429, 0.07174039512643911
0.11700273422555409, 0.5239596859177644, 0.08137351607471542
0.06888155533965992, 0.5239596131654591, 0.04228599729551505
0.08059749821810956, 0.5239596332033477, 0.055561329772072614
0.10630822995128111, 0.5239596717975489, 0.07599808334400808
0.10377462302892446, 0.5239596682816359, 0.07444859547371944
0.11306901799947619, 0.5239596761474633, 0.07199771634387
0.12019352479872017, 0.5239596914389638, 0.08509240031018164
0.12856435278572215, 0.5239596922782703, 0.07278930396095311
0.1161378788959673, 0.5239596962928772, 0.09891760226336027
0.13117048258012232, 0.5239621927537521, 0.085428157347515
0.1282567806758517, 0.5239622120878259, 0.0882188875068348
0.12354060950166247, 0.523960203716901, 0.0890561803770992
0.1476005363005233, 0.5239767849048529, 0.09621444659458418
0.14777235643883999, 0.523981638417199, 0.11931759758272532
0.16121580437794897, 0.5239880078488182, 0.12475373063367026
0.1497193662056636, 0.523978829085135, 0.11671393663964993
0.13641096705030692, 0.5239730725821683, 0.11183121958885482
0.13075496021755995, 0.5239719266702606, 0.11093787627795207
0.18589231046284843, 0.5240097172413304, 0.1167701139521054
0.17205202407748632, 0.5239925450096506, 0.11319013405002393
0.17552426893155867, 0.5239963472823741, 0.11639044432712788
0.18897825714852212, 0.5240127282887932, 0.12129000740027537
0.11921234224898906, 0.5239597061780732, 0.09618266843485321
0.12526426261143656, 0.523962067123136, 0.09537280959288272
0.1226298223028594, 0.5239603572899725, 0.0922779600274732
0.12735971405082913, 0.523963152985229, 0.09644889178847976
0.15023799723852, 0.5239916865414507, 0.13322346444953306
0.1442667239107941, 0.5239866069636832, 0.13214034758851972
0.14330121407413174, 0.5239832994321455, 0.1416769405991353
0.14015251657067296, 0.5239847805006671, 0.1248574953582804
0.13127573807692056, 0.5239771486555873, 0.12356236979400044
0.15065163125404668, 0.523991583036694, 0.13507728301172522
0.17431238571023583, 0.5240024233401072, 0.12930394765674047
0.166614161234798, 0.523993337211375, 0.12681672136770386
0.1778119727000231, 0.5240046437583714, 0.12937517240344915
0.0955653943938137, 0.5239596962928773, 0.11774673383048635
0.1392144166778399, 0.5239840990415517, 0.12393011220900611
0.126037592804885, 0.5239722117336827, 0.11406955786564912
0.14196092795619503, 0.5239854188491326, 0.12414587215343377
0.12017925475009633, 0.5239641601212857, 0.10529050229041875
0.08023118538408745, 0.5239596507302486, 0.07937188586318522
0.09769155664315264, 0.5239596796065317, 0.09648575097563745
0.1189822947076128, 0.523959695349043, 0.09203268471971499
0.03723340430588744, 0.5239595765211102, 0.03319725851892218
0.01641107685909302, 0.523959541741284, 0.012341418404349576
0.11391136516076537, 0.5239596860162046, 0.08583142026687259
0.08164549949446798, 0.5239596522543358, 0.07969820951293924
0.10285604673411565, 0.5239596691456191, 0.07683315976351103
0.07264812737912821, 0.5239596281600244, 0.0588950248405872
0.04493177005787756, 0.5239595855299585, 0.03590080351959016
0.09152129743125983, 0.5239596540444603, 0.07046343658652775
0.045730883817249636, 0.5239595880204273, 0.0382043365727371
0.10759977571344582, 0.5239596879211971, 0.09569901985281383
0.0821980352205593, 0.5239596494217078, 0.07536707831580135
0.0510968327398082, 0.5239595968032481, 0.04334480984404919
0.1100022999590946, 0.5239596894783822, 0.09491134782734376
0.034440808554623156, 0.5239595744770915, 0.03380845546774331
0.09054645317566686, 0.5239596684350396, 0.09032162428835434
0.11270260631289795, 0.5239596821179692, 0.08217653849817022
0.08868301140385698, 0.5239596569985568, 0.0776288196887553
0.05932614149337394, 0.5239596072819882, 0.04733848414871814
0.057691325104776675, 0.5239596081959739, 0.050441361301061374
0.048151535866878675, 0.523959596854205, 0.0468595811456214
0.09599721562803883, 0.5239596667783716, 0.08178490033130617
0.11211821723046504, 0.5239596928939461, 0.09687630871400527
0.1288324459954555, 0.5239882158011564, 0.14719491340340438
0.13022882517375847, 0.5239911623579252, 0.1500784310622898
0.127990380222591, 0.5239829720323492, 0.14227969020986836
0.13731782252110522, 0.5239865127831367, 0.14675203609316007
0.1218695773517188, 0.5239813841226273, 0.14001881135699384
0.16503381057733807, 0.5240093427954877, 0.14268653251449728
0.15378651949899536, 0.5239945210623776, 0.14414376706515478
0.1472563159283466, 0.5239859009477492, 0.14602746593021795
0.10422693202662053, 0.523961246157212, 0.11732497218477164
0.11817574422966226, 0.523967457295968, 0.1207918777856205
0.13140054663604253, 0.5239757228283778, 0.13319952750711786
0.10424190603627306, 0.523961803854542, 0.1194432227251189
0.11795575037374134, 0.5239689868188282, 0.12698252064715598
0.14631105104124276, 0.5239890239505199, 0.14875716053539734
0.15089354139074507, 0.5239986182765823, 0.1531222421899506
0.16370058521322087, 0.5240240897968472, 0.16460538300191832
0.12205783295608967, 0.5239871487582898, 0.15022971372122054
0.12276486210073465, 0.5239867243791877, 0.15982148855126038
0.09960578388885155, 0.5239684929685745, 0.13123420131574903
0.12038836932105532, 0.5239849541870685, 0.1559934432538419
0.11377259910765354, 0.523980440824112, 0.14165206733796099
0.11848863745953561, 0.5239825452319029, 0.16176722840718932
0.09138638573022564, 0.5239596912825516, 0.11501705843243817
0.035028629532476534, 0.5239595872499029, 0.0475872666392381
0.055117445227948585, 0.5239596207491997, 0.06764222966657293
0.07811687195812737, 0.5239596558063432, 0.08694181582380298
0.025391969762408508, 0.5239595600444494, 0.02559677866560155
0.0687362751824977, 0.5239596492815102, 0.08770554844648928
0.054087603322303154, 0.5239596245995559, 0.07279893955512953
0.10002136217710572, 0.5239596914488712, 0.10782683760953508
0.061140762315720104, 0.5239596243109872, 0.06645441056089996
0.0929686673484725, 0.5239596857261851, 0.10749341064462872
0.0556440392740871, 0.5239596140729758, 0.059776239763400324
0.06255920891090207, 0.523959634371989, 0.07641913314534651
0.08137884921246318, 0.5239596556667865, 0.0840007951559433
0.056562367203068946, 0.5239596185112879, 0.0639221799926617
0.08943066918084916, 0.5239596700097211, 0.09305662885034603
0.04368008414195986, 0.5239595966740764, 0.05066699276855778
0.07468304679297692, 0.5239596574869883, 0.09174151581916132
0.05492787594809851, 0.5239596200799383, 0.06706069321887392
0.09096361628629224, 0.523959679444747, 0.10222819755902972
0.07482163370944114, 0.5239596454042836, 0.07820116530535406
0.0702057953673313, 0.5239596491390449, 0.08629220152815117
0.0631936502742406, 0.5239596329939402, 0.07434647269561058
0.07905312164793264, 0.5239596646650428, 0.09598280526296596
0.027160424697202243, 0.523959564466064, 0.028998092494472764
0.08725192549339056, 0.5239596662899468, 0.09078536937371355
0.1147612670075919, 0.5239798708299495, 0.1396390807656913
0.09588314291508546, 0.523962248158808, 0.12303378476887625
0.09900687293961545, 0.5239678387255252, 0.12966237745094558
0.1251699258061851, 0.5239900642518052, 0.14948669985608637
0.13336224274771796, 0.5239998463960025, 0.1669154400905434
0.14429536342127638, 0.5240155492903623, 0.17456281880756408
0.1274581458971412, 0.5239921070675014, 0.16664293709157083
0.1344778557026804, 0.5240018020592665, 0.1695362321087059
0.09806560693659211, 0.5239833993322988, 0.15915029676584125
0.0999703526430609, 0.5239759202658716, 0.1526290825395751
0.09873244031744649, 0.5239775295224136, 0.15378692149511405
0.11348695803013595, 0.5239881433191117, 0.1682132574119839
0.10573221897659321, 0.5239815312299357, 0.15965175146324595
0.11115970034849308, 0.5239767897887148, 0.15314129677427138
0.09987346080452807, 0.5239706306498293, 0.14563898015399998
0.10852797300219219, 0.5239747657265372, 0.14953688021735684
0.11245334813893039, 0.5239788438450765, 0.15825508929960103
0.10596770539337108, 0.5239730510971456, 0.14683332114621214
0.12640702288420183, 0.5240098258496005, 0.1807347018179022
0.1351176215531639, 0.5240230188302136, 0.18762832702151455
0.11823201098665484, 0.5239940438514853, 0.1724747847819365
0.0990896489157801, 0.5239893775836282, 0.17728045849147034
0.08097372377189589, 0.5239717920404261, 0.1566589572096989
0.07409594732965565, 0.523964994877837, 0.14525222415384345
0.07462336192213627, 0.523965448572288, 0.14412580024743113
0.08341928718505502, 0.5239741452594222, 0.158828083335129
0.08939966977984304, 0.523979997829264, 0.16703635782604453
0.07711164382042923, 0.523961531516203, 0.13505184212681876
0.08514853384684912, 0.5239712357679718, 0.14594510949974598
0.08365032495318317, 0.523964841144918, 0.13764889086557136
0.07834203319663063, 0.5239611165770197, 0.1341226464723701
0.03781894308372007, 0.5239596109090733, 0.06938363224394586
0.03061134506111632, 0.523959585941181, 0.04906532854073373
0.04190142660931361, 0.5239596122277507, 0.06818826356149224
0.05002607075381899, 0.523959625817802, 0.07667282750392486
0.058054466703181436, 0.5239596594464337, 0.10506814539827436
0.07351400875545307, 0.5239596753397572, 0.11133967167178715
0.04645549154446937, 0.5239596213130145, 0.07439809241598835
0.05240334940089268, 0.5239596377925845, 0.08707917601421605
0.0388886448574406, 0.5239596010358076, 0.05894689390123743
0.04336060969554928, 0.5239596069932583, 0.06210837935653367
0.05771657448162916, 0.523959646742501, 0.09268970460150572
0.03792617146857832, 0.5239595996234332, 0.05813749156374068
0.03786222116917123, 0.5239595994141549, 0.05796935304576179
0.030911083141514268, 0.5239595834688026, 0.046432318684251905
0.05110295506152202, 0.5239596255338492, 0.07573160534189298
0.04595422948913921, 0.5239596252137222, 0.07856961042016111
0.0855750068542085, 0.5239596922924946, 0.12074336928196563
0.04414326598000332, 0.5239596073702314, 0.062002225081704485
0.06511849213712526, 0.5239596787988935, 0.11991134717375079
0.058260298923495234, 0.5239596516747465, 0.09724277449457602
0.07849150273981756, 0.523959681026603, 0.11392328579690786
0.04875301575875872, 0.5239596409562479, 0.0924502770880186
0.05979211537726405, 0.5239596661971021, 0.11069104740773189
0.08424170333301657, 0.5239596908987002, 0.1201796188580877
0.04679355499907263, 0.523959613039929, 0.06599496597728753
0.10792806463452652, 0.5240002881942174, 0.17944071551855328
0.11180822421709653, 0.5240079725117176, 0.18658840922574055
0.11231465126256825, 0.5240108035710876, 0.19216952190495454
0.08255921539325897, 0.5239842574037396, 0.17845052417955953
0.06886630196904647, 0.5239781789324972, 0.16580130613597194
0.07302538663889988, 0.5239830664627846, 0.17270412493316473
0.06945558924782055, 0.5239721421313169, 0.16000691908079498
0.07103382079204246, 0.5239766596537747, 0.1653062405180762
0.07903550276982313, 0.5239909174413129, 0.18347236245046677
0.08205056348439392, 0.5239758701225598, 0.1690418926608275
0.0692498919343659, 0.5239605715771644, 0.13703254908953255
0.08115508761361798, 0.5239738080091305, 0.16408828124585503
0.08006989223857505, 0.5239732557770785, 0.163412623616619
0.07757110162845485, 0.5239722941676324, 0.16270509315605497
0.058308817078252764, 0.5239744780963009, 0.1678825119847576
0.06805341577759941, 0.5239845466203006, 0.17428327107499156
0.05430813160743006, 0.5239695793536903, 0.16098480330020015
0.06348270123913592, 0.5239834562482699, 0.19155276418282355
0.06012572568695195, 0.5239759758580457, 0.16695771656530717
0.05275246165213965, 0.5239672060829721, 0.1556885333933154
0.09188346594603512, 0.5239909526344717, 0.18751856411917583
0.09953016748254272, 0.5240161557147609, 0.2021043424620164
0.08739462491528997, 0.5239998019693077, 0.19154781556666928
0.0474048511766591, 0.5239596811330814, 0.1299911562421572
0.0413444024407912, 0.5239596714008457, 0.12360341693965239
0.04496952445451396, 0.5239596587481062, 0.11053360615079233
0.0012817178672585663, 0.5239595215726687, 0.003211940375013724
0.026633494370566304, 0.5239596136528109, 0.07689858589165581
0.0522916902633973, 0.523959658213517, 0.1070118992845538
0.06341423742221022, 0.5239596925407437, 0.13378973372749778
0.05072532037102171, 0.523959654087478, 0.10388832623851062
0.0358997083346806, 0.5239596223089588, 0.08097460117300898
0.02172051315657307, 0.5239595757199679, 0.04425209784684833
0.050951420501814844, 0.5239596840363676, 0.13117655708868897
0.058128494480402255, 0.5239596961005293, 0.13923382510617138
0.049726524251729624, 0.5239596789167322, 0.12700310862144829
0.05071165918335625, 0.5239596674976786, 0.11615475879759532
0.03687159222176521, 0.5239596201068049, 0.0785586328927188
0.03157726168816359, 0.5239596020238262, 0.06421858039699703
0.018170893021142435, 0.5239595804518948, 0.050048737825379414
0.05035717509038812, 0.5239596579692559, 0.10758987650480198
0.031849063134131425, 0.523959607566898, 0.06917395580986282
0.0607382151854478, 0.5239596916317574, 0.13406710335314345
0.04656503769149663, 0.5239596817107983, 0.13086721732575082
0.03409337030040388, 0.5239596347362391, 0.09308491301170643
0.0382718191738605, 0.5239596559479418, 0.11074773068586147
0.038851113827769485, 0.5239596298097351, 0.0866099529762757
0.05192345896731521, 0.5239656054951509, 0.15124129190916855
0.06075970606426804, 0.5239721525340278, 0.15874641132239675
0.05910399822384538, 0.5239631983849915, 0.14712644957894502
0.06387416302210151, 0.5239751602473579, 0.16231707711048363
0.03434599688565951, 0.5239596962928772, 0.14866076275220685
0.07279938078514388, 0.523993222009969, 0.1935820038952068
0.06508492662987145, 0.5239859578090563, 0.19671166300315482
0.08367392497077827, 0.5240146700704896, 0.20833222655214528
0.045960328443744966, 0.523978517720354, 0.17757264077968116
0.05609263848762475, 0.523988517478355, 0.19555896933130573
0.049498266081888405, 0.5239728606432237, 0.1737689780734201
0.05221230025780681, 0.5239816801604524, 0.18535557456910576
0.043910887131838855, 0.5239844380795353, 0.18268959544082358
0.04699051309685775, 0.5239919969718736, 0.19313797535324617
0.058483759765897286, 0.5239950295865398, 0.20090227569529928
0.0589116150440186, 0.5240049456977262, 0.20651712091935717
0.053842895554245, 0.523994370458482, 0.1990609319553081
0.046391124273698, 0.5239666797162285, 0.1615731270458513
0.05870514200676458, 0.5239780932491656, 0.18304662633724642
0.04422731299135233, 0.5239627033414627, 0.15293291034068388
0.050049848932249, 0.5239650616533225, 0.15558292794397605
0.04293435410569443, 0.5239907830888597, 0.19641335926238018
0.046100104850853356, 0.5239949839649796, 0.19857990183366567
0.038261445661485066, 0.5239779760274782, 0.18063843861856638
0.03881906954141791, 0.5239834410794895, 0.1900157006271887
0.036779458447089755, 0.523973028737625, 0.17394950271480825
0.03897813910891684, 0.5239742275714778, 0.1721820311443025
0.04114737629049922, 0.5239596860827858, 0.13658642289739564
0.028674540087562927, 0.5239596537932838, 0.11153121346779418
0.024618337952504017, 0.523959666786614, 0.12379224393953962
0.022518608283831808, 0.5239596721099387, 0.12892068265769735
0.020160274483677215, 0.5239596125649049, 0.07776048984696712
0.022985682792738306, 0.523959661197887, 0.11932932009180505
0.019136539861824273, 0.523959650231576, 0.11072705705222902
0.023662615925647845, 0.5239596771934024, 0.1330620017238028
0.031528317237766106, 0.523959660010118, 0.11624660385366968
0.037514013240264696, 0.5239596949114933, 0.14512815808682178
0.009972736050489884, 0.5239595822497108, 0.05387169631419628
0.013883157207268218, 0.523959583911378, 0.05437636470805175
0.03688394903553792, 0.5239596926741241, 0.14333583555353563
0.001604313054449305, 0.5239595277721376, 0.00855647078986067
0.023898555442069685, 0.5239596384378762, 0.09933868653528061
0.018172809168916497, 0.5239596509790436, 0.11160774898484253
0.020727800394883696, 0.5239596004514806, 0.06710138658428336
0.03153793728156837, 0.5239596525441169, 0.10975862827809872
0.01820722939623853, 0.5239596129868179, 0.07859588852371915
0.011146249809356572, 0.5239595819272925, 0.053309877330691924
0.016153385072097477, 0.5239595983133324, 0.06634221336512017
0.027005821730649058, 0.5239596498240345, 0.10848377733879211
0.02011999282129936, 0.5239596455688017, 0.10644042906626044
0.02689608012814193, 0.5239596295806291, 0.0909248107521474
0.005851641010174359, 0.5239596962928772, 0.1517879364799325
0.02714019535584711, 0.5240138720673428, 0.22417502907372056
0.026648007436197822, 0.5240033180878159, 0.2173524934634104
0.03345001153963406, 0.5240149340847287, 0.22412098471855235
0.04533750141916789, 0.5240015134212159, 0.20823302911944208
0.04496837174974428, 0.5239945530674398, 0.19962010405862154
0.0470438635904048, 0.5240016513861854, 0.20601191707780298
0.038695957499434025, 0.5239963252909369, 0.2107754095385086
0.031176084020645745, 0.5239703463105226, 0.1729537575292076
0.03456579337282183, 0.523966483084398, 0.1646682636288717
0.0301138594974813, 0.5239699621911451, 0.17209097620178737
0.024911498373492193, 0.5239606061914258, 0.1516516883522537
0.015050639061642999, 0.523979122427803, 0.18089882204141589
0.02724837139205879, 0.5239847297889536, 0.19949698438649402
0.030664228069443418, 0.5239828052729479, 0.20032868025467326
0.022557282764435728, 0.5239759237760202, 0.18401721658592302
0.021640104190427854, 0.5239912221210044, 0.20230488775804578
0.021172080509755, 0.5239837964837898, 0.19256159757550143
0.024181381839126315, 0.5239717445807761, 0.17720357268576542
0.028860630419505408, 0.5239764748222818, 0.18642491304875555
0.02197780995807887, 0.5239615561834188, 0.1545385285395035
0.019204284206709908, 0.5239660606369902, 0.16589323285694033
0.010244121609015427, 0.5239779241864072, 0.18339479587863505
0.009237098412430804, 0.5239903673345738, 0.20327500171542812
0.012426239901443944, 0.5239674394760603, 0.16490545365086356
0.009559082746406952, 0.5239829509985133, 0.19178865728358463
0.014404678144976353, 0.5239845711566182, 0.18789089382621166
0.014801366330573402, 0.5239894119959669, 0.19459740690334199
0.007580177100031682, 0.5239595815660392, 0.05370463403620065
0.002163086704908296, 0.52395959397726, 0.0646470301378729
0.02031716907706133, 0.5239596903028717, 0.1448352843663387
0.0013861354737147147, 0.5239595684898024, 0.043112573369327375
0.005027172336536549, 0.5239596463350213, 0.10878452097854874
0.008427763767326207, 0.5239596923207289, 0.14748072707115734
0.017194452087282847, 0.5239596697691541, 0.12768276088061625
0.002191452917276494, 0.5239596596229746, 0.12026661929316124
0.0012002180107014522, 0.5239596658125643, 0.12558908910232552
0.016202938473521066, 0.5239596731643668, 0.13063756833448215
0.003311532624639921, 0.5239595988754442, 0.06870689340468907
0.016553960484907333, 0.5239596694523974, 0.1274647790988819
0.014172405865077092, 0.5239596671446405, 0.1256968397629396
0.011988448338156623, 0.5239596493799279, 0.11081662185000556
0.007199292502644048, 0.5239596184079895, 0.08495091104715995
0.004728637158587369, 0.5239596580213355, 0.11870986690053122
0.009603429785164144, 0.5239596530512626, 0.11411505820205778
0.002616976554917672, 0.5239596274607937, 0.09298201262446669
0.0007890133236729944, 0.5239596772348912, 0.1352996250215063
0.006536249738612347, 0.5239596852917154, 0.14167388551891652
0.012211876989007636, 0.5239596187831875, 0.08487432296448814
0.005794700400699618, 0.5239596491086955, 0.11107425880590228
0.003776111740265277, 0.523959632111194, 0.09683108663738874
0.011549892043981665, 0.5239596260256032, 0.09106294338136697
-0.006315165231769053, 0.5239596962928772, 0.15227036260674126
-0.005558077974813351, 0.5240134243660998, 0.2254770280505196
-0.0019234344433463422, 0.5240024185222012, 0.21848887250027488
-0.006907609954862784, 0.5240186851375924, 0.22883261301963964
0.015601603638350142, 0.5239983820283298, 0.20588976636599188
0.013856125672927206, 0.5240105407418303, 0.2208802843772252
0.015379249641366312, 0.5240095702173111, 0.21827004741129652
0.014641783720513255, 0.5240004932800593, 0.20916364789202838
0.005419528769010939, 0.5239734816367425, 0.18293247526718057
0.005919518972510018, 0.5239639207835084, 0.16193567948804613
0.0020873645789903556, 0.5239738843625008, 0.1831975668521658
0.00022535912719740374, 0.5239658890412504, 0.16521237130832012
-0.007915849259764251, 0.5239691214169814, 0.17329378229919115
-0.011884767118868097, 0.5239731796003471, 0.17417665501577917
-0.0138422538252801, 0.5239790766091658, 0.1804249764051335
-0.003485369281544701, 0.5239821506692467, 0.19851045791873606
-0.00675895586578785, 0.5239709980841976, 0.1776019613993913
-0.01043995435261797, 0.5239677581944786, 0.16796985260728942
-0.0032748802114717338, 0.5239760857694097, 0.1882757773469886
-0.00460757975587121, 0.5239615534287907, 0.15646812288653755
-7.064930947494011e-05, 0.5239812526467801, 0.19907405681716778
-0.0003730082865191681, 0.5239743534539755, 0.18391166191843475
-0.0149977164014277, 0.5239637137737516, 0.16155233162786226
-0.014651274755726218, 0.5239651650492061, 0.16304097860860214
-0.02068170031938229, 0.523981904054651, 0.18972630448991207
-0.013678590961879471, 0.5239744277774092, 0.17371758013326266
-0.025365413098974367, 0.5239887922717823, 0.20279741639952853
-0.02023050603473096, 0.5239753884988949, 0.18113867801479105
-0.003856262373926238, 0.5239595962105164, 0.06640602041482459
-0.0005250778852626878, 0.5239596343976137, 0.09902423572301305
-0.021404503682176806, 0.5239596932163224, 0.14721828844948776
-0.004028685717100506, 0.5239596142415572, 0.08167020877418671
-0.000344275194502643, 0.5239595601222905, 0.03610474815906008
-0.014720274702990527, 0.5239596716672043, 0.1294857058363305
-0.006821012488649846, 0.523959674802957, 0.13276431672440117
-0.00018719398029212655, 0.5239596291398995, 0.09459594952013285
-0.0017906976350741258, 0.5239596487065865, 0.11104866858239945
-0.0014451235513342974, 0.5239596587379126, 0.11957543998143126
-0.010384116753205231, 0.5239596962557884, 0.15066094996382828
-0.004949814517484222, 0.5239596668564611, 0.12617849016604463
-0.0011115677298345378, 0.5239596097332742, 0.07807990542076121
-0.016267042753188285, 0.523959686688401, 0.1420914817539319
-0.007887485288584371, 0.5239596004882996, 0.06971333959825052
-0.018278828022036293, 0.5239596755484409, 0.13249422925297935
-0.005589900245819426, 0.523959685337575, 0.1417872213369448
-0.0031189481484340236, 0.5239595656910727, 0.040604826227766164
-5.342745077376087e-05, 0.5239595640868512, 0.03948682299644912
