1.1905084636830807, 0.0, -0.5181981197256398
0.24431858871639184, 0.0, -0.4798373886867532
0.5074915236612341, 0.0, -0.4875713045806249
-0.9577309865623665, 0.0, -0.4819928190341827
0.5541496395799377, 0.0, -0.5011536269119683
-0.4621805117126923, 0.0, -0.5181659311409604
0.995072741004031, 0.0, -0.5123346306969129
0.43237670327192557, 0.0, -0.5266961030259322
0.6418711503286549, 0.0, -0.5196228083562746
0.4584305153603881, 0.0, -0.5333809168555476
-0.17628675437187452, 0.0, -0.5295178496241242
0.703658682244723, 0.0, -0.5116257794565721
0.598637277308512, 0.0, -0.5565085007455793
1.1528408761631352, 0.0, -0.5389995601218741
0.5263711638077286, 0.0, -0.5131809384151955
-0.7517849980217828, 0.0, -0.4861873444269801
0.5457800429731804, 0.0, -0.49953677490172527
0.6412849982057242, 0.0, -0.5073355208194668
0.930777098823771, 0.0, -0.5873555459492237
0.21354379717521116, 0.0, -0.5242242601604029
-0.22194466914414512, 0.0, -0.5199304989154357
0.8119944505977645, 0.0, -0.504628923463583
-0.9486476010140491, 0.0, -0.4902659047527277
0.024446000863712736, 0.0, -0.4947476252999992
-0.5187362701981235, 0.0, -0.49493719820249976
0.9328002143020481, 0.0, -0.4917934654620131
-0.5913326522353642, 0.0, -0.4842272404878437
1.0621642821091593, 0.0, -0.545236060869015
0.85703734459876, 0.0, -0.5853745031529173
0.6679827723783112, 0.0, -0.5133227213905585
-0.5542930732870065, 0.0, -0.4979347221510292
0.868509522438324, 0.0, -0.5362224376001778
-0.20576778544342905, 0.0, -0.5015226291237154
-0.14899233619071434, 0.0, -0.4830835524460445
-1.1944246948939687, 0.002374821101071445, -0.5876943150320658
-1.1832423172077842, 0.004922129679471254, -0.4722610382912656
-1.0987575509896679, 0.004922129679471254, -0.43651596822839733
-1.0633687100595421, 0.004922129679471254, -0.47179020921380344
-1.0701762600974827, 0.004922129679471254, -0.439993808692007
-1.065340115654994, 0.004922129679471255, -0.3825690618838091
-1.0769743969328887, 0.004922129679471254, -0.44613443387019036
-1.090475857640371, 0.004922129679471254, -0.4246811495212516
-1.1407339842249382, 0.004922129679471254, -0.4401967061832057
0.8890408124951082, 0.004922129679471254, -0.6047789134374462
0.9756814844540317, 0.004922129679471254, -0.520069689057443
0.930181241719948, 0.004922129679471254, -0.48523304716243587
0.941399638039019, 0.004922129679471254, -0.5112251336010519
0.96551248282631, 0.0049221296794712535, -0.5149052360379349
0.8947709729606934, 0.004922129679471254, -0.5256412784850529
0.9069291404101363, 0.004922129679471254, -0.5239988856545754
1.168400531839902, 0.004922129679471254, -0.3947494337873116
1.1533686080723695, 0.004922129679471254, -0.43518195698039286
1.1170160405075493, 0.004922129679471254, -0.44456688234882
1.1706459148677189, 0.004922129679471254, -0.43727138065144844
1.093289317739348, 0.004922129679471254, -0.47256180998842073
1.1725767683326875, 0.004922129679471254, -0.44886188520124765
1.173336085330876, 0.004922129679471254, -0.3991101131121365
1.1642251439596554, 0.004922129679471254, -0.4448983906066588
1.121009807124098, 0.004922129679471255, -0.5319077796476479
1.1088990576846083, 0.004922129679471254, -0.4983900403715551
1.073294198157098, 0.004922129679471254, -0.48665156197347464
1.0535096742897232, 0.004922129679471254, -0.5020221736592085
1.095966150329049, 0.004922129679471254, -0.4956692436948482
1.045862693082996, 0.004922129679471254, -0.5383532771899608
1.0864491820672977, 0.004922129679471254, -0.48964190900958326
1.1877169314699247, 0.004814034440497388, -0.5986669373742743
-0.9849242819367197, 0.0, -0.6050381378698293
0.05294124090154656, 0.0, -0.5944433975634779
-0.7074776999848694, 0.0, -0.5428203115067164
-0.7693353562345506, 0.0, -0.5300238027119009
0.8383716020291878, 0.0, -0.6091742255465363
-1.051040924154616, 0.0, -0.6007481084210098
-0.26337467557110666, 0.0, -0.5713222183106796
-0.18324121190999432, 0.0, -0.5989830284122692
-1.0816578525023612, 0.0, -0.5977546117404414
-0.8892894721346232, 0.0, -0.6064595744814838
-0.3313043645408186, 0.0, -0.6098140319776055
-0.4731393488418215, 0.0, -0.5516247565176522
1.0402064335568237, 0.0, -0.6079894390294335
-1.157421344596364, 0.0, -0.5960686379792896
-1.1342934880481965, 0.0, -0.5561894529248345
-0.9720596549601296, 0.0, -0.5679831162116613
0.029247731641665053, 0.0, -0.6008774951061628
-0.7440627814908043, 0.0, -0.5358241989308452
-0.11083218921048577, 0.0, -0.5802237065206609
0.040382589307812466, 0.0, -0.6053202746635375
-1.0917161656930787, 0.0, -0.5745388838053983
0.3031046395301506, 0.0, -0.6033977358126346
-0.6798693113285669, 0.0, -0.5451323342421841
-0.7508947484716155, 0.0, -0.5509708486997178
0.7614469773486323, 0.0, -0.5962021798821401
0.3347554917943119, 0.0, -0.5725701539849424
-0.861777956266079, 0.0, -0.5593534080202849
-0.2273732824052732, 0.0, -0.6020909766311517
-0.5915446064606694, 0.0, -0.5969753325370905
-0.7331259935092489, 0.0, -0.5446437612700153
0.001369649416363583, 0.0, -0.6016913538949602
-0.9040742615848409, 0.0, -0.604426171828565
-0.9676029364764046, 0.0, -0.5985720815421834
-0.38531827119455214, 0.0, -0.5522583031371868
-1.0667177794646032, 0.0, -0.5841886913368983
-0.31962518256408673, 0.0, -0.573044827383904
0.31969224330622104, 0.0, -0.6024189176389986
0.5912127240701865, 0.0, -0.5930199986770611
-1.1571462154201027, 0.0, -0.5236134934184233
-0.6679001305718039, 0.0, -0.5629313315864343
-0.06325649426438307, 0.0, -0.5829580900316281
-0.0009570841234084193, 0.0, -0.5660539133285821
-1.1342220485451364, 0.0, -0.6057520129863532
-0.36117885450477133, 0.0, -0.6112577628999895
0.05609385097147035, 0.0, -0.5819510337741829
-0.5597141572818929, 0.0, -0.585982932006706
-0.17005694021241113, 0.0, -0.5880665204371673
-0.22476323302285312, 0.0, -0.5826343301471761
-1.0581258459740803, 0.0, -0.525352832624769
-0.30551173344157484, 0.0, -0.5311966413808829
-0.745255649829852, 0.0, -0.529554357504516
-1.1501505425377445, 0.0, -0.5123579345558334
-0.5695397933861606, 0.0, -0.5532243924693716
-1.0772181440426492, 0.0, -0.4931802614542236
-0.6239588148931323, 0.0, -0.5477531208929045
-0.9318986861727354, 0.0, -0.5978903184708442
0.39122157364260307, 0.0, -0.6127405838649045
-0.42667146572946535, 0.0, -0.5615153147425801
-1.0234608772451692, 0.0, -0.5771069280914148
0.6096371136410668, 0.0, -0.5978935374028884
-0.08103004263418134, 0.0, -0.5583128516499437
-0.7760454250548021, 0.0, -0.5294306748658881
-0.4913250852272784, 0.0, -0.5244458479565937
-1.1362491106017347, 0.0, -0.4904592912803376
-0.7401867300612692, 0.0, -0.6023028619363319
-1.0929002740070706, 0.0, -0.5482226385285087
-1.1458862296166796, 0.0, -0.4841327884301875
-0.45838778160155724, 0.0, -0.5824692433902228
0.6554977225365385, 0.0, -0.5886872223409931
-0.8868350622068439, 0.0, -0.5057196670213392
0.47070768365898225, 0.0, -0.6053161228790278
0.13072146821464217, 0.0, -0.5526231269052159
-0.17283643325329034, 0.0, -0.5608710999333368
0.5602385619869863, 0.0, -0.592031823499698
-1.1261972096029291, 0.0, -0.578577995547106
-0.1665957235328691, 0.0, -0.5459913368906032
-0.9084722338584724, 0.0, -0.5873911095103791
-0.9817721145649647, 0.0, -0.5461877650549826
-1.0454557775532827, 0.0, -0.5466513499991649
0.0340641858902746, 0.0, -0.6081063822581586
-0.3079939724279388, 0.0, -0.532199663331225
-0.5064910102305218, 0.0, -0.5608716733263918
0.07745212836225912, 0.0, -0.584245632619947
-0.4754460409045651, 0.0, -0.5276920225889982
-0.8801746152343857, 0.0, -0.5432597962168908
-0.16706745873415713, 0.0, -0.565946777620709
-0.5402879821792539, 0.0, -0.56500294464219
-0.7435193410040153, 0.0, -0.5606959650383814
-0.7611752622021344, 0.0, -0.5245460278428118
-0.01684475352863468, 0.0, -0.5931837787319363
-0.10579302822990805, 0.0, -0.5845238524614472
-0.15445102842003947, 0.0, -0.5423978224586631
0.05121860687727714, 0.0, -0.5875127490026854
0.04400492439241499, 0.0, -0.6091900320743202
-0.3734718262179936, 0.0, -0.5341943456725545
-0.3165414572664231, 0.0, -0.6125353168168243
-1.1227831027984614, 0.0, -0.5140068778787696
0.985594675540265, 0.0, -0.6021747918571221
-1.1636354706258323, 0.0, -0.5119738709392032
-1.0407405962964513, 0.0, -0.5185052301666218
-0.7187054332058221, 0.0, -0.5118410161720556
-0.05537190004662518, 0.0, -0.5789670386207166
-0.3265494591288347, 0.0, -0.5926282669488863
-0.4771540957202875, 0.0, -0.600427005357586
-0.621537879834475, 0.0, -0.533920597367849
0.6794237759862445, 0.0, -0.609698347827011
-1.0050575222616267, 0.0, -0.5051050983900469
-0.17856368308315135, 0.0, -0.5887423565704996
0.5837720492059195, 0.0, -0.5971132214194318
0.3106726670886039, 0.0, -0.5774058354152193
-0.8646961871476812, 0.0, -0.5550433390751315
-1.0197528952981267, 0.0, -0.5801788283681912
0.011880385744690011, 0.0, -0.5590259557590744
0.6620900164751673, 0.0, -0.5832555271024633
0.02528187551887029, 0.0, -0.5652967068879019
0.08171053868810396, 0.0, -0.5874231712716973
-0.4919625057372224, 0.0, -0.5304460128773544
-1.1332776011610997, 0.0, -0.5771472218488991
-0.13715839443027047, 0.0, -0.5603895633031847
-0.9082695693559772, 0.0, -0.6203503219084845
-0.4132838628573887, 0.0, -0.6236135189122325
0.5365163657479151, 0.0, -0.6646136452581763
0.69006864783089, 0.0, -0.7166916710750657
0.16538470495815527, 0.0, -0.6273896039063087
0.8900760237968085, 0.0, -0.6842472164134603
1.089941250497576, 0.0, -0.7114372511110795
0.41851176869752343, 0.0, -0.6749882799290594
0.8868166832708257, 0.0, -0.6957579483703984
1.0355373559219212, 0.0, -0.7352244632901553
-0.6404075221823093, 0.0, -0.6422131697102398
0.8901553433372746, 0.0, -0.7238839247341985
0.6703850934878469, 0.0, -0.7001685399974978
-0.19167132201960146, 0.0, -0.658315950796502
0.2210347680872102, 0.0, -0.6828732303958209
0.7858511514865836, 0.0, -0.6835085335843958
-0.351643462638332, 0.0, -0.6317846018752928
-0.3938899360074653, 0.0, -0.6170124058306735
-0.14480898111423812, 0.0, -0.6626877355833444
-0.5738257879270716, 0.0, -0.6191412549929232
0.33065768360429815, 0.0, -0.6212030889451738
-0.01704919050048781, 0.0, -0.614364441432841
0.773071671325402, 0.0, -0.6775399234210162
-0.9934721232362057, 0.0, -0.6141929981250938
0.6406327311220679, 0.0, -0.6435338206521899
0.6364746417586267, 0.0, -0.6487620357164933
0.9173347854301905, 0.0, -0.6725918738483629
-0.4407103715262718, 0.0, -0.6377356751989997
0.5716809245870664, 0.0, -0.6184550500928743
-0.9054034054878473, 0.0, -0.6220023474333464
0.6870127206177477, 0.0, -0.6832766224749922
0.362515657914469, 0.0, -0.6664467857771318
0.5014042152709837, 0.0, -0.620240312979855
0.10787723846996447, 0.0, -0.6671845874588144
1.0470089836493601, 0.0, -0.6176188052483554
0.4030177626675001, 0.0, -0.7013783056889701
1.1404992080531209, 0.0, -0.6569039681310189
0.9103338414683988, 0.0, -0.6671058891029877
-0.3336436774409984, 0.0, -0.6228518406706519
0.8248207488553274, 0.0, -0.712751002663389
-1.1268620670544895, 0.0, -0.6141671990799795
0.8174989775298799, 0.0, -0.6173447678969207
0.4119736801034475, 0.0, -0.6307579784392259
0.980546429130487, 0.0, -0.7318013800814818
0.38814244073024573, 0.0, -0.6431711845396498
0.7261732317813884, 0.0, -0.6612505841175991
0.5649211868383301, 0.0, -0.6210885438987055
0.8195648202954702, 0.0, -0.7191333359344569
1.1436444726052968, 0.0, -0.6445382513179148
-0.05009499024713149, 0.0, -0.6261446931019754
-0.22725149421271668, 0.0, -0.6382160159029076
1.177628185044186, 0.0, -0.6404017339914612
-0.13363155604360044, 0.0, -0.6345821087180634
1.0141182183884894, 0.0, -0.6781870109294869
-0.6279114168266814, 0.0, -0.6206857307830126
1.1707775449301727, 0.0, -0.6702692805111523
1.0504635249371301, 0.0, -0.6351523704053149
0.08431968922030486, 0.0, -0.645955151181492
1.1741886951766067, 0.0, -0.6259189178105723
0.6909083673109188, 0.0, -0.6323512952318278
0.10747881167752235, 0.0, -0.6716082974567273
-0.4328801434440543, 0.0, -0.633509330356732
0.5052145071904974, 0.0, -0.6193923576186086
0.9802234829890841, 0.0, -0.6867917164346928
0.2186397636016023, 0.0, -0.6820710966944052
0.28751234888364363, 0.0, -0.6720776298680374
1.1928083459569572, 0.0, -0.7407661218290388
-0.9367354235727633, 0.0, -0.6209832845041633
0.33261637034261504, 0.0, -0.6228487299956762
0.7630411072254083, 0.0, -0.6231680901695014
0.6470340696090193, 0.0, -0.6393991849712266
0.48467150712373414, 0.0, -0.6419975982016279
0.42280180796698263, 0.0, -0.6854716890652489
1.159397717436692, 0.0, -0.716840070354775
0.6835366953276734, 0.0, -0.6804923361482813
-0.3319885560121997, 0.0, -0.6427927412007585
0.2763665085571014, 0.0, -0.6664506753528057
1.0027977801267922, 0.0, -0.6448355111594796
1.1579670169003407, 0.0, -0.6145026952628265
-0.22415944739291327, 0.0, -0.6234482702355272
1.1795654584531925, 0.0, -0.7231970935412926
0.2268933626394272, 0.0, -0.678626778771847
0.41068448110445593, 0.0, -0.6843883952073159
0.19058213662116966, 0.0, -0.6853762979785853
-0.6064522144155783, 0.0, -0.642619447572548
-0.0533589485867948, 0.0, -0.6141436209308317
-0.6326402337958813, 0.0, -0.6440202537970793
-0.43957894013295895, 0.0, -0.6208251719930018
0.049462626386858624, 0.0, -0.6817920377138008
0.382598647406327, 0.0, -0.6561346384212549
0.8094435289462448, 0.0, -0.7176410720086418
0.24289994840025741, 0.0, -0.6228391355185638
0.5619746043617693, 0.0, -0.6543495507686508
0.13652780877451293, 0.0, -0.6699109522993315
-0.3349800558432445, 0.0, -0.629469867260574
0.046367714798793536, 0.0, -0.644161766240778
-0.3532573093868473, 0.0, -0.6388699070292986
0.9141149983635896, 0.0, -0.695963045293241
0.6207104414076672, 0.0, -0.6860634001658987
0.3553573254283968, 0.0, -0.6655934924454275
0.8158091117596311, 0.0, -0.7016728404872918
0.18534694245065897, 0.0, -0.6472328696855002
-0.363219740140136, 0.0, -0.6266386357372351
0.9124547415520204, 0.0, -0.6346349000217274
0.027725956657435658, 0.0, -0.6326390134321338
0.14412288838290477, 0.0, -0.6640216097734015
-0.8158439670656243, 0.0, -0.6308652356767295
-0.2450666631595134, 0.0, -0.6635108538602369
0.35986181055012384, 0.0, -0.6505841197458435
0.9370685840645063, 0.0, -0.6404645447851498
-0.41153125756363484, 0.0, -0.6224457862432333
-0.3483656092753191, 0.0, -0.6527522422512214
1.0451203761213341, 0.0, -0.6940848254916665
0.10802818952463478, 0.0, -0.6255907492238846
0.4407259301545067, 0.0, -0.623466702063727
0.5664871682492224, 0.0, -0.6489957544333949
0.7499216498990404, 0.0, -0.6254384635233752
1.0709998618323762, 0.0, -0.6826062848589338
-1.1891228018039295, 0.0044438500330756855, -0.6426840159793985
-1.0700684892161556, 0.004922129679471254, -0.5874871391565317
-1.104242815475937, 0.004922129679471254, -0.5648267489125263
-1.0415299929956037, 0.004922129679471254, -0.5330677506484468
-1.0429523445428668, 0.0049221296794712535, -0.5055485339157945
-1.1319288744922598, 0.004922129679471254, -0.5893781839757766
-1.0500952762031548, 0.004922129679471254, -0.6095281958165689
-1.1073713512379009, 0.004922129679471254, -0.5821820097805077
0.9274216587620127, 0.004922129679471254, -0.6940187370162523
0.905647639080329, 0.004922129679471254, -0.6649944815342557
0.8875824190426923, 0.004922129679471254, -0.7478518196333928
0.9988738519482818, 0.004922129679471254, -0.6309493169767418
0.9375396619887628, 0.004922129679471254, -0.6725088521573425
0.9012607944570364, 0.004922129679471254, -0.6131578957945716
0.9001357254803866, 0.004922129679471254, -0.6827510447074682
0.9241269843372362, 0.004922129679471254, -0.6754226029037361
1.0957026437332165, 0.004922129679471254, -0.5972506345219941
1.1473901524301275, 0.004922129679471254, -0.5376354039254869
1.0938132412431179, 0.004922129679471254, -0.5591334037289332
1.0892708800315871, 0.004922129679471254, -0.6109607371030521
1.1401170162777403, 0.004922129679471254, -0.5593868626574328
1.1420996792063536, 0.004922129679471254, -0.6058464865136679
1.1040175843443703, 0.004922129679471254, -0.5699638707304461
1.0731639500977785, 0.004922129679471254, -0.6618147131196683
1.0390366267696178, 0.004922129679471254, -0.6856310025732439
1.0772528203731233, 0.004922129679471254, -0.652638157004251
1.0366727063742671, 0.004922129679471254, -0.6190797140113011
1.0457258462045789, 0.004922129679471254, -0.6519510788496059
1.0899462175552903, 0.004922129679471254, -0.621496605064839
1.0762579304502762, 0.004922129679471254, -0.6646952663377828
1.0881727637875243, 0.004922129679471254, -0.6529698561637752
1.1919035952244401, 0.002593959914520383, -0.7997478531687319
-0.997400701546456, 0.0, -0.6281936458259202
-0.4941364359351499, 0.0, -0.6725661368573245
0.6916147662042995, 0.0, -0.7311890148916388
-1.0235895031554954, 0.0, -0.6930617810222095
0.8504306447045206, 0.0, -0.7378082108775151
-0.6778305720101792, 0.0, -0.7446970760875186
-0.5191860238878807, 0.0, -0.6972511329880036
-0.5119253267036116, 0.0, -0.6996514266447917
-0.6860332528065956, 0.0, -0.7475843991872777
-0.8068818962864204, 0.0, -0.657632955824622
0.4369420007238398, 0.0, -0.7361595264076566
-0.44895736287571625, 0.0, -0.6918572282123099
-0.3964994539517496, 0.0, -0.7489231197074921
0.44234061329879465, 0.0, -0.7356719529761026
0.6537885170086963, 0.0, -0.7458091998941198
-0.9557601618283678, 0.0, -0.74305676485468
-1.0352060994912082, 0.0, -0.696214648224295
-0.932520432974119, 0.0, -0.6401708041723421
-1.0310781893566148, 0.0, -0.6626265206388245
-0.3204805340521746, 0.0, -0.7346236734927194
-1.0129601375645185, 0.0, -0.636117613700707
-0.10271275478667635, 0.0, -0.7068014843472874
-0.5880946919640129, 0.0, -0.6782719840604927
-0.7122745952676108, 0.0, -0.6524776408967804
-1.0296625256021417, 0.0, -0.6715923044589138
0.22270162296726836, 0.0, -0.7283427268918496
-0.17439833478470318, 0.0, -0.6780806438334597
-0.03950037439097251, 0.0, -0.6936428488907525
-0.6320079691623923, 0.0, -0.6990864763259679
-0.5925768816435684, 0.0, -0.6702927790317108
-0.608253920334767, 0.0, -0.7030053156910971
0.12541033399820317, 0.0, -0.7214961225669917
-0.07823402567477253, 0.0, -0.6786191140889486
-0.6248051170588482, 0.0, -0.6643344750125861
-0.870807707236927, 0.0, -0.703079821500546
-0.22627754291900493, 0.0, -0.6819418641604501
-0.10253910801724847, 0.0, -0.7354307857377127
0.0018395166307749733, 0.0, -0.7307733054021601
-0.26993445448853104, 0.0, -0.691435079959173
-1.044348540625176, 0.0, -0.646317195200671
-0.6257763522132685, 0.0, -0.6877226382643007
-0.06989414339253408, 0.0, -0.7399960320911088
-0.9383200603479074, 0.0, -0.7004645473869675
0.15016240820351273, 0.0, -0.7458860290237886
-0.21761174051524657, 0.0, -0.732419193591118
-1.1464228944674903, 0.0, -0.6587038892212514
-0.11083002108680245, 0.0, -0.6932916675702354
-0.11839532405300895, 0.0, -0.7232946322433144
-0.8328689574156243, 0.0, -0.6645716395955947
-0.10191585039482162, 0.0, -0.7035494656819568
-0.2472676759178359, 0.0, -0.7207199180820905
-0.734817661043648, 0.0, -0.7342959916440907
-0.2967553100962995, 0.0, -0.7463901558612707
-0.27662118876082814, 0.0, -0.7413061058111559
0.004283954829286285, 0.0, -0.7241472692023048
-0.64200773793215, 0.0, -0.689791284525746
-0.5237990874071015, 0.0, -0.6812603708259937
-0.7533585034270043, 0.0, -0.6864341480385197
0.02635837995705813, 0.0, -0.6872362340222204
-0.6552828527624388, 0.0, -0.727846758681434
0.5174735409562492, 0.0, -0.7250013476936065
0.4165998511940372, 0.0, -0.7294287947940777
-0.4574720583740768, 0.0, -0.6742263939111508
0.06940063223804051, 0.0, -0.6935071676646355
-0.8148136826959934, 0.0, -0.7028829803624133
0.7149825301261692, 0.0, -0.7481087035679302
-0.45187263320653104, 0.0, -0.6602674756400664
-1.0376995587764664, 0.0, -0.6413586732945301
-1.1306471618424925, 0.0, -0.6507169014067249
0.06438428447019001, 0.0, -0.7125866371995002
-0.4014240424752486, 0.0, -0.7362386766710449
0.5766981201423813, 0.0, -0.725848707567833
-0.11061407414052132, 0.0, -0.7282159903599286
0.5118191655974402, 0.0, -0.7111012036796386
-0.8905930812512575, 0.0, -0.7473642164053612
-0.4637076967785728, 0.0, -0.7231732975097545
-0.14319658879734326, 0.0, -0.699181181442946
0.9728494062658002, 0.0, -0.7415613270644933
-0.39830816040112677, 0.0, -0.7491701597189147
-0.6086822205984772, 0.0, -0.7249916192149007
-0.9541751253500501, 0.0, -0.7210534011437945
0.5148301468473178, 0.0, -0.7411396524591158
0.16422692465060063, 0.0, -0.735774241171492
0.40631068777536977, 0.0, -0.7445762750071316
0.7525552721935161, 0.0, -0.7484270744264144
-1.0024737861199493, 0.0, -0.6375343164069024
-0.9851693139960808, 0.0, -0.6718666449278209
-0.37372443834463, 0.0, -0.7436356722844711
-0.47577944232332475, 0.0, -0.6830401378786183
-0.8804547375260967, 0.0, -0.637178580770991
0.11779979998259571, 0.0, -0.7399989630260931
-1.0665055938903607, 0.0, -0.6823550116694403
-0.7771329132697412, 0.0, -0.7069501405676382
-0.12201167154614828, 0.0, -0.6981962763861547
-0.08492744833716281, 0.0, -0.7441272662320161
-0.6785238565706948, 0.0, -0.6937415760633625
-0.5756624772649368, 0.0, -0.7360833097603605
0.8424423167963973, 0.0, -0.745364234048868
-1.0558189358679333, 0.0, -0.6723241573087675
-0.9002954767353972, 0.0, -0.7291424936970816
-0.8118544518901569, 0.0, -0.7060469021301747
0.3877954818782217, 0.0, -0.7171135757489957
-0.9432769000191147, 0.0, -0.6439303853478315
-0.5872833625413509, 0.0, -0.7279698087567917
-0.48493911862141015, 0.0, -0.7159143055831323
-0.847164517587015, 0.0, -0.6424433830470807
-0.8288331361987862, 0.0, -0.7329078526320323
0.06331015537840806, 0.0, -0.7400029588938287
-0.8985195971885486, 0.0, -0.717801617395996
0.0206660757272617, 0.0, -0.7184731826585486
-0.5515355137869217, 0.0, -0.661300410376608
-0.9301502658230258, 0.0, -0.679234923218792
-1.0599383434734886, 0.0, -0.6870903847483316
-1.0468785787651784, 0.0, -0.6338881071419383
-0.4170702858339925, 0.0, -0.6672830253582717
-0.6888351369487296, 0.0, -0.695667292263999
-0.2855578861053383, 0.0, -0.7348910628670102
-0.4050658528276635, 0.0, -0.6813669869915917
0.5634214067383615, 0.0, -0.8272294412903611
1.1630991276431295, 0.0, -0.864395585763632
0.5382450589214983, 0.0, -0.7849620787180465
0.5900251255577762, 0.0, -0.8425331634582228
0.5680487862777498, 0.0, -0.7610606197637071
0.9966293253135369, 0.0, -0.7773217817703811
0.630955246366227, 0.0, -0.7724541295356757
-0.712647018543351, 0.0, -0.7613396979253125
-0.47695267490001925, 0.0, -0.7739788571211798
0.5376177438161667, 0.0, -0.8224217211597415
0.26748321554321625, 0.0, -0.7697810868881404
1.0048152715665701, 0.0, -0.8302482370933941
-0.2731896454912881, 0.0, -0.7586072871827726
0.7837192702944088, 0.0, -0.7769548171435812
-0.0253045789207251, 0.0, -0.7886895361564017
0.19307164481346428, 0.0, -0.7790582606039869
0.9793846227864361, 0.0, -0.8689628903086383
0.7066705987449187, 0.0, -0.8315494542426959
1.183401322480261, 0.0, -0.8728617818891946
0.29845944327461116, 0.0, -0.8035697411991949
0.14132045666011608, 0.0, -0.8175847777760115
0.7164108656874966, 0.0, -0.7676844801856164
-0.542687994394589, 0.0, -0.7743301188350967
0.8007713844779208, 0.0, -0.7533107851322955
0.34082666268727363, 0.0, -0.8275902554686814
0.3842411334728062, 0.0, -0.8141787242665952
0.8642711598134448, 0.0, -0.8360250449636197
1.1743603090522798, 0.0, -0.8351269268226637
1.0122115795589437, 0.0, -0.8740514533576925
-0.15168765014444496, 0.0, -0.7533925461453044
0.45722058057703985, 0.0, -0.7833786202750896
-0.4417087297489818, 0.0, -0.7546164493230523
0.699737754580913, 0.0, -0.7799039482826977
0.7779938220648577, 0.0, -0.8514406053859461
0.8798366803184542, 0.0, -0.8473382649707921
-0.7707374083733296, 0.0, -0.7593176756679977
-0.3716479473130318, 0.0, -0.7529948267017346
0.03675755220792165, 0.0, -0.7849342481497666
1.0952052598009727, 0.0, -0.8222404566021234
-0.3836834173519653, 0.0, -0.7880978664656026
-0.2897372087356975, 0.0, -0.7803681973351533
1.080737073748305, 0.0, -0.8251030480569082
0.8664370713038232, 0.0, -0.8048171525639318
-0.1373694390302997, 0.0, -0.7720125735781629
0.3553133855555504, 0.0, -0.8289134689772968
0.7520168246213428, 0.0, -0.7727591732800592
1.0462826244276937, 0.0, -0.8478878310181441
0.19513077992810968, 0.0, -0.779249661250552
1.0243476087577341, 0.0, -0.8554978126662299
-0.6895434103798614, 0.0, -0.7581830882126555
0.9907142746109712, 0.0, -0.8145387468596317
0.2738822267574042, 0.0, -0.8019784357409974
0.7458296755651139, 0.0, -0.8432786731702315
0.6594131421465443, 0.0, -0.8217352139913252
0.8311395248282827, 0.0, -0.7955432645578355
0.19460389233269043, 0.0, -0.7942510812367208
1.1730709778593162, 0.0, -0.8146821883132404
1.0848107204068598, 0.0, -0.8275115681019414
0.08235396661223898, 0.0, -0.7715400230475736
0.6063876750754342, 0.0, -0.767433039648994
0.3934315016658642, 0.0, -0.8360043195363607
0.9477584398604348, 0.0, -0.7877552136306382
-0.2630822471890131, 0.0, -0.754093736090377
-0.6778929975828069, 0.0, -0.7665828379516068
0.7789436692591272, 0.0, -0.7884815016831976
1.043759540490529, 0.0, -0.7699438161723638
0.6609396081207997, 0.0, -0.8547064515758926
-0.2707028104930067, 0.0, -0.7681061773832767
0.6423427350968574, 0.0, -0.7686413318755294
0.8254659436832522, 0.0, -0.7863236513710893
0.8158750074961578, 0.0, -0.8111560865087535
1.1668767207106472, 0.0, -0.8392233699084708
-0.08422659146332728, 0.0, -0.790150634781603
0.04297700564010387, 0.0, -0.7845101110324699
1.1696773855266691, 0.0, -0.8366543217348107
-0.4534334169101739, 0.0, -0.7908142002804082
0.4105434161126695, 0.0, -0.7877327511146051
1.0473685607858834, 0.0, -0.850365699369744
-0.018390981787677785, 0.0, -0.800944628386226
0.8508078829259961, 0.0, -0.766496553753944
0.6952843418067058, 0.0, -0.8322528085302475
0.9733599552565181, 0.0, -0.7686619768927845
0.5686644619911239, 0.0, -0.8017707298448309
0.8393424241292775, 0.0, -0.79768347936988
1.0608964647166028, 0.0, -0.7682271775494085
0.01325368099461599, 0.0, -0.8031870541922992
-0.48645197333838563, 0.0, -0.7526162787721837
-0.5509838552397971, 0.0, -0.7533860978252087
0.4526272149169732, 0.0, -0.757788254045558
1.0168709918116015, 0.0, -0.7781041350796717
0.39437933196726216, 0.0, -0.7946984231871705
0.580795359783594, 0.0, -0.7874890426687005
1.12978550284453, 0.0, -0.7670382426289918
-0.3272331852089427, 0.0, -0.7574942893813391
0.9376424897143489, 0.0, -0.7798331786026527
0.8916946920317242, 0.0, -0.8126060813390681
1.1344585128745936, 0.0, -0.7502561411213445
0.945021084905359, 0.0, -0.8002554728439242
0.73264028274522, 0.0, -0.8358183722938612
1.1331452782366782, 0.0, -0.7792935021312168
1.0193458001570306, 0.0, -0.7868877002773698
0.9758760511911762, 0.0, -0.8188739178991753
0.8321744110237022, 0.0, -0.8206872083933141
0.338793003546968, 0.0, -0.8346721986535693
1.150558953722404, 0.0, -0.8588059814427365
0.5614299747502891, 0.0, -0.7899731095500928
0.8885724392364418, 0.0, -0.8278103021895442
0.3259153172101721, 0.0, -0.7678103243747596
0.13354315886769458, 0.0, -0.7537140943866739
-0.25778327816399704, 0.0, -0.7766419144712847
-0.8634051213977879, 0.0, -0.767274728998217
1.1512448419432286, 0.0, -0.8126431245197452
-0.24552802624032566, 0.0, -0.7756295311292498
0.8860059296819973, 0.0, -0.8006363973727367
-0.28559603431336994, 0.0, -0.7614611029813915
-0.6409963622559244, 0.0, -0.7759897241560569
1.119562993784525, 0.0, -0.8058135674201472
0.6726859103424973, 0.0, -0.7786979094156081
-1.1948262093200541, 0.002183304532778548, -0.7661691204517542
-1.1841252772260529, 0.004922129679471254, -0.7464616778865327
-1.0915738670784645, 0.004922129679471254, -0.7067358868640475
-1.1278184469356327, 0.0049221296794712535, -0.7056589282520084
-1.0683870185608229, 0.004922129679471254, -0.7415887354159659
-1.091940020196265, 0.004922129679471254, -0.7095270346850833
-1.0712171932980197, 0.004922129679471254, -0.6922445472295586
-1.0498668509506168, 0.004922129679471254, -0.6806043882866321
-1.1015899185738351, 0.0049221296794712535, -0.6929861164707285
0.9775032829411945, 0.004922129679471254, -0.7557978826928484
0.9144273161390049, 0.0049221296794712535, -0.8372839499311983
0.9180584794649534, 0.004922129679471254, -0.8441837244375479
0.9055835817171985, 0.004922129679471254, -0.7693872376246027
0.9328647071827716, 0.004922129679471254, -0.7743675921967574
0.981047213714894, 0.004922129679471254, -0.78704826256623
0.999553809895767, 0.004922129679471254, -0.758292689230519
1.1776647346851394, 0.004922129679471254, -0.7248156840286925
1.1353867506094066, 0.004922129679471254, -0.689904763591714
1.180601062192172, 0.004922129679471254, -0.7480730484453089
1.1237358595729499, 0.004922129679471254, -0.6860004485404327
1.1301982467045626, 0.004922129679471254, -0.6970600589851583
1.178895721855317, 0.0049221296794712535, -0.6230702120183014
1.0859707763804152, 0.004922129679471254, -0.7216187742636129
1.0515764253544755, 0.004922129679471254, -0.7454317415354279
1.0498304570003176, 0.004922129679471254, -0.7623257983672482
1.0458291554282586, 0.004922129679471254, -0.7931377531455188
1.0592786757199733, 0.004922129679471255, -0.8610826252083585
1.1323422703719195, 0.0049221296794712535, -0.788960479256953
1.1157247028193282, 0.004922129679471254, -0.7972116139646871
1.1000755299804172, 0.004922129679471254, -0.8056304403126103
1.0512133817375737, 0.004922129679471254, -0.7590839153402149
1.1879247123277052, 0.0047458595783416635, -0.8521267226264905
0.7988758260546803, 0.0, -0.8678502982017465
-0.2783504954297906, 0.0, -0.8488037702224178
0.05108080444163715, 0.0, -0.8504390322124165
-0.6876942863258004, 0.0, -0.8661069898351115
-1.1268594185991307, 0.0, -0.7939809561316439
-1.0920941494648817, 0.0, -0.7753331376321391
-0.6679119833147262, 0.0, -0.819996766535893
-0.9809494321820638, 0.0, -0.7974048253740929
-0.10809163706115343, 0.0, -0.8660971622609908
-0.5670984721424897, 0.0, -0.8386685560393008
0.08732673474894526, 0.0, -0.8662130458330366
-1.1296180064142036, 0.0, -0.8555317945993841
-0.4885699770048926, 0.0, -0.8291021752436528
-0.7773722420620081, 0.0, -0.8000778656639984
-1.0359579044139104, 0.0, -0.7776634100547319
-1.0968089360865023, 0.0, -0.8478415740340948
-1.1613089730147599, 0.0, -0.7627217695917514
-0.8606780254885861, 0.0, -0.8839252547428074
-0.13785485313323687, 0.0, -0.8505806709190946
-0.6196644949820298, 0.0, -0.8771556746000095
-0.1086874765381628, 0.0, -0.8808533847045743
0.39352017532614036, 0.0, -0.8619328973282905
-0.15164461149785674, 0.0, -0.8754801453492698
0.5929348309357377, 0.0, -0.852839839586724
0.1967243536865556, 0.0, -0.8305899288462388
-0.9645436999665581, 0.0, -0.8737076566628237
-0.447022088046547, 0.0, -0.8612613838688544
-0.6371826474463704, 0.0, -0.79946214583502
-1.1726101226764325, 0.0, -0.7993189406247003
-0.12879803651365024, 0.0, -0.8665475875646386
-0.4232422265663464, 0.0, -0.8220996834694011
-0.7197169215512519, 0.0, -0.8793342169265146
0.6513459844055284, 0.0, -0.855359377531132
0.25211216274715104, 0.0, -0.8849533219181946
0.6571957968355919, 0.0, -0.8649404963336091
0.3615025446816406, 0.0, -0.844532457089472
-0.6317755706112963, 0.0, -0.79134472517539
0.042194898170924366, 0.0, -0.8784679552604149
0.7443425060875795, 0.0, -0.8746965721312268
0.2544579965083402, 0.0, -0.88360820135832
-0.9420906203174184, 0.0, -0.8476909486045695
0.4731062408129726, 0.0, -0.8531148129255609
-1.1713479260355992, 0.0, -0.8361771889879974
-0.38641232050925894, 0.0, -0.8475615148424731
0.15770648037903556, 0.0, -0.8386152768560375
-0.7098346871635697, 0.0, -0.8077804725568338
-0.9680042368930583, 0.0, -0.7683078631639724
-0.37858445564526416, 0.0, -0.8437942436278623
0.1678693299336101, 0.0, -0.84339326350569
-0.2997973109744848, 0.0, -0.880262141359978
0.32929609795604003, 0.0, -0.8403123980557153
-0.13292948121113118, 0.0, -0.8573349017034924
-0.3901940954551334, 0.0, -0.812870889287193
0.364414049284587, 0.0, -0.8649195802910901
-0.20246692586546156, 0.0, -0.8549162704815451
-0.6952680525677959, 0.0, -0.8100513875816253
0.7558977507016083, 0.0, -0.8649822135735311
0.11625463471740785, 0.0, -0.8455092559748107
-0.608163100954164, 0.0, -0.8632176918431627
-1.0904508797128547, 0.0, -0.8066601825243827
-0.28860939037504535, 0.0, -0.8443621245178128
-0.7365222057862629, 0.0, -0.8423943036409429
-0.9880471223003771, 0.0, -0.7917676897155108
-0.6033279262430095, 0.0, -0.840822371070822
-0.8039076786574397, 0.0, -0.7850423091782636
-0.655537074152842, 0.0, -0.7984599678151149
0.7893564352193465, 0.0, -0.8753437722202173
-0.29071417441038383, 0.0, -0.884340704928899
-1.1512695811814826, 0.0, -0.8080800500261213
-0.6151975942011886, 0.0, -0.8671150618223333
-0.8795457326082914, 0.0, -0.8022907701610077
-0.6087840279806308, 0.0, -0.7881417900157704
-0.13764129105547873, 0.0, -0.873089598517524
-0.5418820286331515, 0.0, -0.8043692130623156
-1.04113118753257, 0.0, -0.7674952027764502
-0.9145279857681082, 0.0, -0.7992192903334079
-0.7440655717250722, 0.0, -0.8414750194345701
-0.5795745668670196, 0.0, -0.8136995955574555
0.13275113839223496, 0.0, -0.8639123992726989
-0.7432103902673759, 0.0, -0.8617067136048431
-0.40433289959590624, 0.0, -0.8469218342866056
0.8332915455553191, 0.0, -0.8803474857622793
-0.5569182018347556, 0.0, -0.8453715565102639
-0.7484612588177559, 0.0, -0.8484244612626789
-0.9499395513324824, 0.0, -0.7857310093319025
-1.160829957343628, 0.0, -0.870258148842782
-1.0887305586181522, 0.0, -0.8294809458286744
-0.07714504735021627, 0.0, -0.8709253909745317
-1.1334802378948554, 0.0, -0.7967266960096095
-0.9540636441142729, 0.0, -0.8507696876910171
-1.1768221342371203, 0.0, -0.8112520834127098
-1.1059177572980572, 0.0, -0.8443758314914855
0.3155827488408677, 0.0, -0.8577574144409915
-1.1309822860146135, 0.0, -0.8294361472245846
-0.2687290640729571, 0.0, -0.8366678251896962
-1.12918175694008, 0.0, -0.8735384038849827
-0.8712169175291188, 0.0, -0.8094365515321298
-0.8730869174432492, 0.0, -0.8230845013751963
-0.6153374155602258, 0.0, -0.8347242906323855
0.4520340338498985, 0.0, -0.8447889912835448
-0.8753496422800914, 0.0, -0.8402631521568521
-0.5645725444011659, 0.0, -0.8332374857694331
-0.3619028582200388, 0.0, -0.8768239668002488
-0.5962737838837353, 0.0, -0.8374217927824363
0.47073771905941664, 0.0, -0.8616487400691056
-0.729449242749789, 0.0, -0.8699283079424179
0.38306470800043, 0.0, -0.8609156681590552
-0.4681123613584876, 0.0, -0.7997567341802297
-0.49648992445086765, 0.0, -0.8291022757757807
-0.2825119284331086, 0.0, -0.8778925890933094
0.23250205139326122, 0.0, -0.8332019318876813
-1.1111233494416761, 0.0, -0.7888218419254964
-1.1597265993371517, 0.0, -0.8222532499369023
-0.4962921206173544, 0.0, -0.8776044133801106
-1.0516653037889327, 0.0, -0.7944602357436573
0.10155723046815407, 0.0, -0.8620901468649653
0.36425574403442257, 0.0, -0.8827696656101863
-0.11741675478327335, 0.0, -0.8598949649598493
-0.8072121927699878, 0.0, -0.8360057900969828
0.3546417830372907, 0.0, -0.8930020285688973
0.6958717856494432, 0.0, -0.9121998879052139
-0.40353185214268755, 0.0, -0.8942867596089479
-0.04502596439550771, 0.0, -0.9147385937098444
0.31050159696201746, 0.0, -0.9460352498138125
-0.7635006412041548, 0.0, -0.8861067906849418
1.13576111822777, 0.0, -0.9348008704900861
0.9102874327159673, 0.0, -0.9739290314351786
0.4012470602817674, 0.0, -0.9118480725558612
0.676001783269105, 0.0, -0.9745071652575451
0.23594174569513565, 0.0, -0.895830882106786
-0.1265551710668178, 0.0, -0.9298895689556056
0.8551477043956367, 0.0, -0.9707228121144895
0.611821939123536, 0.0, -0.952065123016578
0.8570903890728248, 0.0, -0.9066781530464679
0.29583359002163995, 0.0, -0.9409251721127964
-0.06328861437667122, 0.0, -0.9103212293899103
-0.4395486738932105, 0.0, -0.9215241799094249
1.0512100801260105, 0.0, -0.9940439631786184
0.972206217018056, 0.0, -0.9015801719433924
0.9876882739030506, 0.0, -0.9357073839881337
0.3569163202840143, 0.0, -0.937736161142011
0.5833230958285278, 0.0, -0.9148807132824326
0.8222417691080435, 0.0, -0.9504450769970678
0.11912500123326966, 0.0, -0.9360260110120133
0.2086791009120776, 0.0, -0.9076451467712424
0.1974439262771992, 0.0, -0.9262751563582425
0.8229434022380683, 0.0, -0.9439387783632495
0.9804318668660587, 0.0, -0.9757447647623599
0.6017034807674291, 0.0, -0.9624189055945234
0.6563009403542142, 0.0, -0.9594236477335254
-0.8103521995407781, 0.0, -0.8941505050140408
0.21255488836675157, 0.0, -0.9174884928876406
0.8304940489610597, 0.0, -0.9001436125305649
0.920086845007416, 0.0, -0.9542035934102626
0.7339853838134527, 0.0, -0.9291232182745783
-0.6413360392577913, 0.0, -0.8939042700191627
0.1548594790129365, 0.0, -0.9617991699175156
0.8394558858042247, 0.0, -0.9627930860543589
0.2816049921525481, 0.0, -0.9130070720300112
0.40140928547770205, 0.0, -0.9594839774919278
0.17821344968964736, 0.0, -0.9122264136120526
0.49184216999797187, 0.0, -0.8914632467633777
0.7600837331559577, 0.0, -0.8993441825724866
-0.311598110473112, 0.0, -0.8910363621806519
1.119478886959293, 0.0, -0.9624199771242172
0.8334981647258985, 0.0, -0.9323552290026411
-0.9741348319286436, 0.0, -0.8871568236524479
0.9556197085378015, 0.0, -0.8977581967334233
0.5135277648477137, 0.0, -0.9497142355284134
0.7194309386180983, 0.0, -0.9917200624696466
1.0841451460002882, 0.0, -1.0077685318791654
0.90968866273805, 0.0, -0.9931179217479783
1.0060757430309506, 0.0, -0.9825877805719276
-0.016174386703640187, 0.0, -0.9178615115658452
0.0861355235782652, 0.0, -0.9078898980057344
0.46154347142714336, 0.0, -0.962767726767605
1.1773168103694849, 0.0, -0.9134873868384976
-0.5293614513768922, 0.0, -0.9146042845556593
0.9115009108185188, 0.0, -0.9821626582261382
-0.07128220126694434, 0.0, -0.8931704814569923
0.28155150122734174, 0.0, -0.9155931635231622
0.45679785590874916, 0.0, -0.9723532213401791
0.43071512126087264, 0.0, -0.957843537522524
1.1064823918307187, 0.0, -0.9926251740023444
0.7871292890636086, 0.0, -0.8935338111393628
0.17586157310536094, 0.0, -0.9331565711267844
-0.2790014118604424, 0.0, -0.9322780879001931
0.8087102529342567, 0.0, -0.9654052714316536
-0.19662962739062784, 0.0, -0.8931631965849152
0.2517449120235108, 0.0, -0.9135275433819983
-0.09517930706070954, 0.0, -0.93876058202151
0.5221399067773058, 0.0, -0.9615828631082611
1.1802463079586496, 0.0, -0.9152431168656513
1.0934405408277192, 0.0, -0.958747429914076
0.7472495735464353, 0.0, -0.9690613340127255
-0.006591514321990108, 0.0, -0.9448867284089426
0.9869191041214913, 0.0, -0.9589238005971579
-0.07194090686921362, 0.0, -0.909116121046326
1.0951204547776954, 0.0, -0.996486204232803
0.963495731819016, 0.0, -0.937809659122729
0.423639306018299, 0.0, -0.9533657242129199
0.07190240811916038, 0.0, -0.8917219435908941
1.0616745670989385, 0.0, -0.990828877078789
-0.10958891166821688, 0.0, -0.9090481116230529
-0.6931949206874087, 0.0, -0.895101168380763
1.185975625311707, 0.0, -1.0068491645388922
0.18359563026836687, 0.0, -0.9442488110624786
0.8832278233972808, 0.0, -0.9223755679772222
0.24757760758329322, 0.0, -0.958826745869741
-0.4142416208881608, 0.0, -0.885833338057256
-0.046686825926395115, 0.0, -0.9029014561568138
-0.2804192030866595, 0.0, -0.9355323961480406
0.8919586053773583, 0.0, -0.9912060379372981
0.5958736775959933, 0.0, -0.9230414920967731
-0.7793632488228702, 0.0, -0.9050418045180924
0.518133914559922, 0.0, -0.9332893170435934
-0.5238594702045014, 0.0, -0.9003576291904342
-0.22360662692478006, 0.0, -0.9107260764184727
-0.19181789974140562, 0.0, -0.9077018993562784
-0.5002180344530593, 0.0, -0.8983950127877498
1.1887952186293664, 0.0, -0.9249544260483815
0.9122499675483887, 0.0, -0.9396704233490132
-0.12662248322034864, 0.0, -0.9369960734877502
0.2408324809084565, 0.0, -0.9376334760675621
1.149137399113342, 0.0, -0.9453516875273051
-0.0774578800819109, 0.0, -0.8899925867123664
-0.9943888733254428, 0.0, -0.8956497226673398
0.4063163406881736, 0.0, -0.9080157233872275
0.8462304156968078, 0.0, -0.9855813881900453
1.1776476370084894, 0.0, -0.9526454357502858
-0.8323546531233104, 0.0, -0.8918169289707047
-0.20655278464818272, 0.0, -0.8940071687749975
-0.6286495264721299, 0.0, -0.901827182952747
0.8338954409336331, 0.0, -0.930139573051153
-0.16046126744776495, 0.0, -0.9022695848187843
-0.16060553964184282, 0.0, -0.92432404559849
0.8556400071781791, 0.0, -0.9128809028968606
-1.1879122847243462, 0.004747644959316243, -0.9049356177429462
-1.0611246783081583, 0.004922129679471254, -0.8763659161134933
-1.1588874230021313, 0.0049221296794712535, -0.8642890857683179
-1.0486376720126223, 0.004922129679471254, -0.8253313923205552
-1.0510292422311747, 0.004922129679471254, -0.7659449749038044
-1.0542544193090782, 0.004922129679471254, -0.8308041329271771
-1.0521350089631096, 0.004922129679471254, -0.8733277478967482
-1.0982332339345866, 0.004922129679471254, -0.8439117792464296
0.9589719584395585, 0.004922129679471254, -0.9469081782356779
0.9045776482306396, 0.004922129679471254, -0.8991117593555898
0.9029067423351589, 0.004922129679471254, -0.9126452480862546
0.9127953928155735, 0.004922129679471254, -0.9842444349968161
0.983996131522357, 0.004922129679471254, -0.9013048930617358
0.9060171437028406, 0.004922129679471254, -0.9075149081486916
0.9138218248646077, 0.004922129679471254, -0.914684547998009
0.9369233236868986, 0.004922129679471254, -0.8940547763772692
1.1483864387482625, 0.004922129679471254, -0.8565776039564548
1.1060509161714616, 0.004922129679471254, -0.8403668875597922
1.17229242806818, 0.004922129679471254, -0.7753591887922504
1.1639389583171644, 0.004922129679471254, -0.8152762016780859
1.1273643867938314, 0.004922129679471254, -0.8195292896096761
1.1051832025005786, 0.004922129679471254, -0.8553359926048005
1.1672187706048018, 0.004922129679471254, -0.8115555858075284
1.0506344155189222, 0.004922129679471254, -0.9756329290138007
1.1340201390191913, 0.004922129679471254, -0.9282970511184044
1.048638092543397, 0.004922129679471254, -0.9191144626823183
1.0590187444766042, 0.004922129679471254, -0.937125623224462
1.1369061754066743, 0.004922129679471254, -0.8935375917460476
1.0747190152441983, 0.004922129679471254, -0.9005537144864276
1.070014428725356, 0.004922129679471254, -0.9368764011615599
1.0423234871723701, 0.004922129679471254, -0.9482787119984968
1.1918412719028557, 0.002593959914520383, -1.0851010178724794
-0.47407695464042043, 0.0, -0.9632906266824597
-1.114495540122444, 0.0, -0.9347744517173125
0.05088615531631563, 0.0, -0.9928608740472967
-0.5630302487117564, 0.0, -0.9225939442735844
-0.7473506380091859, 0.0, -1.0006926976661918
-0.4043693123872235, 0.0, -1.0106239830943664
-0.7339985732936576, 0.0, -0.97671903742908
-0.776582985980013, 0.0, -1.0021901968227032
-1.1095919414984816, 0.0, -0.9053813558837501
-0.09760395113582465, 0.0, -0.9985855240997457
-0.9048605529616739, 0.0, -0.9742605472998098
-1.1504000512316246, 0.0, -0.9451381647781032
-1.143046811274062, 0.0, -0.9906193663238123
-1.025005342348506, 0.0, -1.0183601955845638
-1.012719307319614, 0.0, -0.918344254735801
-1.139632979847125, 0.0, -0.9419534457971404
-0.8169014115581561, 0.0, -0.9563110817449272
-0.14560995724925518, 0.0, -0.9654231076683051
-0.3808536991707893, 0.0, -0.9378643819668244
-0.817029496546676, 0.0, -0.9458925849563238
-0.5467674886226003, 0.0, -0.9231219798932554
0.06733620585161826, 0.0, -1.0169720742952322
-0.5808837731589312, 0.0, -1.0185857775158085
0.012227317632831969, 0.0, -0.9933322554705802
-0.11472319091448041, 0.0, -0.9682450785287289
-1.0491670634524763, 0.0, -0.9724104580380184
0.0412346954749746, 0.0, -1.0024738171163399
0.45276900762544087, 0.0, -0.9810685547412348
-1.1153393802496911, 0.0, -0.9004836684451709
0.0281321912659031, 0.0, -0.9612135252992152
-1.163582584543939, 0.0, -0.9263589330605309
0.7574532087413194, 0.0, -1.002659695520638
-0.9575243589008613, 0.0, -1.0071937669884694
0.41760399988494523, 0.0, -0.989175209235084
-0.9396694822615891, 0.0, -0.9237791947424486
0.8096900105625381, 0.0, -1.0045679103903264
-0.8760875360579501, 0.0, -1.0149235086738553
-0.14544879430143254, 0.0, -0.952556039826046
-0.5096457370914304, 0.0, -0.9634455129368256
-0.9729464005619557, 0.0, -0.9330751950659444
-0.7582204999589065, 0.0, -0.9779309567868512
-0.12139312563076711, 0.0, -0.9525326081397435
-0.4499462199849531, 0.0, -1.0028345355645953
-1.0224187173730335, 0.0, -0.967346437192881
0.24318076626293106, 0.0, -0.9765906366456939
-0.9849360524167481, 0.0, -0.9588970765238225
0.017427045507995034, 0.0, -0.9546264268378812
0.0061848838569137365, 0.0, -1.0150250778228478
0.01125293174359876, 0.0, -1.0049453848701928
0.09220702427756608, 0.0, -0.9703209619214619
-1.0939295008959304, 0.0, -0.9151320506114817
-0.8180932925092363, 0.0, -1.021055564973175
-0.34125615277186705, 0.0, -0.9947511858150564
0.2726873678514662, 0.0, -1.0044031601178482
-0.4691919765359643, 0.0, -1.0035989316164995
0.5390759018296791, 0.0, -1.004712760294919
-0.3695515909963231, 0.0, -0.9384056235559994
0.4031703189143983, 0.0, -0.9877013682057061
0.5131392128178581, 0.0, -0.9845703379694354
0.009017503386495096, 0.0, -0.9946554975819202
0.6713678795219817, 0.0, -0.9956516358967746
-0.009576281023112906, 0.0, -0.9634266323061846
-0.39819317567413304, 0.0, -0.9514246736227913
0.5804743459565582, 0.0, -1.0015304158922005
0.2651215882341215, 0.0, -1.00273028204189
-0.7808136932745449, 0.0, -0.9169578075175049
0.06500644712676851, 0.0, -1.0042609832666742
-0.5284259513376517, 0.0, -0.9241169148942783
-1.142315020318697, 0.0, -0.9528241177286273
-0.47342976424493416, 0.0, -0.9739170765478099
-0.11134955949642755, 0.0, -1.0144016705403107
-0.9432140031024189, 0.0, -0.9074441203110408
-0.7938327082502508, 0.0, -0.9134176894158024
0.03344168953666876, 0.0, -0.9917182451687884
-0.5900934517464802, 0.0, -0.9930927904025972
-1.1847652627656369, 0.0, -0.9312625311763796
-1.0219228747013207, 0.0, -0.9986893406329607
-1.0226235250214923, 0.0, -0.9393114025453957
-0.8600525067351477, 0.0, -0.9125943027881669
-0.97556975233329, 0.0, -0.9666134289917427
-0.6875181592497893, 0.0, -0.9280546681029341
-1.0587200741929839, 0.0, -0.9123210004821185
0.11948000905501292, 0.0, -0.9695658016874802
-0.6342265319680749, 0.0, -0.9249196264042999
0.28028741948285973, 0.0, -1.01014327866588
-0.5728423183422046, 0.0, -0.936792930219782
-0.887080587325209, 0.0, -1.014856098650928
-0.2325949731192965, 0.0, -0.9793821964725948
-0.9948135959335007, 0.0, -0.9602125975519329
-0.8008653017756622, 0.0, -0.9727843795884145
-0.02014479553797599, 0.0, -1.0183886267400117
-0.9205203570254139, 0.0, -0.9579899255904207
-0.4595086410820175, 0.0, -0.9930899367313024
-0.5257490161188136, 0.0, -0.9584614244437912
0.5879580928914468, 0.0, -0.9914699544883925
-1.0136822557951157, 0.0, -0.9957888913671924
-0.007005931435084767, 0.0, -1.0134512474819568
0.3876489174798043, 0.0, -1.0112783952307831
-0.5398649384178679, 0.0, -0.93435491653685
-0.4025776969370817, 0.0, -1.0162857938973655
0.4381728406394127, 0.0, -1.0035367271045699
-0.6517592209280448, 0.0, -0.9583713184468216
-0.9054291714364121, 0.0, -0.913702815946562
-0.5021455943522305, 0.0, -1.0214903497429415
-0.7849634669206276, 0.0, -0.9926612813047297
0.7558941595776731, 0.0, -1.0037582218895473
-0.5881214015181162, 0.0, -1.0119160064677803
-0.6224587381999519, 0.0, -0.9895241401507253
-0.035217435029610666, 0.0, -0.9908974143678861
-1.0190638281868987, 0.0, -0.9970289506687626
-0.3425906149032657, 0.0, -0.974028813693176
0.2254896663224307, 0.0, -0.9947228968499202
-0.1603616210892466, 0.0, -0.9488472948497624
-0.15253978831680604, 0.0, -1.0114909686388138
-0.7127836928078126, 0.0, -0.9316935588723124
-1.1026284039428926, 0.0, -0.9224759630096275
0.14684125161710881, 0.0, -1.0066510556101167
0.9271783804590885, 0.0, -1.0088978266086628
0.612343862356967, 0.0, -1.1066721855057393
0.13165403981798893, 0.0, -1.0881828902847184
0.41609078191512366, 0.0, -1.0726862795392076
-0.7213283461360647, 0.0, -1.03828201107027
0.7701619927332358, 0.0, -1.1134412228319415
0.25403509976940764, 0.0, -1.0310989304566869
0.24973636588268955, 0.0, -1.0409921259023247
-0.08925348123545951, 0.0, -1.0544364259385604
-0.5219366992113695, 0.0, -1.0503537480394198
-0.06038869814960092, 0.0, -1.0770597639906212
0.4927813908009022, 0.0, -1.1124765802139789
0.9346342938293931, 0.0, -1.141811621603053
0.9314924860449325, 0.0, -1.0381124840787146
0.2424841027049165, 0.0, -1.041159251761479
0.9435625128662194, 0.0, -1.0688282484393166
-0.7400299035424185, 0.0, -1.0330640846730996
