1.3952611707125184, 3.9494488789048405e-07, -1.203441844834141
1.4738266226233387, 0.004343977606932531, -1.2195677075779596
1.4631814359828406, 0.007803479675203562, -1.0991170349922128
1.4915417035319432, 0.007803479675203562, -1.1222247147197957
1.474903663143622, 0.007803479675203562, -1.138887828634809
1.411802020050108, 0.007803479675203562, -1.108996165007158
1.5086546378214676, 0.007803479675203561, -1.172451215454854
1.4988346428596788, 0.007803479675203562, -1.1477649990777288
1.4980325037184046, 0.007803479675203562, -1.0763114279567612
1.5193320725144506, 0.007803479675203562, -1.1646832278569845
1.449230275018388, 0.007803479675203562, -1.1309204714184462
1.473943286323657, 0.007803479675203561, -1.166530105550058
1.4609655153969607, 0.007803479675203563, -0.9997046999024689
1.4718221717928106, 0.007803479675203562, -0.9299342548412335
1.5105418874060232, 0.007803479675203562, -0.93739608463854
1.3809638509596476, 0.007803479675203562, -0.9249009769111475
1.4794921164236048, 0.007803479675203562, -0.9258858042491529
1.4319065247879, 0.007803479675203562, -0.942048660223568
1.4344897367686258, 0.007803479675203562, -0.9772435470275385
1.5019293546264432, 0.007803479675203562, -1.0263680129463584
1.5189039434577247, 0.007803479675203562, -0.9382164152596906
1.5171175290091883, 0.007803479675203562, -0.8108855725704278
1.513449009967153, 0.007803479675203562, -0.8928542960758215
1.4677611596906808, 0.007803479675203562, -0.8206281184857229
1.4150066129674939, 0.007803479675203563, -0.7997600816839256
1.5101452171460614, 0.007803479675203562, -0.8232813765207715
1.4069694828870312, 0.007803479675203562, -0.7837469807443715
1.345505166196548, 0.007803479675203561, -0.7684162600046234
1.4886258775483525, 0.007803479675203562, -0.7926425957446748
1.4401553863690604, 0.007803479675203562, -0.8355931458835826
1.5139195152675347, 0.007803479675203562, -0.8251510723339774
1.479304265797452, 0.007803479675203562, -0.6675152482034998
1.4191028164040422, 0.007803479675203561, -0.6759198498335393
1.516414863761343, 0.007803479675203562, -0.7198950930418873
1.4923704959607895, 0.007803479675203562, -0.6566078028858111
1.4788326434612733, 0.007803479675203562, -0.6665566186297115
1.5083855100744734, 0.007803479675203562, -0.7034572497276053
1.4681921204763468, 0.007803479675203562, -0.6921644468395567
1.4439683292750165, 0.007803479675203563, -0.6920880044193901
1.4850088396415062, 0.007803479675203562, -0.6966803422486771
1.380988459313554, 0.007803479675203562, -0.46950511935960465
1.4181996218068313, 0.007803479675203562, -0.47952202347358597
1.4121863059533208, 0.007803479675203562, -0.5131189929895749
1.5154061944477928, 0.007803479675203561, -0.5363512763884193
1.5050054679963245, 0.007803479675203562, -0.5740070901936972
1.4900490698438178, 0.007803479675203562, -0.4751815858454526
1.498541255166129, 0.007803479675203562, -0.5352960262127426
1.398722695558634, 0.007803479675203561, -0.49556712065770314
1.5033548711351727, 0.007803479675203562, -0.593022682048091
1.4957486541261933, 0.007803479675203563, -0.5672988577096119
1.4456900794097782, 0.007803479675203562, -0.31298536267120425
1.4382735937948268, 0.007803479675203562, -0.35646871398791014
1.3397133846947773, 0.007803479675203561, -0.30644052001278804
1.4949475602861506, 0.007803479675203562, -0.38265346188293653
1.4678321981099824, 0.007803479675203562, -0.3945455570695892
1.4795139356035616, 0.007803479675203562, -0.3575815748314799
1.4995270737047406, 0.007803479675203562, -0.33978327178786616
1.4370295319644626, 0.007803479675203562, -0.3446425830781591
1.4868902223849594, 0.007803479675203562, -0.3923271819734203
1.3691234588273256, 0.007803479675203562, -0.3177647750955734
1.47257545538576, 0.007803479675203562, -0.2149906380783453
1.451700011730353, 0.007803479675203562, -0.2043820776516611
1.5067572972394945, 0.007803479675203563, -0.18495137618184615
1.5118481549035654, 0.007803479675203562, -0.2552260776523184
1.377086126464886, 0.007803479675203562, -0.1642912373662863
1.4252016454089518, 0.007803479675203563, -0.20835819080685528
1.5045922570257055, 0.007803479675203562, -0.2814644999975189
1.3497040976803545, 0.007803479675203562, -0.16170331680574937
1.514730390968236, 0.007803479675203562, -0.25068939034035415
1.434092819410206, 0.007803479675203562, -0.056391630311270445
1.3487655142001778, 0.007803479675203562, -0.026861214822467446
1.3483025789175336, 0.007803479675203562, -0.03623995927600704
1.3427030974071967, 0.007803479675203563, -0.09729216905998564
1.4604040411557753, 0.007803479675203562, -0.008745896390107968
1.36853187028453, 0.007803479675203561, -0.11544129573156621
1.465845726160534, 0.007803479675203561, -0.0395582292785381
1.395080666495606, 0.007803479675203562, -0.07597368272962336
1.3587627285778656, 0.007803479675203563, -0.04345694991097479
1.3805741762040287, 0.007803479675203562, -0.01275222376038712
1.4448684784357093, 0.007803479675203562, -0.10936315581837526
1.4873659514981714, 0.007803479675203562, -0.09453535651900744
1.4575112241619703, 0.007803479675203563, -0.061701730293714105
1.4721227769841634, 0.007803479675203562, -0.0567836851779941
1.4996720409810198, 0.007803479675203563, -0.03694237809344636
1.4412966875702857, 0.007803479675203562, -0.06725123713831806
1.4680488472708886, 0.007803479675203562, -0.047506942585989156
1.4048435783109148, 0.0078034796752035635, -0.14371504129486903
1.3827214630883802, 0.007803479675203562, -0.13463316659109023
1.3773524413128755, 0.007803479675203562, -0.13240854553003667
1.3478584652642587, 0.007803479675203562, 0.1429776567518709
1.35676825001535, 0.007803479675203562, 0.02281897495505555
1.3352650996975641, 0.007803479675203562, 0.02074703276344449
1.4638674208350624, 0.007803479675203562, 0.14930929078694624
1.3358433255638493, 0.007803479675203563, 0.10059976657913335
1.3488688032043041, 0.007803479675203562, 0.06505455755893022
1.4416537191066068, 0.007803479675203562, 0.12646296876735735
1.3563924303071575, 0.007803479675203562, 0.08395892196651965
1.359668732253835, 0.007803479675203562, 0.10841890888147102
1.4597955953638613, 0.007803479675203562, 0.07421977746824941
1.506767073968039, 0.007803479675203562, 0.07200481416511599
1.486452280200353, 0.007803479675203562, 0.024707036327781692
1.4736355298773627, 0.007803479675203562, 0.10544809469270457
1.4996143912293498, 0.007803479675203562, 0.08929815818027403
1.485725793085029, 0.007803479675203562, 0.07350485566045811
1.4767735612596056, 0.007803479675203562, 0.11316030157813012
1.3816119510283857, 0.007803479675203562, 0.037267807976343846
1.4806437950909699, 0.007803479675203562, 0.07929980922612667
1.4083125591118328, 0.007803479675203562, 0.055475228817890944
1.3394807723128097, 0.007803479675203562, 0.22529765943436586
1.4064198663769931, 0.007803479675203562, 0.23497193855874177
1.441707196353272, 0.007803479675203562, 0.28725385580544055
1.3622662799563336, 0.007803479675203562, 0.23475668622429277
1.4488698352474985, 0.007803479675203562, 0.2965525398433344
1.360594560294794, 0.007803479675203562, 0.2248269560723617
1.4055913038252847, 0.007803479675203562, 0.2875446062912211
1.3379099874241618, 0.007803479675203563, 0.21274610478966996
1.367793806246012, 0.007803479675203562, 0.20362261214342814
1.331250363766314, 0.007803479675203562, 0.29416532450407906
1.433178655829394, 0.007803479675203562, 0.44707947599172204
1.5132676056928518, 0.007803479675203562, 0.3859261784500708
1.5199309110007926, 0.007803479675203562, 0.4538012061225544
1.4210621427961905, 0.007803479675203562, 0.45046114940190307
1.5149805598167725, 0.007803479675203562, 0.38315607058367973
1.448671177864702, 0.007803479675203562, 0.39966808161521605
1.4050402356628444, 0.007803479675203562, 0.44265410200014643
1.3722647491413889, 0.007803479675203562, 0.44571659212465453
1.4557508413143099, 0.007803479675203562, 0.38076707649254327
1.456199000155148, 0.007803479675203562, 0.5201463408152243
1.5166881016876925, 0.007803479675203562, 0.5577836975773995
1.468448312959811, 0.007803479675203561, 0.6068648688139088
1.3906926630503524, 0.007803479675203561, 0.5836116969699588
1.5157496918230473, 0.007803479675203562, 0.5249414739897336
1.513250676963219, 0.007803479675203562, 0.5671053128413179
1.505999800079036, 0.007803479675203562, 0.5243047001456285
1.476857777213842, 0.007803479675203561, 0.5081900724392355
1.4835404155540193, 0.007803479675203561, 0.5278771716082138
1.4601633158738685, 0.007803479675203562, 0.533922200754565
1.4998539299459852, 0.007803479675203562, 0.7189004122561359
1.4797900968352713, 0.007803479675203562, 0.7281578791916874
1.504443897384221, 0.007803479675203562, 0.7343387335303743
1.4675503753713754, 0.007803479675203562, 0.6832007390472674
1.4749710299690133, 0.0078034796752035635, 0.6830795825684233
1.4188284037716046, 0.007803479675203562, 0.7087624511942789
1.4920404820340316, 0.007803479675203562, 0.6855277130624148
1.502270274737186, 0.007803479675203562, 0.6891702408857806
1.468939742350095, 0.007803479675203562, 0.7509159493651281
1.46504959414738, 0.007803479675203562, 0.8283514197135678
1.4320870625956692, 0.007803479675203562, 0.854973928449501
1.4404949458037153, 0.007803479675203562, 0.845454770854904
1.5205037472662717, 0.007803479675203562, 0.8528843376175264
1.5055373770992877, 0.007803479675203562, 0.8907990581664399
1.4294158079554795, 0.007803479675203562, 0.8742637228897026
1.493274660308492, 0.007803479675203562, 0.869752377043034
1.4672105595265699, 0.007803479675203562, 0.8057121721035728
1.4744469965487215, 0.007803479675203562, 0.8428773667446278
1.431621026170347, 0.007803479675203561, 0.8327072938563193
1.5152977947994632, 0.007803479675203562, 1.0239382212650499
1.4948931319458143, 0.007803479675203562, 0.9433651690730197
1.5209570866639401, 0.007803479675203562, 0.984475357982551
1.5092020228011822, 0.007803479675203562, 1.010377745904193
1.3889542694768289, 0.007803479675203562, 1.0389483733321863
1.370268384239496, 0.007803479675203561, 1.0583182496380412
1.4520672462033652, 0.007803479675203562, 0.998101544626591
1.3985319455181773, 0.007803479675203562, 1.060395203737334
1.423868346964754, 0.007803479675203562, 0.992265057159339
1.4579112291986471, 0.007803479675203562, 0.9960345748352458
1.46563707570151, 0.007803479675203563, 1.1474452283380399
1.4881517516764073, 0.007803479675203562, 1.2090405917557292
1.4419878886839221, 0.007803479675203562, 1.2070956634133188
1.4781306972716228, 0.007803479675203562, 1.1291131139042243
1.4956233335351934, 0.007803479675203561, 1.197010181563533
1.350331202270962, 0.007803479675203562, 1.2129689131933399
1.3611866972324402, 0.007803479675203562, 1.2094780295308114
1.465894341305207, 0.007803479675203563, 1.1150079733928384
1.3839630532238358, 0.007803479675203562, 1.1816790823672223
1.4843552229099117, 0.007683685227032133, 1.2156913394661069
1.5175930357871257, 2.69343410452413e-07, 1.2165383848917237
-1.1469992981439434, 5.035876996644845e-07, 1.1001376386675552
-1.2136445274292231, 5.066128221388778e-07, 1.1493023910532645
-1.1494633708889443, 5.040517776645118e-07, 1.1997683570911424
-1.2200467874343606, 5.070461128510622e-07, 1.1936478912805177
-1.2292033117190717, 5.072470020083294e-07, 1.1407706666860227
-1.1976252756208718, 5.060945046143262e-07, 1.1954731486212633
-1.3051351481663311, 5.107481815494033e-07, 1.211927512423483
-1.2753114175733187, 5.093793951794927e-07, 1.185748495486075
-1.2226765820079764, 5.07165354768511e-07, 1.1955523048765475
-1.3250321269676406, 5.114605284989874e-07, 1.1760312839472262
-1.2782630159530755, 5.094126811306394e-07, 1.1607962227888744
-1.3184360023490727, 5.110065981674746e-07, 1.1310881541000608
-1.2247669925704212, 5.069800886476026e-07, 1.119991625207894
-1.2772045140278747, 5.09082362988669e-07, 1.0868500262190415
-1.2125909957050387, 5.062505667175553e-07, 1.0651261981697036
-1.1822758184296152, 5.04997812200902e-07, 1.0745955917540815
-1.2764525283098092, 5.090482836093424e-07, 1.0863063041710719
-1.3205836331151497, 5.109232619127512e-07, 1.0858149449892722
-1.244245513403622, 5.078801000968671e-07, 1.1385493059913736
-1.1642393618093956, 5.038760759169101e-07, 0.9769520109946144
-1.1577706569658133, 5.034292556827443e-07, 0.929273930558038
-1.1530743372800418, 5.035194136228778e-07, 1.009766911757771
-1.2062210220191452, 5.057405812160989e-07, 0.9989005163081395
-1.2201643986720772, 5.064663403466364e-07, 1.0357620152809999
-1.1471526177993332, 5.032081692629929e-07, 0.9932744323684228
-1.221240211168898, 5.06373537886342e-07, 0.99728948860321
-1.1886270734429556, 5.050118307167681e-07, 1.004318199311801
-1.2249945420062043, 5.065191802970499e-07, 0.9933945333172964
-1.2005434291142034, 5.054446082700095e-07, 0.9837655052317047
-1.296717606169727, 5.094143152016461e-07, 0.955964623454539
-1.2904014719215173, 5.092658703445184e-07, 0.9867736880470951
-1.3221457637353837, 5.104061089000235e-07, 0.9340835610088053
-1.3088349866298608, 5.098558035009934e-07, 0.9374685469327784
-1.3043199610297411, 5.096671098108608e-07, 0.938090720784839
-1.2041170749764492, 5.054454955182892e-07, 0.9431140491576594
-1.1720564924245096, 5.040320391032368e-07, 0.9284659896859532
-1.2950693266807891, 5.092699328956516e-07, 0.9366259121876879
-1.2491392643760886, 5.074348486797574e-07, 0.9648393794143804
-1.1483962086186859, 5.028742609339452e-07, 0.8862846384124433
-1.195732464339283, 5.046048700194907e-07, 0.8105130061694091
-1.2426656185308802, 5.068937420598873e-07, 0.8945081127135037
-1.1524663232827443, 5.030478136239974e-07, 0.8866425195411455
-1.1874521449069189, 5.044853631784152e-07, 0.8746476101197811
-1.1552786178919203, 5.030423073206509e-07, 0.8520595374431374
-1.2617269001806855, 5.076677269143928e-07, 0.8854088149714772
-1.2628081323491194, 5.077218537457929e-07, 0.8877316681014851
-1.1413519469020021, 5.025441597482536e-07, 0.8774096272252729
-1.1940592512819403, 5.045028122670503e-07, 0.801837554209252
-1.2915290123875773, 5.087266821393101e-07, 0.8325462070207625
-1.2950398592254326, 5.086047594474228e-07, 0.7626189253502844
-1.2775414359689037, 5.08172120635966e-07, 0.8415080340525929
-1.3303023669458394, 5.106097639390769e-07, 0.8973427525107073
-1.3254573328139014, 5.103284941013576e-07, 0.8773326475515538
-1.2822754085000343, 5.083495212549583e-07, 0.8358090239610816
-1.2879960709778957, 5.087192405935183e-07, 0.8691851832583579
-1.2636824419461816, 5.074735738408837e-07, 0.8117470904216136
-1.3241035226672417, 5.103241765816752e-07, 0.8909926143677438
-1.2189785299160352, 5.052552149489533e-07, 0.7223389530457557
-1.1845484257260366, 5.038284984415423e-07, 0.7288457268924138
-1.2365485508607723, 5.060410043372993e-07, 0.7350458280455705
-1.2021201035369042, 5.044607924992289e-07, 0.6989129711652455
-1.170208361274308, 5.030171869487001e-07, 0.6712783241672882
-1.1758973916316309, 5.031642069130187e-07, 0.645568098324564
-1.1623771167635677, 5.029105758478391e-07, 0.7332615964594034
-1.2015976672529392, 5.046196460453134e-07, 0.7491308399691629
-1.167610940611127, 5.03092538354774e-07, 0.7225772687233387
-1.1888398363819996, 5.03974593320632e-07, 0.7192236249745494
-1.3227017581509009, 5.094205224976273e-07, 0.6716399431778431
-1.2697866063252996, 5.071697000502841e-07, 0.6630914462496964
-1.3037507345520778, 5.084978759817351e-07, 0.6383790577797965
-1.247239372198129, 5.062817834255482e-07, 0.6778898865167371
-1.3166177609653236, 5.092954446004724e-07, 0.7053074571505693
-1.1877137240677813, 5.036223922022622e-07, 0.6352639205025233
-1.327680354345448, 5.095473677278046e-07, 0.6504364891413009
-1.3078515911394417, 5.088905367607229e-07, 0.6955920634623896
-1.3217654583458969, 5.094897324481802e-07, 0.6997443349299701
-1.2962821279926056, 5.080768419191589e-07, 0.6103915316867694
-1.2348165000149387, 5.052148668946985e-07, 0.5312683944274128
-1.2135451638548607, 5.045645550231952e-07, 0.5982449059062491
-1.205886939581597, 5.042736616886323e-07, 0.6065980238260469
-1.1570321081256254, 5.021763262920567e-07, 0.5928044284350046
-1.1513838788235298, 5.019379244460981e-07, 0.592341477202562
-1.1977372755288762, 5.037124568228294e-07, 0.5456203634447494
-1.2207875013651501, 5.047117797307461e-07, 0.5548430732269977
-1.1419205016349236, 5.01491625605884e-07, 0.5785538176902033
-1.2750460683325076, 5.070720081428238e-07, 0.5787444904131873
-1.3024819946135546, 5.07772462652765e-07, 0.462634989208761
-1.317200172148682, 5.083971501183124e-07, 0.4654400107203963
-1.3078728589798996, 5.079949782457626e-07, 0.4620322076057966
-1.2647762377972227, 5.063410107262165e-07, 0.4992218437046991
-1.2171964748963284, 5.04413008510446e-07, 0.5138510399750573
-1.2835054037854436, 5.072809708271294e-07, 0.540378002428362
-1.2998249857967377, 5.07859866850941e-07, 0.5140061816169168
-1.3156333835922047, 5.085391893822575e-07, 0.5191862158962366
-1.1745767019069981, 5.02494959575332e-07, 0.47744725417568606
-1.3083805901532966, 5.080682675616905e-07, 0.47553776143163135
-1.308838398274709, 5.079659350550563e-07, 0.4432512028483125
-1.1976128896856473, 5.032587471769948e-07, 0.4243100560730583
-1.157133908488003, 5.014962212439295e-07, 0.4036956656354821
-1.1585098696279053, 5.014582549268355e-07, 0.3772160178390599
-1.2962425347676583, 5.074833806469853e-07, 0.45513446364473825
-1.2220883126666908, 5.042439650393562e-07, 0.41442405883213496
-1.261428249767288, 5.059657195257364e-07, 0.43690891740612425
-1.1834720668264336, 5.024393411594154e-07, 0.36054480580032205
-1.2142594128769943, 5.039902565591785e-07, 0.43464542488829616
-1.1721928107786117, 5.021144067842396e-07, 0.40094944757957884
-1.2959376530555673, 5.072744195115732e-07, 0.40241659535420543
-1.2929121162862125, 5.070925213580534e-07, 0.38781755635694304
-1.235630798930707, 5.045873958543103e-07, 0.3546899331391987
-1.2290749050435485, 5.04361410156403e-07, 0.3666368114302728
-1.2136505644984503, 5.03533130025989e-07, 0.3178790703155941
-1.1570565560211792, 5.011767457581106e-07, 0.31590693191702374
-1.3079011653624866, 5.075382601620009e-07, 0.34211715576447993
-1.2991066971618634, 5.072917444699919e-07, 0.3728210428991621
-1.1878322807912114, 5.024858628165499e-07, 0.3241631654609254
-1.2797642931668607, 5.061091800463137e-07, 0.27229577257529275
-1.169555477814545, 5.015293421303346e-07, 0.2706484451017387
-1.1479235117538422, 5.00495065855658e-07, 0.23274219743106184
-1.2789624836677063, 5.061083518043715e-07, 0.28130662467307505
-1.149263643661917, 5.003092571670971e-07, 0.16569881662565483
-1.251498344494517, 5.049109958302659e-07, 0.26532954070472803
-1.1907403421230758, 5.022988596207813e-07, 0.24018503289456933
-1.218455431057544, 5.034863072408686e-07, 0.25051840954932586
-1.302731734344736, 5.071524651002334e-07, 0.29731237778152053
-1.1570562547488195, 5.010952441646165e-07, 0.29415459630558494
-1.2466367537806438, 5.043865112315356e-07, 0.17973356378439867
-1.3231320785909664, 5.079197810024646e-07, 0.2767369409843306
-1.317153528830029, 5.07285734001008e-07, 0.17639141049306314
-1.3243693570879416, 5.076382179152715e-07, 0.19051546518726767
-1.302261399709641, 5.068808931749219e-07, 0.23086166030167116
-1.228540357818203, 5.036965730628074e-07, 0.19460716081371202
-1.2871287607163207, 5.062470863750415e-07, 0.2285607942978533
-1.3278903704468894, 5.079646954115819e-07, 0.23744704535173092
-1.2685974703255103, 5.05283289699459e-07, 0.17710825530963176
-1.3146672332029468, 5.075503296584205e-07, 0.27158419049687266
-1.291571255713874, 5.058720215833543e-07, 0.08380428364746759
-1.272937044743367, 5.049961285418978e-07, 0.05623993506587198
-1.251365727320711, 5.041908784379062e-07, 0.07841804336583338
-1.3027852313376074, 5.062949959191734e-07, 0.07340490115092428
-1.2333869982325187, 5.034666312185326e-07, 0.08313914639963452
-1.1662811744170514, 5.009525137863854e-07, 0.1497796057528436
-1.2904985424521085, 5.058346324592068e-07, 0.0855952213281164
-1.2042153465845187, 5.024072071362938e-07, 0.12078804591214219
-1.3157780340020724, 5.069076986956144e-07, 0.09313786948531363
-1.1553275846524804, 5.002900589293722e-07, 0.09211059638532708
-1.1453675915725705, 4.99782544332794e-07, 0.0648349655927704
-1.1761509627991507, 5.012278406710897e-07, 0.11490851665974353
-1.1529421288602253, 4.999733432073749e-07, 0.031392917778564434
-1.1471811584862486, 5.001334959094746e-07, 0.14158231012982372
-1.1797801591038362, 5.010359224586044e-07, 0.020220436724678773
-1.2589922881666753, 5.043619338356474e-07, 0.03994668854069641
-1.2175414398911992, 5.02757006663851e-07, 0.06725486841422147
-1.2356973760891057, 5.033650573742258e-07, 0.028938637264057383
-1.1834577392043963, 5.014352909336711e-07, 0.08914432287625698
-1.323576850481593, 5.068293142083019e-07, -0.01105092029487588
-1.28261633297664, 5.048838615340727e-07, -0.07902581375748889
-1.3019384262087277, 5.059318493527389e-07, -0.01320307252876658
-1.1672184428693573, 5.00416082756147e-07, -0.007992685832786593
-1.2936013750359225, 5.05435002421431e-07, -0.053177991403716963
-1.3124579330830959, 5.062396435307835e-07, -0.045457593348086495
-1.3206294000318115, 5.066673810829117e-07, -0.021628101877156365
-1.2095478765041106, 5.02168298102523e-07, -0.004668809124986141
-1.2666809225430504, 5.041949194955516e-07, -0.08786978154567585
-1.2572863186437422, 5.036848224240623e-07, -0.12196155082349383
-1.2281187507864901, 5.024722697321868e-07, -0.12751741832334168
-1.1802202399256674, 5.00597554634542e-07, -0.10428724172230967
-1.1977973191566629, 5.013094358578162e-07, -0.10616828928540797
-1.2511488536954019, 5.034136576652544e-07, -0.1275784392736116
-1.213881108086531, 5.019208209431407e-07, -0.11900106361634799
-1.24857447714992, 5.032691089500682e-07, -0.13848888663940415
-1.1648537791753883, 4.999937894294801e-07, -0.09748233698930572
-1.16489243868455, 4.998292697895393e-07, -0.14360337352878588
-1.1816796994060719, 5.008116972542518e-07, -0.06139523950551887
-1.284215940741447, 5.046260392591403e-07, -0.16537937075924902
-1.3311432866253208, 5.062738854543372e-07, -0.23556690572967842
-1.2787172424430098, 5.044168255124957e-07, -0.16133491954908025
-1.3247741210584125, 5.059157884435912e-07, -0.2608840008349377
-1.2413465109300186, 5.027506110018714e-07, -0.19717120215686668
-1.3092762059048857, 5.053187492915253e-07, -0.2513965651704118
-1.2350078262918651, 5.025140218021573e-07, -0.19132084854727374
-1.304292587190377, 5.053009415332894e-07, -0.20320447085481236
-1.2991620311717234, 5.048469554671499e-07, -0.2664970455880708
-1.2817079342519437, 5.044376335405853e-07, -0.1876320801464294
-1.148456493821288, 4.99034838482429e-07, -0.17718328226379246
-1.1483784149027347, 4.989479703181824e-07, -0.20042400172346161
-1.1650271789942375, 4.993381283167452e-07, -0.28015511453688696
-1.2393338168695878, 5.022847348106864e-07, -0.3013182136945058
-1.2177190857637976, 5.014738215332128e-07, -0.2823293514400041
-1.1901813557763883, 5.002875059576854e-07, -0.30067722593766977
-1.2727193823083098, 5.037635242532413e-07, -0.26781321769726
-1.2024161738451111, 5.007873166725817e-07, -0.3000955727254736
-1.2042286842408294, 5.009841536713356e-07, -0.26591048687957203
-1.1790332923684737, 4.998176670845146e-07, -0.30511672269939794
-1.2911140747913603, 5.041197870681671e-07, -0.37182115021438034
-1.1928248210383967, 5.002875660305606e-07, -0.3287402138047933
-1.320430306426302, 5.054670639483175e-07, -0.3317291878102831
-1.3192259974969462, 5.051138505677005e-07, -0.41057945197252266
-1.2490078669174256, 5.025728763188962e-07, -0.32880064125304476
-1.3176332051411748, 5.049352111055738e-07, -0.4400863647778118
-1.2454326953324193, 5.025132719230766e-07, -0.3065534244015067
-1.2355181095534336, 5.018959640201526e-07, -0.3620141003673535
-1.3274299100128337, 5.053766726872404e-07, -0.4289598263736149
-1.257630128434613, 5.026377552458089e-07, -0.4033297116354959
-1.1984911245176666, 5.003217148630132e-07, -0.3817765962264605
-1.240251526185419, 5.017955178501615e-07, -0.441880108695348
-1.2237039959249687, 5.012111596450572e-07, -0.4181654250529011
-1.2530799761779685, 5.024638254219792e-07, -0.4004868159303033
-1.1643680862559411, 4.989498663002654e-07, -0.3791977348027008
-1.1499489159938654, 4.9852421763417e-07, -0.33533427385227943
-1.2137734029005043, 5.006818408163525e-07, -0.4535339857433326
-1.2296373798088924, 5.014806499635064e-07, -0.41001982805946746
-1.157087013968166, 4.986944844749557e-07, -0.3682795121692102
-1.3201741384420134, 5.046813876322994e-07, -0.5332471145257828
-1.1853651819998725, 4.995016523228358e-07, -0.46154195797781467
-1.3226758339133768, 5.046977564872796e-07, -0.5552467501343794
-1.214265979858837, 5.006453244691898e-07, -0.46830421086468893
-1.2162889898124156, 5.006640557579845e-07, -0.48467036914540895
-1.2207396883297759, 5.009034020135655e-07, -0.46932711165559865
-1.2438433740259947, 5.01648515624072e-07, -0.5185709738204644
-1.3058302716569625, 5.042547460579213e-07, -0.49335463134220403
-1.3290803086762317, 5.051184100181678e-07, -0.5134099645978938
-1.1639440562135697, 4.981362211702506e-07, -0.5990679089834976
-1.173633228490548, 4.986345728791657e-07, -0.5690284483330661
-1.1481766164971632, 4.979692079789599e-07, -0.4691245411910283
-1.2923448251297116, 5.033118960480243e-07, -0.5976675352434234
-1.1790708850152734, 4.988990219722203e-07, -0.556399515587253
-1.1973639209370173, 4.995296733767557e-07, -0.5858352169649057
-1.1468513681267876, 4.97824261869081e-07, -0.49455570353746725
-1.2103487150212118, 5.000399876378173e-07, -0.5893277005465549
-1.1645592790816601, 4.98182859908219e-07, -0.5929963478755251
-1.16891350868815, 4.987018483777776e-07, -0.49756715179253524
-1.3092416540741034, 5.038339162183686e-07, -0.6393755668733957
-1.1674592501727983, 4.982166692204546e-07, -0.6154662286652193
-1.2754972577511805, 5.024042193459768e-07, -0.6577313728317535
-1.1961897908995485, 4.993338859076898e-07, -0.6257671799168226
-1.2046693714573917, 4.996366174460978e-07, -0.6358062597263979
-1.320215539414423, 5.038595512220683e-07, -0.7472587677169444
-1.2974352678523458, 5.031585531965754e-07, -0.6911887213269953
-1.2941228613355196, 5.032719754904987e-07, -0.6272247283811518
-1.3012924290719479, 5.03608021769466e-07, -0.6149582119840253
-1.2447967136148803, 5.013047993597856e-07, -0.6222586433120285
-1.2604840835381066, 5.015969674771541e-07, -0.7107900671670485
-1.1735655854708842, 4.981066540416326e-07, -0.7130125027603134
-1.1843729041074709, 4.984107463705452e-07, -0.748801879552838
-1.21304178906367, 4.998252583666516e-07, -0.6749646631858788
-1.2494192812669622, 5.010748746603016e-07, -0.7326679654967887
-1.2496919876560537, 5.011737795163942e-07, -0.70823902178445
-1.2505447508548675, 5.012242891211012e-07, -0.703700703884095
-1.269998399014698, 5.018310640769397e-07, -0.7516309792090383
-1.151444294856721, 4.971452948418229e-07, -0.7338625790665749
-1.22333423569309, 4.99711606331023e-07, -0.816903469103554
-1.2777248205442642, 5.019066807959544e-07, -0.812766162200385
-1.2697774797248744, 5.017905616238681e-07, -0.7603474513407809
-1.323425785062036, 5.03876071652603e-07, -0.7768957446707467
-1.176255371953022, 4.980213950480758e-07, -0.7661234594449754
-1.260420349715214, 5.013306151961261e-07, -0.7823898684725406
-1.285655639337644, 5.022497080138154e-07, -0.8062136118884728
-1.2282975402134275, 4.99889306123616e-07, -0.8223842762019822
-1.1790210283444766, 4.980747157292395e-07, -0.7810192404507854
-1.301014559962115, 5.026415175291672e-07, -0.864138354014394
-1.2143269558439818, 4.991389930026522e-07, -0.8756342960388767
-1.1966034701744737, 4.98529925120969e-07, -0.8486002840247826
-1.1760872685404096, 4.978159149207657e-07, -0.8197973223338837
-1.1429641974323443, 4.965177620269237e-07, -0.813666901935502
-1.2688328983189743, 5.013305036116542e-07, -0.8703604712411444
-1.2379189253822738, 5.001233472777288e-07, -0.8634121711816263
-1.1472198349631517, 4.966180942364967e-07, -0.832906617370868
-1.1423258325126828, 4.963255664022064e-07, -0.8599683430481043
-1.1998951853101798, 4.985221307922089e-07, -0.8871951320785834
-1.2132486714660593, 4.989187132424052e-07, -0.9239552425891883
-1.2878555549818267, 5.018867415671262e-07, -0.9254272816592064
-1.2701027925297486, 5.009502320423697e-07, -0.9847591267694207
-1.2542678103147757, 5.003880656800079e-07, -0.9668776905546944
-1.323465475613483, 5.030828769880989e-07, -0.9832827562901849
-1.2533346321982872, 5.003268105527708e-07, -0.9731138206276402
-1.260255741118853, 5.00541055128524e-07, -0.9890848927756075
-1.2275250567332576, 4.994114006766352e-07, -0.9437432240576387
-1.1994937431826849, 4.983575644427731e-07, -0.9272987704937894
-1.1779188202669957, 4.975298232817444e-07, -0.9189529423195985
-1.2412024249709437, 4.995994244397175e-07, -1.039530154306025
-1.1962306583422013, 4.981119527846787e-07, -0.9573943600550108
-1.2127197562788297, 4.986750207481005e-07, -0.9826006883731206
-1.2087261422791422, 4.985089702744166e-07, -0.9847361119921557
-1.1502422828017522, 4.961152538084571e-07, -1.0054611038782142
-1.1512276672471513, 4.960821181347382e-07, -1.0255113008200833
-1.149702656247075, 4.961416832418059e-07, -0.9921809945474
-1.2245781301903766, 4.989275081352956e-07, -1.043058888705369
-1.1577885969717385, 4.965967863998602e-07, -0.9548433106134825
-1.3112155347164156, 5.02346048523046e-07, -1.0477561465130607
-1.2974430367991387, 5.017445666944315e-07, -1.0631218007793644
-1.29944991750881, 5.016920358586898e-07, -1.0973594498001344
-1.2849539521324214, 5.012331491208932e-07, -1.0673161485391514
-1.194487461883217, 4.97634993577589e-07, -1.0701312855810472
-1.2956525219604598, 5.01411060412755e-07, -1.131152905271939
-1.291888583075317, 5.014912323594487e-07, -1.0716953300143477
-1.2523535561829093, 4.998747431239489e-07, -1.0843412297040054
-1.328149621099719, 5.024653746385502e-07, -1.1918746227124644
-1.3005468663142081, 5.017160299235139e-07, -1.1024139845242678
-1.1871104898546236, 4.970553610984673e-07, -1.147741254222893
-1.146425342441963, 4.955743732314516e-07, -1.1133230701754278
-1.2541895015197349, 4.995182419962391e-07, -1.198621397905065
-1.202021098097381, 4.974344636724471e-07, -1.2058032441713413
-1.3097227392032507, 5.01686863409373e-07, -1.2047388166279787
-1.2385657707001239, 4.990210764421352e-07, -1.1655332006681922
-1.196353294663726, 4.973259419374268e-07, -1.1738517129071109
-1.1636423832797091, 4.960955319798265e-07, -1.1572022658750458
-1.2678275950090645, 5.001372874334703e-07, -1.1761124583616926
-1.2359559355367615, 4.989912639176455e-07, -1.1452227445985927
-1.3129824407505373, 0.00020506969108773584, -1.2199916223688112
-1.20714085532988, 0.004607150889482041, -1.2185975233594306
-1.1817685873671886, 0.007803479675203562, 0.7467263730401013
-1.2270362809490891, 0.007803479675203563, 0.6772750993257856
-1.1511803847314694, 0.007803479675203562, 0.7430862274619843
-1.156886385089317, 0.007803479675203562, 0.693429435469057
-1.1640859249927211, 0.007803479675203562, 0.657519515636135
-1.2059810761916465, 0.007803479675203562, 0.6848030581267616
-1.2115215606694008, 0.007803479675203562, 0.7137596082337488
-1.2472246113878762, 0.007803479675203561, 0.6970422052576823
-1.2393729513153295, 0.007803479675203562, 0.7016229708087243
-1.2358355519187458, 0.007803479675203562, 0.7358172640885057
-1.3174804918434824, 0.007803479675203562, 0.6914542400451805
-1.3242259731093575, 0.007803479675203563, 0.7440622309674929
-1.249203411012478, 0.007803479675203562, 0.6238179741072412
-1.1911310958569215, 0.007803479675203562, 0.6098795453994384
-1.3251276792494906, 0.007803479675203563, 0.6927635067524254
-1.2674246485437457, 0.007803479675203563, 0.6085160148832669
-1.2730027887869175, 0.007803479675203562, 0.6321193702490293
-1.2980507971973827, 0.007803479675203562, 0.6770963858246957
-1.3202123807977726, 0.007803479675203562, 0.6878311539250255
-1.2132025675986853, 0.007804619758034079, 1.2153164512629395
-1.2542032911928283, 0.0037111350511459234, 1.2204252019711075
-1.2730434585295796, 2.0312774002725509e-07, 1.2178655149147564
1.0110620645114188, 0.007803479675203562, -0.6820065453544448
1.0986245588922638, 0.007803479675203562, -0.7434623180463801
1.0940723061335547, 0.007803479675203562, -0.7262951115849798
1.0280833717444293, 0.007803479675203563, -0.6757339880482659
1.090289055609881, 0.007803479675203562, -0.7265276237208119
0.9851701276329901, 0.007803479675203562, -0.7106858589568708
1.1069923621977837, 0.007803479675203563, -0.7534683801312732
1.0273167351367505, 0.007803479675203563, -0.7146400208040045
0.9954717149121948, 0.007803479675203562, -0.7227879697615558
0.44175006565748914, 0.007803479675203562, -0.6471759583638145
0.5258940993918857, 0.007803479675203562, -0.6572263760750998
0.4648732595787907, 0.007803479675203562, -0.6615021546662283
0.50315940713707, 0.007803479675203562, -0.6113763260348731
0.5028688393925391, 0.007803479675203563, -0.6853970131593395
0.5513725213385271, 0.007803479675203562, -0.6542937468178013
0.5335724788991483, 0.007803479675203562, -0.7078285524259875
0.4883761601635188, 0.007803479675203562, -0.6534933055246116
0.552830105723303, 0.007803479675203562, -0.6788671159366393
0.5078232063924701, 0.007803479675203562, -0.7094435757025025
0.3828591269393629, 0.007803479675203562, -0.6806414628795685
0.3877581262792025, 0.007803479675203562, -0.6786420152448779
0.4788917412249693, 0.007803479675203562, -0.7063356465135744
0.4172075784849229, 0.007803479675203562, -0.7178506126874894
0.543845170170636, 0.007803479675203562, -0.755977717736526
0.4055731372394079, 0.007803479675203563, -0.6533324839751431
0.4356504189328324, 0.007803479675203562, -0.6972943222705466
0.38588301964319394, 0.007803479675203562, -0.674424027489213
0.40525398995511375, 0.007803479675203563, -0.7099444816812643
0.4117251240650608, 0.007803479675203562, -0.7173368135674453
0.15682045723360594, 0.007803479675203562, -0.6698391417995888
0.16466120948964624, 0.007803479675203562, -0.6177495231478037
0.17578128763113915, 0.007803479675203562, -0.686126273908281
0.1860388788947911, 0.007803479675203562, -0.7127302424212176
0.09121683379286846, 0.007803479675203562, -0.6459327732056277
0.015340561409104263, 0.007803479675203562, -0.6113504787828218
0.17680599045082748, 0.007803479675203562, -0.6883438540766362
0.08606640855022266, 0.007803479675203562, -0.6373437689580521
0.08084119732403183, 0.007803479675203562, -0.643608318884617
0.011054040605168519, 0.007803479675203562, -0.7166496137045469
0.1142580555491848, 0.007803479675203562, -0.716039957247946
0.16307939509525146, 0.007803479675203562, -0.7422330220980987
0.07618954783357389, 0.007803479675203562, -0.7504960250909776
0.008180552869554684, 0.007803479675203562, -0.6653832159430058
0.037409485965474235, 0.007803479675203561, -0.654545464138721
0.03601104325773811, 0.007803479675203562, -0.6470363821837974
0.15563877475723306, 0.007803479675203562, -0.7442689846397496
0.11484259138133503, 0.007803479675203561, -0.7061659493741387
0.016206860690370577, 0.007803479675203562, -0.6857468301233824
-0.43745732668397325, 0.007803479675203562, -0.646098836626371
-0.4691598818274154, 0.007803479675203562, -0.625342315645008
-0.4161797387892231, 0.007803479675203562, -0.6506866187047793
-0.40741065699248247, 0.007803479675203562, -0.6694441078156522
-0.39158180903908685, 0.007803479675203562, -0.6725930932517779
-0.4775370168765635, 0.007803479675203562, -0.6385259129401845
-0.4685163331342971, 0.007803479675203562, -0.6471082322653325
-0.5367084591804474, 0.007803479675203562, -0.6306556493281457
-0.4005539916626702, 0.007803479675203562, -0.7232698405765817
-0.4284511449015721, 0.007803479675203562, -0.7027449562482472
-0.3225093236143724, 0.007803479675203562, -0.6245368835178642
-0.22870237150403408, 0.007803479675203562, -0.6863728493849846
-0.2371791892712788, 0.007803479675203561, -0.6887335153206783
-0.20561935412936086, 0.007803479675203561, -0.7404203666884692
-0.3286737709090736, 0.007803479675203562, -0.6104936652944398
-0.29478522616806113, 0.007803479675203562, -0.6102605958142768
-0.30709857804506774, 0.007803479675203562, -0.6556764679866869
-0.21076226374314477, 0.007803479675203561, -0.7069675794101797
-0.27140194693494124, 0.007803479675203562, -0.6621335042504766
-1.5228625075379971, 0.006560945977087294, -0.6300149799787009
-1.5272067793421982, 0.00036873896617713745, -0.7327260851948829
-1.4144561739570514, 5.079242347201644e-07, -0.6729998516246332
-1.488574281438065, 5.111217839283614e-07, -0.6212882754038394
-1.4413396987880454, 5.091472311720174e-07, -0.6388875058180002
-1.4666817129424465, 5.102590606603514e-07, -0.6167016789377014
-1.5073174347744964, 5.118161465744593e-07, -0.6359657317700427
-1.397883163194561, 5.073734308808192e-07, -0.6446765039150134
-1.4519525496819246, 5.093868575666008e-07, -0.6845001211099423
-1.5003004284468067, 5.111144989001322e-07, -0.7377788983024992
-1.5052369514972748, 5.114921241303814e-07, -0.6943317983840674
-1.3940248340495063, 5.073028056127883e-07, -0.6240873631966997
-1.4036331178087547, 5.074389230401043e-07, -0.686336110274387
-1.3475146551326616, 5.050332371409855e-07, -0.7271198904596151
-1.3657240991026485, 5.058133790503685e-07, -0.7140056012422593
-1.4068722995193537, 5.075631976367219e-07, -0.6877613101898771
-1.4237176512595142, 5.080386927144832e-07, -0.7394364367789437
-1.3462478551552273, 5.053560676453333e-07, -0.6303014200053065
-1.4053729282967526, 5.074415772763099e-07, -0.703712679652889
-1.4297939805041784, 5.084766724792833e-07, -0.6890193748991573
-1.4491011865273902, 5.091274210473981e-07, -0.7208369386943198
-1.0705585851263701, 4.943263462905824e-07, -0.6127493041526353
-1.132387188454132, 4.964092140195149e-07, -0.7257478814464715
-1.0614356426434977, 4.939501973347844e-07, -0.615184469713052
-1.1131855976716463, 4.956386086420022e-07, -0.725015272544878
-1.0111987749396187, 4.919338146480121e-07, -0.613339404522322
-1.0711552440019494, 4.941559481177869e-07, -0.6667349419563277
-1.0667712899612485, 4.938639127067374e-07, -0.6988040233262783
-1.0071070866606073, 4.91779636430663e-07, -0.6103980269427207
-0.9669567727232089, 4.90137414903172e-07, -0.6174444665149478
-1.053073666678819, 4.935404830000608e-07, -0.6354484790935045
-0.9934044072275209, 4.90783165487969e-07, -0.7409936397579882
-1.0085544526626409, 4.916253396374569e-07, -0.6706559494267
-0.9799904537411366, 4.904267688709399e-07, -0.6868587650602169
-1.0503724621177148, 4.931445465244428e-07, -0.7173659666403891
-1.002669683872968, 4.91170478902603e-07, -0.7361763067976499
-1.0952106677218596, 4.94821374991389e-07, -0.7531246076791462
-0.9606376737367341, 4.897262442166719e-07, -0.6644816360251123
-0.9637410716145361, 4.896041883792278e-07, -0.7381654572719341
-1.0771816823302423, 4.941870853855552e-07, -0.7268004485903331
-1.0662250234878352, 4.937205185453826e-07, -0.7350538256030016
-0.7173671349834889, 4.800850703042036e-07, -0.6195917826913525
-0.6932369933348612, 4.790959525437056e-07, -0.6252331058532574
-0.6501667176292147, 4.77415977356062e-07, -0.607597538057467
-0.6779257002090848, 4.784270819549285e-07, -0.6421751071751198
-0.6354227436717003, 4.767977758941229e-07, -0.6155255590537692
-0.7053739025220999, 4.796134799443829e-07, -0.615908554240131
-0.7600784781429347, 4.814280212896018e-07, -0.7417301975028979
-0.6680261604193796, 4.78070854225256e-07, -0.6284322984887515
-0.7041596810110077, 4.793403329632096e-07, -0.6885590215790596
-0.5994698344208346, 4.7529680016122257e-07, -0.6329654000064303
-0.6372651149297103, 4.7657665814678403e-07, -0.7157911579339888
-0.5941690317342065, 4.7497548444598636e-07, -0.6714650475378965
-0.6543521700674544, 4.772742990065159e-07, -0.7111745860431121
-0.6028898179605416, 4.752439201521806e-07, -0.700073553874696
-0.6058293761781389, 4.7532901976008877e-07, -0.7116191773567869
-0.6717076366980357, 4.780159891614886e-07, -0.6947916836138409
-0.6401493380097995, 4.766788552345445e-07, -0.7205112626707518
-0.6434621061714858, 4.768869743467594e-07, -0.6938670671576006
-0.684908082835062, 4.784980495487386e-07, -0.7113315042536543
-0.28756228327387634, 4.627406141402229e-07, -0.6361758031875512
-0.33358670088239933, 4.644797746578795e-07, -0.6805777490668165
-0.29470185514884883, 4.6309844774423114e-07, -0.6088365845640515
-0.3338221127301988, 4.6460945719487715e-07, -0.6338495327378794
-0.32089894512609246, 4.6390679111526984e-07, -0.7047010679721644
-0.28740817620058556, 4.6274070907616394e-07, -0.6337264169484614
-0.37277176895846886, 4.661867450323006e-07, -0.6304263725156182
-0.3483803432829974, 4.650338336357502e-07, -0.6967780222728694
-0.33044472594307195, 4.6431817726223825e-07, -0.6942117172625095
-0.3531836114207755, 4.6533150998182645e-07, -0.6562508243054718
-0.25530606253110855, 4.611910816257546e-07, -0.7418578546068639
-0.36500890473540176, 4.6555057694555755e-07, -0.7572490012527286
-0.2253650874300868, 4.601484838654925e-07, -0.6740593449870034
-0.21991388185734995, 4.5981736879429004e-07, -0.7227492985894219
-0.20836655199227933, 4.5937976410202815e-07, -0.7119387658595542
-0.19105637502153933, 4.5865739741335413e-07, -0.7244021794946589
-0.2931182125751596, 4.628012373941935e-07, -0.7007123941828476
-0.19981982952399627, 4.5894414631172243e-07, -0.7521986411297862
-0.22693641456983335, 4.6020811055145004e-07, -0.6754964115662672
0.10676759244094934, 4.4684576771797393e-07, -0.650819720905496
0.006454296297814697, 4.5075075580750443e-07, -0.7162229994252962
0.1471579083006995, 4.452396903370031e-07, -0.640894108587306
0.09050387964711082, 4.4750919613595266e-07, -0.6466917483076807
0.06744489333003503, 4.4831810865702355e-07, -0.704841581896084
0.12058040181733405, 4.4628419560081807e-07, -0.6534124398148095
0.006709305550345691, 4.507346823782754e-07, -0.7190435516058795
0.12627329837000517, 4.461296039054695e-07, -0.6171324639757227
0.03666690362011847, 4.495677720534484e-07, -0.6998629786083201
0.14131345344841428, 4.454712468788421e-07, -0.6427394563739948
0.1498505162964222, 4.450801852835457e-07, -0.6694823668245883
0.14759258479808798, 4.4508258815197013e-07, -0.7183902939112311
0.12703531002542826, 4.459605462243307e-07, -0.6882044224349733
0.1856705157033547, 4.435933858390539e-07, -0.698198890175943
0.12253752495478336, 4.460212378668436e-07, -0.7545790331553335
0.1773754220358448, 4.438721700555174e-07, -0.7279410883514013
0.10619507729139593, 4.467087257921091e-07, -0.7363936687824901
0.08654765929636679, 4.4753323493376856e-07, -0.7156475606194592
0.17954241255049846, 4.4385790419753335e-07, -0.6876454329001679
0.3846669588540025, 4.3559851211152196e-07, -0.7017865914973519
0.515128634202151, 4.3044913793705634e-07, -0.6342472350054732
0.4753540204898832, 4.320620233423943e-07, -0.6270024439793538
0.4253825477944195, 4.3408138673693294e-07, -0.6224425205276859
0.3974023828507728, 4.350256638629692e-07, -0.7406581090704312
0.4094314362292265, 4.346241098069818e-07, -0.6869827327492036
0.4417673722235418, 4.333282835635075e-07, -0.6828850193088613
0.3834165202227723, 4.3565490591970363e-07, -0.6978739397884006
0.442176456388828, 4.333378044060753e-07, -0.6660441239072084
0.3857366625966151, 4.356388611606964e-07, -0.6477381483976679
0.4552274194139206, 4.3275486449345855e-07, -0.704035865252319
0.517600949228071, 4.3021495771658126e-07, -0.735884346716349
0.4699701508132044, 4.3216704244538194e-07, -0.7018344156722067
0.5060561117808628, 4.306808667156424e-07, -0.7332601031374035
0.5657409076052354, 4.283304087321449e-07, -0.7015753561795028
0.49347966073853367, 4.31195928632469e-07, -0.7245549651699525
0.5573920841734671, 4.287111922219045e-07, -0.6655859925330504
0.5224532524302287, 4.301199140444103e-07, -0.6586441385261845
0.5385053842371703, 4.2936564121311196e-07, -0.7450571555226256
0.46184184122323274, 4.3246955504397624e-07, -0.7198235223247655
0.9748508629905275, 4.1190213849535276e-07, -0.7053407073692506
1.0521869010649914, 4.0880987525001214e-07, -0.6767925928883717
1.0327891180295368, 4.0961384891449426e-07, -0.6471866619342953
0.9757893165923072, 4.1184045600723454e-07, -0.7363163923669233
1.0067220265827015, 4.1064773082197365e-07, -0.667705875103286
1.092125242405918, 4.072418354637297e-07, -0.6245992027516067
1.045701909441324, 4.0907239473580656e-07, -0.6750134824170545
1.0297715873187632, 4.0971654458143095e-07, -0.671585488450306
0.9821340642633197, 4.1159530003269585e-07, -0.7229055526784334
1.0503286643945673, 4.0885973487218486e-07, -0.7240430042285977
1.110173239691504, 4.0647354093632424e-07, -0.7018150010011839
1.1358507233730544, 4.054159284363296e-07, -0.7579397063973482
1.138693642769382, 4.0532399713074057e-07, -0.7152245474440889
1.0107796644643543, 4.1042699545296533e-07, -0.7575626250884602
1.1044383047938717, 4.067182781227615e-07, -0.6727039323124939
1.118417710649319, 4.061355777596967e-07, -0.7166995110533071
1.0033296194998933, 4.1074150284210685e-07, -0.7263988772837102
1.0083510388158574, 4.1052967065053123e-07, -0.7471128340170525
1.0687610831237295, 4.081380591343272e-07, -0.6913678219624391
1.307564693646426, 3.9857846559551605e-07, -0.6093008450297899
1.2281881192614361, 4.017356951952535e-07, -0.6855691445932187
1.1534548705620902, 4.0477076145568387e-07, -0.6357978336424122
1.142124794635062, 4.052036269492987e-07, -0.6812795396186362
1.1694761906530275, 4.041093782303902e-07, -0.6673226877646539
1.190290538417944, 4.03257818638479e-07, -0.6933324046954499
1.157440922694427, 4.045761364420568e-07, -0.7021197752576723
1.2196279546991726, 4.0210866678180863e-07, -0.6306232089912348
1.1578280183516603, 4.045939376340874e-07, -0.6371966883578326
1.169095298115276, 4.041153123113019e-07, -0.6856085842237674
1.312057578103126, 3.983613110481204e-07, -0.7373002537014453
1.1704295399428721, 4.040321152683957e-07, -0.7504860228004252
1.245546433710364, 4.010393827857271e-07, -0.6853152510383318
1.2884327771231443, 3.9931625215079755e-07, -0.7044892156104625
1.319441715940394, 3.9808956217535566e-07, -0.6436018601922667
1.2751660580152033, 3.9984605921113235e-07, -0.7111464956497942
1.277981434082235, 3.9972269702117627e-07, -0.752246749804692
1.2937887346417398, 3.9908859618713573e-07, -0.7553435916914913
1.2580742753854168, 4.0053855452207543e-07, -0.6810836347079211
1.5242346771696451, 1.656429750094715e-07, -0.71097303467795
1.5262044425411219, 0.0036250779356414367, -0.7517256737475065
0.8648054544143822, 0.007803479675203562, -0.33604917451056626
0.8535621736668604, 0.007803479675203562, -0.32280752155773396
0.9277586691957521, 0.007803479675203562, -0.4297211864121244
0.9186823077633957, 0.007803479675203562, -0.41144139493298265
0.8588769339266238, 0.007803479675203563, -0.3782280090858048
0.9432628442648965, 0.007803479675203561, -0.37622180182729636
0.868714009928155, 0.007803479675203562, -0.3220924265649464
0.8064847453303968, 0.007803479675203561, -0.33276779256508127
0.7975443531346235, 0.007803479675203563, -0.3127453092056904
0.9309598525197614, 0.007803479675203562, -0.32906722191752524
1.1360529280764926, 0.007803479675203562, -0.3438338305942098
0.980607485296068, 0.007803479675203563, -0.4405130164033948
1.0904881730118905, 0.007803479675203563, -0.3480278495794035
1.1021821488152843, 0.007803479675203562, -0.3945035835827371
1.0871188088693011, 0.007803479675203562, -0.444520145633147
0.9900072955482953, 0.007803479675203562, -0.4323231537814206
1.1169436046992502, 0.007803479675203563, -0.42590101155431764
1.0776898595189817, 0.007803479675203561, -0.355844312859654
1.0551382259086644, 0.007803479675203562, -0.39280520337273467
0.18170973024003576, 0.007803479675203562, -0.3243203829226193
0.1126047564557488, 0.007803479675203562, -0.3679126048379242
0.047057930785186226, 0.007803479675203561, -0.30856279444456186
0.12274436014858389, 0.007803479675203563, -0.38900172875491473
0.11849932539858057, 0.007803479675203562, -0.3820135464400715
0.13116287351751163, 0.007803479675203561, -0.3993852527851579
0.14468218225355908, 0.007803479675203562, -0.3676496321987101
0.0751401284185032, 0.007803479675203563, -0.349523797954594
0.16102638406334485, 0.007803479675203561, -0.3959852452596254
0.1758581501644948, 0.007803479675203562, -0.4036894893140554
