-0.057510199960223, 0.31086167606187726, -0.1294992033364858
-0.05130156051411182, 0.3102708518044086, -0.13208638584245916
-0.034500700738111977, 0.2911133675439056, -0.139374835739773
-0.04698432089124008, 0.296537240777076, -0.1351485557580142
-0.0412894544094141, 0.2978588099707096, -0.13682367849142252
-0.042453187131368836, 0.30915691129641076, -0.13529539282412656
-0.02967372706114839, 0.30490988314357215, -0.1391143307086347
-0.02911370500856773, 0.29965541730775336, -0.13977176448463818
-0.022949924070189233, 0.2951470770137776, -0.1413340397152244
-0.032908870599561484, 0.29554727849928075, -0.13930055079212278
-0.036242506423537525, 0.30596423955097235, -0.13747970608036972
-0.03633968717959043, 0.31060633387425735, -0.13699142719299442
-0.018530119730216725, 0.30676460202723554, -0.14085523670290392
-0.0184647438703237, 0.29639086707412465, -0.14189019598737834
-0.02448509516918259, 0.29880183413318606, -0.14074047780438553
-0.006921308298915954, 0.28728980431600626, -0.14382658562721895
-0.004664874776468518, 0.2980155374702752, -0.14293890417991478
-0.004821002309535851, 0.29825749011710956, -0.142903929846194
-0.02337327837287885, 0.3125260883805393, -0.13955267598882753
0.002752834244779605, 0.29091036216961785, -0.14359338487595247
0.003303969964096051, 0.2927376675965705, -0.14341136189803733
-0.014535185348893413, 0.3001056713732163, -0.14202141461878254
-0.01267369151538522, 0.3089711936054711, -0.14128742855988327
-0.007786292989057187, 0.3101780055123803, -0.14152215387263464
0.004008582541420448, 0.2997663460702698, -0.1427201839793557
-0.003014624991606131, 0.3108350949803501, -0.14168323413424003
0.0004734826496474091, 0.31401316672139357, -0.14135063536132325
0.013046512341628558, 0.3194291457628437, -0.14022756644694212
0.007054931869932411, 0.3015502340505055, -0.14249417453561836
-0.0016338779100464763, 0.2959248077354292, -0.14313125039734448
-0.0008223149591661419, 0.2983309301767928, -0.14289102707555285
0.018578153801397254, 0.314216881533617, -0.14019141699393023
0.01622115689504498, 0.30421495187835096, -0.14144740520885535
0.015048112836563498, 0.30421506793202435, -0.14154791368291014
0.023401445431282142, 0.3073350048106367, -0.14007519420973508
0.014853265137693474, 0.2908710390454898, -0.142873100483084
0.0177782784025595, 0.29106661377741383, -0.1426032770738438
0.02084768200692103, 0.29848964193674704, -0.14137346506779924
0.03027043434628126, 0.31779811428158056, -0.1377628186701325
0.029409214987784288, 0.3178138761647106, -0.13797388074855918
0.03487927699438651, 0.3033831764559794, -0.13807544068663213
0.025373436841605375, 0.287593936982949, -0.14170392680299204
0.02575945336802471, 0.2906488282289684, -0.1413375745973262
0.040249490983435096, 0.31512629088928357, -0.13549406495828437
0.0362028260284837, 0.29668147810225154, -0.13842304031750208
0.03806920160743373, 0.29211590470933607, -0.1384216437151571
0.03610714318880586, 0.28614953509793745, -0.13950651560342456
0.04052138373731225, 0.3070994469533393, -0.13623011387233178
0.04929044645126581, 0.2963598545293307, -0.1344248824606868
0.050037262358293914, 0.29535123764312976, -0.13428081562906174
0.05130256238611755, 0.3150388804693018, -0.13170947759235935
0.046834449453416166, 0.2822786961922885, -0.13668966601445032
0.04518108076384855, 0.28383135063822174, -0.13707864530283545
0.05296528040348532, 0.30410666432750394, -0.1321666416704449
0.06090539226092774, 0.3099661212370451, -0.1281396672560315
0.06296445075669935, 0.31864018109398157, -0.12611831286657108
0.058043879371714, 0.2986632889329497, -0.13059890969839355
0.0626136239458296, 0.298704669696229, -0.12849369619506626
0.06396660468999162, 0.2999900947884883, -0.12765120656287407
0.058503021184357136, 0.28381751331994226, -0.13197949653501878
0.07810102049449907, 0.320762007230358, -0.11717554923611566
0.0640335313341025, 0.2990511628270576, -0.12771984373643705
0.06682139008352847, 0.2965666825728385, -0.1265486936807042
0.07715837670540635, 0.30602249157654443, -0.11945725228528944
0.06672054395084767, 0.28649172932259925, -0.1277095504992164
0.06767786963147691, 0.2890869461444991, -0.12692794560282714
0.07359624237658241, 0.2987951675812451, -0.12250330626255582
0.08067853138465056, 0.3120005606895744, -0.11645860573904122
0.08303294481786501, 0.3184646405076119, -0.11394087519194723
0.07993693761310991, 0.2889300970437265, -0.11969613727453143
0.08716421824807034, 0.30759101410952533, -0.11221843420927559
0.08055753673152241, 0.30419529615604296, -0.11749467597045078
0.09423088564267933, 0.3186217324038379, -0.10488942644349902
0.08375521426161882, 0.2966277792715183, -0.11605848661601195
0.08326208634053853, 0.29725510967656726, -0.11634544705677359
0.08821254981169661, 0.2909238246364754, -0.11346875647777069
0.09113014682653614, 0.30536484348187976, -0.10928869021087942
0.09655980267724326, 0.3010485248647838, -0.10514365850235091
0.09533159006893535, 0.3002822979804186, -0.10630652446480186
0.09995731157406419, 0.3141410478538977, -0.10004827447812496
0.09830997372135147, 0.28578587235483927, -0.10560053335645896
0.0985078840760231, 0.28192613806064215, -0.105928007268645
0.09846635759907404, 0.30386210127870794, -0.10298974141224485
0.10463006772901622, 0.30358435329847594, -0.0967799905946231
0.09932103831678908, 0.29665810292882805, -0.10312555966675227
0.10595436443141261, 0.3201840369771094, -0.09282629346485738
0.1071694875739777, 0.30452931786304754, -0.09375786561856334
0.1065448300496454, 0.3010153611838287, -0.09503154073858679
0.10585298645498326, 0.28740147638036384, -0.09779167972587754
0.11237727134394096, 0.2990591834619457, -0.08840926689140607
0.11198738351518228, 0.3029642962138589, -0.08827981347098252
0.11339479248835932, 0.31161145173976257, -0.08500814564798549
0.11386693252573547, 0.29945874742798717, -0.0863874544371851
0.11588708536943516, 0.30180160711366116, -0.08317670663894068
0.11353530931486089, 0.2887791113962579, -0.08859384740132008
0.11894294397264209, 0.31136918072544206, -0.07719422842717352
0.11553581923868189, 0.3005689855067953, -0.08387337983203831
0.11484677937830626, 0.2958843294317386, -0.08562007994779194
0.12066736178094607, 0.3038068726773315, -0.07576624219326879
0.11801705318399618, 0.28982443735517954, -0.08221410613734129
0.11992745306905712, 0.282479023248675, -0.08078107443435881
0.12474154200360031, 0.30500594577366835, -0.06878620393788028
0.12370910303500546, 0.3204119800265026, -0.06750578144812361
0.1256773125731792, 0.3148107448902923, -0.0647987674808594
0.12389306465693598, 0.2819976228782805, -0.07454446963930259
0.12711080502772354, 0.30317959531306904, -0.06447446608688216
0.12846122982465333, 0.30547106938065494, -0.06127895806847413
0.13041230639030651, 0.3214191098298148, -0.05294857878234159
0.12864620538688576, 0.29521006490188945, -0.0631480008726571
0.12815217922896058, 0.3025862030431142, -0.06252516123727966
0.13103565300998388, 0.29684652364754677, -0.05778892455110275
0.1294001855988429, 0.2860921065029063, -0.06363190557292873
0.13422239206060327, 0.3018550828291678, -0.0486537817758667
0.13122623185932342, 0.29712218069088286, -0.05724880074341707
0.13504177093488784, 0.3201191370092587, -0.040246111669281256
0.13355702532032335, 0.28543275480804825, -0.054549218784931644
0.1347915587757531, 0.2896692733137505, -0.05041473971357078
0.13417693121302357, 0.30341263675078156, -0.04835378102220372
0.13813451646807032, 0.32155443644323733, -0.02742155135587813
0.13722404155320342, 0.31676916407837163, -0.03339595090406363
0.1374077968813149, 0.29574560122533583, -0.04066415132348451
0.1372582889853327, 0.2861821868296084, -0.04421842023733762
0.139305681908794, 0.2827499612487175, -0.038885546027228005
0.1386586368209715, 0.3028291364625282, -0.033240683307922
0.13915987551579445, 0.3135343226472157, -0.02638625968083759
0.13958593895281685, 0.30924833935777934, -0.02636960645095573
0.139995141814695, 0.29795736749841867, -0.029598241828399714
0.14115340568033996, 0.29210655727426077, -0.02714360262537211
0.14101257245045096, 0.3082204090484479, -0.0176175814708539
0.14028039202046266, 0.3051106609608499, -0.024483432970762095
0.14231646908028817, 0.2952921771162823, -0.017443773168607898
0.14075011963470838, 0.3139227075892278, -0.015618116833524699
0.14057432049100865, 0.3170946643294318, -0.013749619266842723
0.14206512296472995, 0.30592709992877115, -0.008254709884113205
0.142856695497052, 0.2879512103732488, -0.018667085231322128
0.14235097891831533, 0.2819685530644466, -0.025912287911923584
0.14193499640941415, 0.309928152722436, -0.0038687490488487023
0.14243680943789896, 0.29910825910403116, -0.012357945875187914
0.14315778967653048, 0.29587848806265515, -0.0067552961285144274
0.14227197643232392, 0.30643593152299536, -0.0031970827767633923
0.14401126452698512, 0.2872985366679157, -0.006575807959229085
0.14409083534136707, 0.28396869441919576, -0.009991083032094963
0.1413316274794561, 0.3140897411625715, 0.008081790565932315
0.14275461771256887, 0.3011743921366763, 0.0017732704894838807
0.14146553873930484, 0.3075087709198571, 0.014050797040155948
0.14257409374274743, 0.30197893246967766, 0.007442771269908449
0.1440262121702912, 0.28811155704850444, 0.0025337985167489577
0.14255544445985333, 0.2988951633392367, 0.011189730344801689
0.1427227584339677, 0.2972066989395944, 0.011169592822886817
0.13927692287341936, 0.3197139621232977, 0.021737327753121663
0.1435531947433665, 0.2859909361500165, 0.014314582660860904
0.14325290572516014, 0.2873786253442936, 0.016230788906845033
0.1414757116015, 0.29905714477165474, 0.02081238515719122
0.13865795999545732, 0.3142339709096279, 0.02870403519203743
0.13740487955201222, 0.3171580113457808, 0.032587072841930756
0.14045728470871102, 0.2990654636451531, 0.02696540396006614
0.13766905966083487, 0.30531315659831804, 0.03634532040908461
0.13880543310008514, 0.30427929415459865, 0.032164455534157664
0.14136605120035803, 0.28887103704416106, 0.02757534228434704
0.13747057185599015, 0.3007741031886195, 0.03899935321452873
0.13798466211829696, 0.29685582218075646, 0.03851444143467861
0.13352781702432068, 0.321638885693771, 0.044595408170498445
0.13939691116594988, 0.2878422500985635, 0.03646895335375188
0.13524568519171754, 0.3070745339250598, 0.043937558310150206
0.13617758736700322, 0.30630151021928814, 0.04136986269260455
0.13396117517284745, 0.30132885723998704, 0.04958943869914061
0.1301453702058768, 0.3174553059226098, 0.05473940947681033
0.13162416774561425, 0.32087566015925084, 0.05037923031177909
0.13318753800196761, 0.29944614798508606, 0.052059600636912576
0.13455534184326665, 0.29204677976427834, 0.050678490784797775
0.13449998966121063, 0.29376958655139757, 0.05031087227873559
0.12968295969350085, 0.3058223914447063, 0.0587557241083334
0.12592406253122912, 0.3209327870364921, 0.06312368996438202
0.12501234623114743, 0.3199105205623195, 0.06510038208158073
0.1266302852304962, 0.3021399610475185, 0.06575225878576513
0.13132633141227207, 0.291241576489083, 0.058526736186240255
0.1325437696657794, 0.2879653033161534, 0.05646713784684277
0.1274176027443002, 0.29774308058839033, 0.06516665755120112
0.12160859307889547, 0.318200404912547, 0.07166513707470412
0.12248066872717199, 0.3020377768605648, 0.07325368178701842
0.1221538898158897, 0.3043665112678519, 0.07334831073070323
0.12615541367718175, 0.2874724288630922, 0.06978406715636326
0.12039302668473145, 0.29748995304331566, 0.07745323005003438
0.11889053695657606, 0.3036822461122741, 0.07872390804577332
0.11641556957332326, 0.3215159416957502, 0.0793498222458001
0.11761178976321573, 0.3019057105547416, 0.08095717893505475
0.11429100933941419, 0.308344689487269, 0.08440625610607966
0.12463049507759812, 0.28334085436834355, 0.07325602379667011
0.1134024077741429, 0.29692951549713875, 0.08749457220945632
0.1122457175261288, 0.30517993157512824, 0.08770579461758371
0.10712455266486112, 0.31807938718334755, 0.09188009570638803
0.11076624684326355, 0.3012659010003864, 0.09018518750585545
0.11030342106758831, 0.3083766216746718, 0.08965820523715022
0.11718588233240482, 0.28220317369940695, 0.08478294619887856
0.09969970955689077, 0.28752248840959155, 0.10407720184712492
0.09741687588056372, 0.2863000575814434, 0.10649689316421582
0.10938798473781763, 0.2844029453260486, 0.09429333036508704
0.09677241281352919, 0.30427179115692227, 0.10466578867905732
0.11039472173873906, 0.2967424724454586, 0.09128927545744198
0.10694332661521148, 0.30292641346439164, 0.09435099780831216
0.08970731469737037, 0.2881551183482498, 0.11277667637460502
0.10072828201454266, 0.3014055379733099, 0.10115695499609088
0.09892385389699031, 0.2970680388559775, 0.10353230507140837
0.1025042249316174, 0.3115589877711675, 0.09801139710231435
0.09075084366587988, 0.307941811464032, 0.10936810705125591
0.08923713419116434, 0.2994015537735636, 0.11173564726077255
0.09288587161752529, 0.29942888958930086, 0.10865633250957252
0.08028898934376026, 0.28445402130775105, 0.12012320788938757
0.08643059951735146, 0.29298860205126925, 0.11469403450412578
0.0938770863825482, 0.31868144657037795, 0.10536013337970535
0.07905499556602133, 0.3084483993525044, 0.11812278118657944
0.07905927466979863, 0.29837530260410144, 0.11933090324609906
0.08667384219176831, 0.2955875156734611, 0.11420715792223689
0.07820668292846954, 0.29438220433261414, 0.12033270570361877
0.08148574052959001, 0.3135565822022474, 0.11576594982181064
0.0811083021718145, 0.3100001365035916, 0.11646416739062143
0.0698280280668792, 0.30485754495014217, 0.12419195120612281
0.07406465843652349, 0.3018995327895183, 0.12197361439262541
0.07603889687508766, 0.3003438363744151, 0.12096012052892505
0.06025796870580433, 0.28722795872748763, 0.13101245037685
0.05983449662702636, 0.2962074714930693, 0.13024314793337488
0.05929006544349173, 0.2957814680181642, 0.13056244894719002
0.07664420349269066, 0.30989774597445385, 0.11950456572986592
0.06711907133374777, 0.3045751339298705, 0.1256792812517091
0.06159882001021874, 0.2981810451421675, 0.12914358058448525
0.054178524253067316, 0.28891368491843766, 0.13337184452031076
0.048592540236603476, 0.3056861173978571, 0.13387415295381216
0.05345348707968236, 0.30670502957795925, 0.13178983539402817
0.06463764988788234, 0.3115635847317981, 0.12615856160872785
0.05489327607836596, 0.2967409817202181, 0.1322554492085236
0.0472462680567264, 0.2944411606759806, 0.13546596481800854
0.040207934637459336, 0.2919558129603109, 0.13795854641625277
0.02815688516635288, 0.30353276649794686, 0.13977476039678433
0.044495547281370694, 0.31610518539406823, 0.1341189841147475
0.045888823431896965, 0.31555399234138687, 0.13373253771580418
0.03126201882015023, 0.29410323801677707, 0.13999817582742047
0.04506302862967149, 0.2959876040423049, 0.13600151158376161
0.04778810582778102, 0.2990069835180452, 0.13482549684968387
0.056529618376649736, 0.31582421703741825, 0.12957682901354362
0.0459554674047413, 0.3065987627103952, 0.1346296587504523
0.043203532335771004, 0.3051959114102091, 0.1356484447397322
0.0365721409546153, 0.33267569140678466, 0.1348920273556616
0.016919606617061305, 0.31012894691034903, 0.140920141521095
0.02149729982082025, 0.3190890515935952, 0.13934149291598924
0.01990361834639826, 0.3284786183698162, 0.13865474010602172
0.031814388093132175, 0.33549111879947896, 0.13571689637968543
0.007625310850099339, 0.31808833839572254, 0.1408970630019516
0.011777532226807245, 0.3198520302258524, 0.14042442419873108
0.026493883472421615, 0.3238247970016551, 0.13811694979681396
0.010447864442592393, 0.3332608199067745, 0.13920667930408637
0.007600031983255455, 0.33014396413083646, 0.13971770867757977
0.020601925546470546, 0.3367195949194459, 0.13773450412990182
0.009893507376192944, 0.3390255287158503, 0.13868190147084786
0.013079544136878207, 0.3416166060689306, 0.13819796178103327
-0.0017873874944702229, 0.34725595353728317, 0.13821677723513448
0.0009654449231705207, 0.3270640861358403, 0.14020750338307278
0.012345475887140656, 0.32357642725911895, 0.14001850345517186
0.013209879438791278, 0.3249829324920257, 0.1398182771359276
-0.003345835623501667, 0.3224471737152499, 0.14063139583511194
-0.009052821322987235, 0.3416778253898916, 0.13849543764868727
-0.008508679879616236, 0.3461317323517472, 0.13810521191152725
-0.008501754404118319, 0.33466314217814264, 0.1392306804932737
-0.0006275249635171164, 0.3136894793746038, 0.14150447709177486
-0.004007054483404677, 0.3162044596298557, 0.14123729320556047
-0.016974548821265596, 0.32338247515019114, 0.13961109332070348
-0.022302659759023038, 0.34293019591958296, 0.13682410339503406
-0.01799258539234024, 0.32609181745891624, 0.13920478962191957
-0.021366751487273062, 0.33427246975879155, 0.1378364519633784
-0.016682477509301408, 0.3174459387660864, 0.1402183992929753
-0.027984191361475126, 0.33304529061522997, 0.13686358549738167
-0.025733491089322554, 0.32808680480160435, 0.13772695936398496
-0.03206111311215621, 0.3441094030238259, 0.1347492830864026
-0.030018003590277148, 0.3322026762323883, 0.13645227273898902
-0.03549288880123253, 0.3340809247287319, 0.1349113868831136
-0.02372196093134343, 0.31598541653113416, 0.13925829157852188
-0.042409314487114366, 0.344876509979828, 0.13177466797386084
-0.035443453435638456, 0.32880139305498457, 0.13545501972930052
-0.03377187948025167, 0.327877193097, 0.1359607841250896
-0.02941126304069068, 0.30933665066021204, 0.13890374012465795
-0.042268716061840364, 0.330490660482432, 0.1333026218866175
-0.0393987031575402, 0.3270226824547424, 0.1346123739170168
-0.05773931483445376, 0.3475226565999346, 0.12558831354990907
-0.04716916713482485, 0.3231376728530133, 0.1324331063994934
-0.04704477392987423, 0.33080176787558185, 0.1316852386138053
-0.04394866631030349, 0.3126706521005606, 0.13457987823198786
-0.055039167808650896, 0.33393989918743544, 0.12816969518545301
-0.058681004018339006, 0.32539672042031664, 0.12753779044696145
-0.05032249238657049, 0.3218850985575178, 0.1314407042910831
-0.06373844253344274, 0.344655429994601, 0.12287909349671544
-0.06222190237068584, 0.32671201331764843, 0.1256397738551177
-0.06713952688995739, 0.3338278441411703, 0.1223085444013771
-0.059707671688964944, 0.31885110806889566, 0.12779854774935095
-0.06850464264775878, 0.34772004547644225, 0.12004491728362876
-0.07173913000224953, 0.3456381478350836, 0.11827355428413416
-0.06825638089463364, 0.3290701810087851, 0.12225348444883041
-0.07164261164717398, 0.33181627747428083, 0.11992403452939254
-0.06809336194968796, 0.31429683169680694, 0.12396393268104565
-0.06463705107809274, 0.3108235799803539, 0.12613708944234722
-0.07942514373252471, 0.34687553625817136, 0.11313270949608996
-0.07696583200386575, 0.33151472871450033, 0.11664921502478112
-0.07533464993387781, 0.32352162313540855, 0.1185831006179709
-0.08334036433502601, 0.3335415236199183, 0.11186822555659218
-0.07760965536969669, 0.3141462890741016, 0.11824751524485479
-0.07753811974423827, 0.3111375901259322, 0.11863819955025019
-0.08133883357280615, 0.32538582949516204, 0.11433160427122575
-0.08864463630670197, 0.33808090007703473, 0.10717068328028488
-0.08873173260078047, 0.32783112173741014, 0.10842038463808212
-0.0889075894089287, 0.33398794272623, 0.10747208078411444
-0.08449409048708306, 0.3101250237902633, 0.11386047288286946
-0.09489378047230254, 0.3244245908122193, 0.10352347856663652
-0.0924245001810152, 0.32346884080260974, 0.10578583423185525
-0.09519680297622479, 0.34128889882179897, 0.10102684139946261
-0.09949586818634445, 0.33166552456876874, 0.0980078362530797
-0.0995439290669175, 0.3293703010563265, 0.09827849772310616
-0.09560192216796612, 0.31441319408371005, 0.10420443217545128
-0.09934631714105628, 0.32426012890892647, 0.09918990863232238
-0.1061310959434613, 0.3432681321533817, 0.08901384277956512
-0.1023973944989544, 0.34816524965216256, 0.09270053830036237
-0.10855004475328472, 0.333677170650907, 0.08759845554320798
-0.10126326833335872, 0.31027935630647974, 0.09919206615537576
-0.10178855642002907, 0.3098526168979015, 0.09871894607450463
-0.11341904957357343, 0.34590233291776273, 0.07908047813140848
-0.10950996932972196, 0.32949276433010655, 0.08709415254194626
-0.10883065283653148, 0.3222165935371249, 0.08900319258070831
-0.11266674592983165, 0.326751166869618, 0.08334187118711577
-0.1092039153788342, 0.31201172696071355, 0.09010762215614962
-0.11862932179208599, 0.34825253709262943, 0.07054384734118735
-0.11690834947931325, 0.3469294062606666, 0.07364680347004207
-0.11268862076013567, 0.32465453965676305, 0.08366300258974387
-0.11431759861898086, 0.3138569542057274, 0.08320174735781982
-0.11787809083494777, 0.3111226117590008, 0.07869392597409872
-0.12158973879801532, 0.3340277875894644, 0.0683276797315728
-0.12262035620828816, 0.34275028711071576, 0.06454756765265225
-0.12142519293678654, 0.34761347713477975, 0.06587228809680921
-0.12136959030740127, 0.3328986420652543, 0.0689062002332473
-0.12156423978550629, 0.31206868979399927, 0.0725240593508474
-0.1238157507162295, 0.33210621976613514, 0.0644835847886028
-0.12490132477969956, 0.3302559551226404, 0.06272029930588849
-0.12582580242004143, 0.3293956620530659, 0.0610626014976406
-0.12727488951201554, 0.34549571822780634, 0.05407145785771268
-0.12728728602662032, 0.34496735239431464, 0.05417803060616343
-0.1269999530726665, 0.3098991966666992, 0.06297230788092886
-0.1273139958449105, 0.3349606152984497, 0.056708051817795424
-0.12892550719737406, 0.32799419657331386, 0.054552415408440545
-0.1316778366494435, 0.34562318035625006, 0.042123289162530365
-0.13084014850795947, 0.3220118964731931, 0.05139612283145552
-0.13121113331587586, 0.3119446783398376, 0.05309525167236786
-0.1332407926104676, 0.30974572070612644, 0.04867477470801264
-0.13254334551713565, 0.3318601280944423, 0.0438397780155841
-0.1347193565788673, 0.3448960678180642, 0.03133447709293337
-0.13434146798508045, 0.34569660153202125, 0.032612999275634894
-0.13443216533828212, 0.33235557539136745, 0.0377391146597869
-0.13622720781189668, 0.31092086633124155, 0.03900619299037791
-0.13618024414436497, 0.31201126791273637, 0.038802235175834004
-0.1354321138887444, 0.3254609467053534, 0.03664995507858804
-0.13643729412786645, 0.3242478938454114, 0.03285409355510809
-0.13735615335703627, 0.32724372119923834, 0.027614804803217742
-0.13649355045584347, 0.34188471172198703, 0.024351052540185693
-0.13758340714871817, 0.3089207407563242, 0.03453687847009763
-0.13816254472351264, 0.3265729055471727, 0.02332231770023224
-0.1375062343623185, 0.33069245377721457, 0.024968171121093855
-0.13818331809969273, 0.34242741002133714, 0.009964826915299537
-0.13875378113734768, 0.3232965766547503, 0.021555840400957198
-0.13887987769470375, 0.32799516257489336, 0.017655883809888046
-0.14027948550030395, 0.3129538935342183, 0.018229780083009368
-0.13912765392021187, 0.32936131209280645, 0.014613819274486111
-0.13854461979608673, 0.33481092094622195, 0.015294384384130536
-0.14012594772196446, 0.32255671021626947, 0.010021057328727274
-0.13809676680538596, 0.3467554855069857, -0.0036095511245077296
-0.13991827360014075, 0.32833779070116076, -0.0001657304038625969
-0.13973098014527524, 0.3302348223524546, -0.0004694178384492566
-0.14099848304467277, 0.31107812944987334, 0.013510518000542633
-0.1403645867272804, 0.3233985031436428, -0.00590471223519847
-0.1403896499893735, 0.32337641674922735, -0.002287084736172962
-0.13810180935676902, 0.34189369239167006, -0.011593338590935835
-0.14108581142672644, 0.3159993262355738, -0.006189475780047786
-0.14176294012376406, 0.3095606785895618, 0.0013874304399672773
-0.1385497455991186, 0.33442721963820754, -0.01491118468224315
-0.14036132747476038, 0.3224300921563681, -0.00750087514312007
-0.13678902442850896, 0.34189382387495965, -0.022216111287417056
-0.13719041472230717, 0.34189616353642605, -0.01978768352304642
-0.13901109223011457, 0.31536070792426574, -0.024669334608362313
-0.14156814428100428, 0.309689494451573, -0.007999027888693298
-0.13989582619787913, 0.3189949643279244, -0.016864530831040957
-0.13863867562530283, 0.3269382126704513, -0.01998806977669897
-0.13838091999007213, 0.3262870642010629, -0.021936533739315426
-0.13826768049745541, 0.324217838043018, -0.023860385439202603
-0.1336653832535797, 0.3474368421618372, -0.03449012605573633
-0.1363195846718687, 0.33339830551726807, -0.02946286518596183
-0.13187578995096447, 0.34738095641268646, -0.04088697904320426
-0.13107555631073847, 0.3438561970825924, -0.044391042518448685
-0.13663816760104136, 0.3226552135538129, -0.03255158614092742
-0.1319727724720477, 0.33125878278201626, -0.045595295047938945
-0.13406767198272945, 0.33077849264995685, -0.03943303965460307
-0.13797291774557954, 0.30877549983008745, -0.03280335073117874
-0.12692547809430943, 0.34512016692471514, -0.054837678447277875
-0.12813413214044994, 0.34499349651945843, -0.05200791022044113
-0.13227698695874085, 0.3260186018957769, -0.04630411077557419
-0.13081727015187636, 0.3238768127755689, -0.05095830222084177
-0.1325664018693391, 0.31407948235286387, -0.04913524912326396
-0.13520006711381782, 0.30955636515197105, -0.04260380596471659
-0.12491405432104599, 0.3378852077032916, -0.06097867170363902
-0.12713087446684057, 0.32806998205224047, -0.0586331145320444
-0.12765281869622414, 0.3255434075758702, -0.058031857078961024
-0.13055449462157437, 0.3138704626677207, -0.054093261153060936
-0.12640546676715092, 0.32866121767369305, -0.060059310641334795
-0.12582985789261725, 0.33155755578820545, -0.06055508173968036
-0.1193866389802477, 0.3472797133513707, -0.06942545046980993
-0.1233252865700824, 0.3292979528391705, -0.06586866662817027
-0.12424964472652289, 0.3138158883208734, -0.06737276006656982
-0.12599526297453903, 0.3113891245521168, -0.0645192029979789
-0.12098675351566138, 0.327298843210684, -0.07054923761739654
-0.11522335979090917, 0.3358605772314371, -0.07822077861155528
-0.11412072353425479, 0.34512539931336617, -0.07819158021549075
-0.11769286887629918, 0.3262355801306147, -0.07604409696135433
-0.11766096622255856, 0.31712625591641486, -0.07778111865437323
-0.11814548142585785, 0.3171173456085337, -0.07700344078438862
-0.11334042701245514, 0.32890802407764397, -0.08192395586052657
-0.1039066282365245, 0.3466815629853035, -0.09098135188611413
-0.10969385971911519, 0.32656673898454447, -0.08726260115310452
-0.11164318798571225, 0.32687365459737505, -0.0845644221888919
-0.107487003938549, 0.3261897390728574, -0.08990583732179756
-0.11448480905729397, 0.31265544327413186, -0.0830480023852576
-0.11122303584248472, 0.3098619850944692, -0.08793854700882985
-0.10401973556221568, 0.3194950453893372, -0.09490796260007543
-0.10109161261902631, 0.31894069566625916, -0.09807840218417047
-0.09596114584895774, 0.3203733498331657, -0.10294273299998691
-0.09477197072291708, 0.3235514674109576, -0.1036796274813364
-0.10398371056953812, 0.32648297202301063, -0.09390670086148359
-0.0870370614379364, 0.3149794725864328, -0.11131345272791035
-0.08916908922808306, 0.31857553676017536, -0.10905666531430339
-0.09665433064918909, 0.32517916936963, -0.1015993818848751
-0.0856479996121109, 0.33337932251607366, -0.11013317705542858
-0.0862890415648022, 0.32992229807258777, -0.11003454664440102
-0.09492175605975688, 0.335733008435415, -0.10186007340505682
-0.09296444461190474, 0.321789999166262, -0.10544648401577204
-0.09234949243840501, 0.32864058970499876, -0.10508947200112886
-0.0789235268325212, 0.31680939459818847, -0.11695008789314877
-0.0773422310988286, 0.3338406472016571, -0.11603627960221458
-0.08632522871179675, 0.3362280749819635, -0.10919825424767707
-0.09093472279934499, 0.3360266400537985, -0.10533826845230035
-0.08108449636017208, 0.32656115119042667, -0.11422852857994614
-0.06996307319469634, 0.31892678198950597, -0.1222649441409463
-0.06897308197909875, 0.3115711616991241, -0.12370151559932357
-0.06911935903036484, 0.32854684847239646, -0.12167623927330695
-0.084481778796746, 0.346683158706893, -0.1093739384053207
-0.08472294161223877, 0.3352852214606915, -0.11057129502507282
-0.058854244115623844, 0.31041108350878877, -0.1289613725186562
-0.07348629442575247, 0.3266554438356264, -0.11925753016131202
-0.0720235669735588, 0.3273065250070638, -0.12006568801688776
-0.07179851548413876, 0.3420508077770056, -0.11851903517159822
-0.0623077685488403, 0.3290875048774813, -0.12519042078186227
-0.04888444711629986, 0.3209057669590046, -0.1319476993616497
-0.04843133874903077, 0.31679274784864786, -0.13256576185819172
-0.06503614939469171, 0.3305373059813676, -0.12366517325717519
-0.06654956701858229, 0.3455332099889491, -0.12126832652968943
-0.06377366705424892, 0.3397003982449113, -0.12329633621519973
-0.05084198692367033, 0.3271215942902584, -0.13049604475563215
-0.0414605820559828, 0.317623470616419, -0.13474298685190092
-0.04240336091006659, 0.31957387044730623, -0.13424328625719262
-0.05564042327210794, 0.32281979832183005, -0.12899836760900707
-0.05541103648064368, 0.3366607635927242, -0.1276318508236745
-0.0459451469625507, 0.334317886864669, -0.13160566336134946
-0.0369307627093866, 0.3340313889999808, -0.13450102306717762
-0.032587125745405496, 0.3199240494789863, -0.13693013895431033
-0.045985056770130844, 0.3238216933993689, -0.13266904401069854
-0.04249761614760267, 0.32380808986940673, -0.13377922606618606
-0.04599490809736568, 0.34348698426003976, -0.1306498157812348
-0.029689009095411664, 0.3291499705254156, -0.13667918399717485
-0.02663042099589103, 0.33206889779393617, -0.13709825567208705
-0.0199001855691336, 0.32065932089786, -0.1392748479906573
-0.0369933060737638, 0.3276305999387338, -0.13513154958268023
-0.03240541393094566, 0.34215164501330764, -0.13474271745770364
-0.031136889984175235, 0.34051529770097255, -0.1352021086882855
-0.019505249950726444, 0.33071794278888944, -0.13834072867082334
-0.0224738695149983, 0.3237018763657756, -0.13858454748701443
-0.018206759047110135, 0.3218379659049471, -0.13941477254363627
-0.012128781631814014, 0.3190782800419595, -0.14033677036788467
-0.00672707109936693, 0.33502564352407926, -0.13916473634291296
-0.006426073828004102, 0.3291504707676959, -0.13976196459166185
-0.020243506300783032, 0.33895891436982417, -0.13741464565605055
0.004665626619158607, 0.31957452781901186, -0.1407807198755624
-0.01426980159261557, 0.324197859861479, -0.13968068667847267
-0.014510882152520093, 0.33006041476898246, -0.13908902495434633
0.00602915061461641, 0.3243970163489334, -0.1403009133481362
-0.009454598756587428, 0.34002990613743184, -0.13847759370427562
-0.01173011622482209, 0.33638701682373473, -0.13867011405736498
0.0007874359786852699, 0.3404251134885148, -0.13876813504820035
0.007368264244876492, 0.3399389942986613, -0.1387029909506387
0.006813824816613058, 0.3387368843622942, -0.1388683785723734
-0.000485103786590426, 0.32583742714828257, -0.1402014426018422
0.011278348364067893, 0.33275700004136555, -0.13907218059806895
0.016698346106922578, 0.3289929675727487, -0.138976822339059
0.013827915720313708, 0.3305943094369721, -0.13906577206495752
0.018015158731057097, 0.3419102551766615, -0.1375421844905192
0.016707744788242017, 0.3125638047769235, -0.1405870345297182
0.016853732303804606, 0.31220241696359413, -0.14060996177713117
0.021873239100671894, 0.3309273622258217, -0.13799169624527374
0.020324114552122696, 0.3230959993354838, -0.1390233980415005
0.026947651075739838, 0.3285118463286167, -0.13739165700783368
0.032833244720839615, 0.34137975414723637, -0.13475694284762424
0.025734101273305048, 0.31539614260436183, -0.1388911460119358
0.03389086061231568, 0.33277171824456175, -0.13536204948100317
0.028630120923681474, 0.33272187180164703, -0.13666603070371436
0.040040019657125725, 0.345786469400154, -0.13240736176676587
0.033499603718079314, 0.324964802151659, -0.1362442839013014
0.03248386132702841, 0.3252764977489746, -0.1364637194385453
0.040595298520972725, 0.3285863440554107, -0.13399366791956885
0.036519348955991876, 0.31804414626941124, -0.13619510718188962
0.03441997080649875, 0.3129416866538656, -0.13722695011121266
0.0436281157412875, 0.32568832693645794, -0.1332852920244587
0.05155387085396964, 0.3474982786046026, -0.12816077170438958
0.05137132661018254, 0.32687224246876145, -0.13042541783766914
0.05060890233514515, 0.3333046960306686, -0.1300652298284444
0.04479840888900076, 0.30868879957986883, -0.13464679290291084
0.05500595013841011, 0.32817036961609913, -0.12875258576302018
0.05824434649285612, 0.3244314201676476, -0.12778133063980412
0.05942738622338231, 0.3372258335125748, -0.12590596700053808
0.06364685458697102, 0.33075586979351324, -0.1244315724400282
0.0619761893293956, 0.3310639907591494, -0.12526332357103204
0.053410864268300544, 0.3089551332609066, -0.1314642219592655
0.06972528899751675, 0.34303310492001005, -0.11982071313659844
0.06788996812418545, 0.32286754916665317, -0.12310099449379158
0.0685977442548371, 0.33436056853037355, -0.12146962416507498
0.07044292731318877, 0.3306401402782901, -0.12080025999931782
0.0654186951897095, 0.31296922494362167, -0.12547064909407926
0.06803561806053292, 0.3172056090281819, -0.1236485379522411
0.07234629883371241, 0.32353030324830534, -0.12043484253150749
0.08097309179853314, 0.3435707585656351, -0.1124114282638961
0.07851933720177191, 0.33586462531260697, -0.11515299330111246
0.07294785025433512, 0.3103045663409914, -0.12158235936918302
0.07894633600073508, 0.32482586356130655, -0.11617791031167994
0.0870099092459533, 0.3386647828040298, -0.10855324250194935
0.0878637727806744, 0.34395711644065247, -0.10712959491071325
0.082807456917236, 0.32764940033185597, -0.11299253973052914
0.08286144937863515, 0.312384624654285, -0.11480480675451457
0.08531013239510313, 0.3146778096935528, -0.1127237088369402
0.09367436595105148, 0.33504675989666766, -0.10324842216626562
0.09318951655072445, 0.3229359628880669, -0.1052337738290943
0.09016904193700032, 0.322678920175945, -0.10788320560713353
0.09521770761347223, 0.3414438775468871, -0.10105456741617927
0.096324384104752, 0.310823324701199, -0.10408411208475246
0.09761416706881533, 0.3271290961018176, -0.10061669062494162
0.09825974543713617, 0.330808859253648, -0.09945030651029434
0.10220827958095727, 0.32189396621398697, -0.09668778349078322
0.10488705675450177, 0.34523807923619504, -0.09029455887563861
0.1029213398221084, 0.3421785755168446, -0.09309019777994143
0.10400431986818723, 0.3101685948312303, -0.09649832028417323
0.10513081380367567, 0.3318549520505927, -0.0920340967898188
0.1047673876828063, 0.3338018174286008, -0.09217009824612463
0.10685789827386555, 0.3218354565488495, -0.0915041344660066
0.11092232049315325, 0.3465008682788199, -0.0826063583769017
0.10863146292091883, 0.310065762384619, -0.09118433220571531
0.11105286496424988, 0.3100511642996776, -0.08831412651578831
0.11095038103860251, 0.32927160228028857, -0.08545639604684678
0.11866918178234016, 0.3451101808314335, -0.07126616087491561
0.11794994340451906, 0.3456153896454819, -0.07236279627205291
0.11365993076744556, 0.32663623029706024, -0.08211882120330415
0.1151768805421702, 0.3119007803495785, -0.08247382738252737
0.11726311889919669, 0.3172201081337655, -0.07867177836321725
0.11878512353103715, 0.32940367555387845, -0.0740447418040835
0.12435781424848091, 0.3454840441503928, -0.06074173722656138
0.12036170679474949, 0.3265591311951792, -0.07196946177760344
0.12129321101460358, 0.323202608215024, -0.07106029018571597
0.1202860300021169, 0.3120720521506835, -0.07483502510591485
0.12299996179819705, 0.3332291142438425, -0.06612544875793223
0.12343255781094042, 0.3224280339116507, -0.06761803291926652
0.12925496345236545, 0.3483430638572957, -0.04881146999299805
0.12423146910997776, 0.3239056122252152, -0.06570096935517773
0.12728014131776982, 0.3233424198024657, -0.05973820289983008
0.12911935528832147, 0.33470209789257444, -0.052682841361844306
0.12573059227475206, 0.311261024755795, -0.06546673712239871
0.13092836854527948, 0.3445035229564156, -0.045320638221204045
0.13140877378016796, 0.3409487650358983, -0.044955943858180976
0.13082010790357965, 0.3311566093188998, -0.04942029288845262
0.1329099778805634, 0.3336427371764358, -0.0425902262736081
0.13227553015284457, 0.32403506105119867, -0.04768401437315226
0.1303303527860001, 0.3103280364939684, -0.056026690716179745
0.13488323358639065, 0.32468840024029144, -0.03927128056454775
0.1346341008570183, 0.3260211510928411, -0.039625101057156276
0.1356570904047379, 0.3483302575113196, -0.026524826942862317
0.1357164265562737, 0.3254104173552181, -0.03614881702086924
0.1354165776125696, 0.3106696120902668, -0.042114498214772915
0.1364389474702013, 0.3110732945358691, -0.0387686523382424
0.13682505774710174, 0.3421036866942333, -0.023160254160311988
0.1372040066998858, 0.3251510401848674, -0.02986925605884841
0.13765812657799137, 0.3245623275960099, -0.028171887309424545
0.13735014974566084, 0.33492222762552015, -0.024379441970793798
0.13815616074091108, 0.30976814001640124, -0.03240871027096335
0.13751435275325705, 0.3112687452425355, -0.03451944198168457
0.13812647935971734, 0.3410632455766382, -0.015132017861448827
0.13863792147246531, 0.3301667382060287, -0.018977665145426894
0.13961378084451623, 0.32797887387080293, -0.012285917121303681
0.13932980316164315, 0.3348173176256209, -0.0069416096288409225
0.13980948977381732, 0.3141554738915925, -0.02169011724375279
0.13877416396590286, 0.34207673196782734, -0.000787804571879022
0.13865546022674607, 0.34320210703864196, 0.0005920516986080678
0.13997648465062007, 0.3293513768943366, -0.005401373586786235
0.1400792348293291, 0.3286736780411244, -6.505056867863791e-05
0.1401667804096366, 0.3280147802851132, -0.003721525782082409
0.14131175248750047, 0.3099742101916906, -0.013197088872470281
0.13848471218871256, 0.34440575454238015, 0.006609383232733362
0.14012497658698442, 0.32789333676981464, 0.004751229740061081
0.14023521900803892, 0.32673862380025137, 0.005159867945274583
0.13873284376831163, 0.33496916149117983, 0.014513653340974252
0.14173290552896356, 0.3113310462634764, 0.00639553924662001
0.14188235730157833, 0.30979064031746234, 0.006563632662489096
0.13726287584537758, 0.34281784773783275, 0.020079863280926806
0.13928869930215249, 0.3278142218992893, 0.01621543810041872
0.139133232290157, 0.33074282318210624, 0.014678071740756181
0.13783969511402291, 0.3348824613289465, 0.02134413896499513
0.14079781533376617, 0.31298564871785184, 0.015574952151816
0.14019561323571347, 0.3189730499127055, 0.015750194739311787
0.1383524712196411, 0.32408368695687484, 0.024710336338434606
0.1338423524705633, 0.34773429121102956, 0.03455182505391925
0.13530234280176337, 0.3328137005500437, 0.03472077649085858
0.13525773973947086, 0.3341662529668302, 0.034350098522324346
0.13900311521289355, 0.31683385394452246, 0.02511768011411496
0.13731702788728795, 0.3218968805299622, 0.031011243130761895
0.13573340336020745, 0.3283885957422885, 0.03477873410562914
0.1333476772928376, 0.3411207692558784, 0.03909533160164402
0.13164772506063233, 0.33447925359009545, 0.04627671810842236
0.13287361324352995, 0.3291742643519672, 0.04422901948302915
0.13665346460201733, 0.31442240257109644, 0.03674535607680073
0.13225178401152235, 0.32909106723050796, 0.04612817595555375
0.1276695580219353, 0.3475300532784514, 0.05304812789344221
0.12997489859777966, 0.33782521807166066, 0.05002730842310201
0.12724084086470627, 0.3339834707517558, 0.0574652802412932
0.1333517301936386, 0.30975809083227696, 0.0488109645122378
0.13372579284663438, 0.30851899980292286, 0.048068382311035746
0.12384333591764184, 0.34204089215253386, 0.06265609562100546
0.12948663617838077, 0.3272463921166409, 0.05384009633398246
0.12881930747786613, 0.3257823158477849, 0.05578775256309701
0.12532488033126038, 0.3331914486502857, 0.06167638151264064
0.13273354017611425, 0.308616958031511, 0.05083130893591566
0.12301391145194426, 0.3237672073377122, 0.06813811158821008
0.12154218873441344, 0.33342330317150437, 0.06892753467932965
0.11816891594842706, 0.3418680120125373, 0.0728175176011088
0.12107764934526002, 0.32705664904198417, 0.0708800974043998
0.1209543828534653, 0.3304193474159202, 0.07045602756749098
0.12349515510714365, 0.31571782485007915, 0.0689190033989632
0.12037389437237153, 0.32355164791278923, 0.07266073173458726
0.11593494578600426, 0.33367587279214916, 0.07792687786279331
0.11239689577431491, 0.34547229038828714, 0.08085965387325748
0.11555030018433482, 0.32899725727033435, 0.07929199992235339
0.1219044510272312, 0.31004029541121336, 0.07269946883812371
0.12142817006469547, 0.30922317055524096, 0.07361677280370987
0.10584258480540214, 0.341289975045572, 0.08989584542545986
0.11349786085853414, 0.3270485486604937, 0.08240083461200669
0.1137243129656436, 0.3232717739421882, 0.08271573518673128
0.10874934918941706, 0.3337827295937608, 0.0876604229940271
0.11129265037874347, 0.31522920921044206, 0.08734398929799063
0.11097336427896425, 0.319494508470485, 0.087074663986515
0.10440789530349888, 0.3116713705971771, 0.09597297248543163
0.09716785210685219, 0.32129933552685785, 0.10193848195123241
0.09480585128669786, 0.32911435800559125, 0.1031957815439668
0.09463723040743217, 0.3316068663482364, 0.10301999522353855
0.10637646300809973, 0.32477997470700837, 0.09174368534107992
0.0890268431958295, 0.3165230597880482, 0.10972465899280581
0.08793759998174425, 0.31950376288988513, 0.11026191240371117
0.09926411008939837, 0.32952684944127825, 0.09874131299796235
0.1000713735232639, 0.34233435091759523, 0.09618701221719468
0.10025029122747262, 0.34002083270251177, 0.09632807736624031
0.0892867397549917, 0.3326395997130307, 0.10744575560557806
0.08329909365952035, 0.3183924933324516, 0.11388447161570023
0.09107788902576522, 0.32931367525087574, 0.10636093478373033
0.09401184013074998, 0.32623770676775476, 0.10428079635056481
0.0897180154786758, 0.3413682718154726, 0.1059666091202353
0.08140988982400768, 0.3329440179582749, 0.11348918043916927
0.08095849402096808, 0.33439353790801857, 0.11363849969361474
0.08202709715362723, 0.32399689221776357, 0.11412250574416527
0.07376998292151714, 0.32144727739303824, 0.11992043192508073
0.07134682666530916, 0.31288995786268203, 0.1223589414929
0.0716498220952479, 0.33358348120811476, 0.11981441145273308
0.07817556112600112, 0.336493081904799, 0.11538116370401787
0.07261587766314309, 0.3238070825721702, 0.12034737272693344
0.0754132259121017, 0.3252223755151577, 0.11849822516216005
0.05943702129731368, 0.31590940199863216, 0.12828889419197245
0.07563027799786351, 0.34320045463549537, 0.1163154563472531
0.07466105607701676, 0.33554291344192516, 0.11777412670615997
0.06204432778380156, 0.3280017301858437, 0.12566106228100013
0.05865332122818581, 0.3222313323710202, 0.12799052339834568
0.067535918824844, 0.32663610578170776, 0.12305924125922166
0.053039434335034295, 0.31808623666802344, 0.13075757377583025
0.051977694275669714, 0.3346190524267091, 0.1294452565843113
0.06681092682351605, 0.344733177998891, 0.12144445742950216
0.0656699978719273, 0.3412791486887782, 0.12239354123123442
0.046518140579354356, 0.32008657562398435, 0.1330676668479008
0.05336548777063952, 0.32441242932296727, 0.12995760484679925
0.056024193105960074, 0.3302272720976411, 0.12826294835462243
0.04514587342876651, 0.3362150197518365, 0.13185007834879947
0.028038144533996508, 0.3277845301008102, 0.13736906178790254
0.027236219460644084, 0.3318640091942377, 0.13714638801674195
0.040489258121704404, 0.32279905270960196, 0.1347063008890737
0.0273980003951977, 0.3203942956665936, 0.13825956361183092
0.02841153156312722, 0.3171673558915361, 0.13834744522013814
0.03829089347907526, 0.3254436010566081, 0.13513405189398153
0.05137837638247657, 0.33592055266346244, 0.12955168468688694
0.019484151899839833, 0.34373286501977107, 0.13721056628912895
0.02130071574821344, 0.3463933500656813, 0.1366725888408729
0.029215227737335855, 0.3517900783933846, 0.13468646244976826
0.032115842910893776, 0.3618039201279576, 0.13300659425191283
0.03244030207647278, 0.36482344008123424, 0.13262810574914574
0.01844791796860041, 0.35253190161972675, 0.13649778637200002
0.018418873069470924, 0.3494944233020721, 0.1368023970989885
0.00574495929415678, 0.3419658758219655, 0.13869338263450912
0.009784397458689906, 0.3441541752696787, 0.138187284569947
0.005897626449130977, 0.3589849323032228, 0.13701486137579527
0.0247723977495338, 0.3671817801531959, 0.13409232147993475
0.0171860982786611, 0.36305265037168144, 0.1356489936283233
0.01209200980785645, 0.3680795989443645, 0.13567649590620173
0.004250205193702476, 0.36782548559069933, 0.13624479931767175
-0.0010950096592570856, 0.35963793198067245, 0.1370110980468694
0.0026383818357674426, 0.35850438485204544, 0.1371455151916742
0.011994742453510659, 0.35541788645734035, 0.13692408000158265
0.002535356918916396, 0.350333616193338, 0.13794337096400527
-0.0024972556142012657, 0.3533782291730293, 0.1376139654262612
-0.007824353929236978, 0.37435110780952646, 0.1353959948176474
-0.007344992735539893, 0.35702341432293483, 0.13713663026514822
-0.0020310152162016644, 0.3383849451900034, 0.13908217833587938
-0.0047256913002900565, 0.34161041498216144, 0.13874989676653227
-0.019914523573241572, 0.3688685772807699, 0.13464985233752408
-0.013066252752751886, 0.35611525540958094, 0.13673545126097228
-0.016184053884577644, 0.3515655543790722, 0.1369145382619516
-0.011886529814923531, 0.3392345217742069, 0.13849226277898505
-0.018021350160546293, 0.360768610688628, 0.13576526223330707
-0.027330785319685042, 0.3503404395083719, 0.13525853267753069
-0.02338406599631202, 0.351519355562655, 0.1357944952246738
-0.028386364303174805, 0.3698510188134568, 0.13306552310645797
-0.02775554454007177, 0.338320175434198, 0.13637891321505274
-0.019337087439272888, 0.3366024418147677, 0.13794133790215563
-0.031107455720539613, 0.36017295712268704, 0.13336782026138666
-0.031258624950086154, 0.3503829081981045, 0.13431593894890845
-0.038043394879407784, 0.37474423682050995, 0.13014842647008085
-0.04197525693292693, 0.37321748844145647, 0.12900050578057648
-0.03504868787145586, 0.34248580964717945, 0.13417504233894711
-0.04648732715021091, 0.361192115855795, 0.12874101970526877
-0.038328666106659776, 0.3488145047883826, 0.13272369477560395
-0.0454078845576882, 0.3577806743734019, 0.12945060077277754
-0.0477895659120715, 0.3744187541878057, 0.12693752232388336
-0.04857606158444405, 0.3434723156958478, 0.12987228448515675
-0.04497274839392452, 0.3363727016029522, 0.13179939400979745
-0.05383074804056633, 0.3572376032937751, 0.12620857082081202
-0.05952148967549351, 0.37354351689737997, 0.12188461025694432
-0.06207885729026385, 0.37325569194818287, 0.12059119958593247
-0.05791754312290345, 0.3503146429122232, 0.12521684902465519
-0.058879204332391945, 0.35015495908686106, 0.12479160112171704
-0.05715364088443452, 0.34106468582512894, 0.12652077536410217
-0.05255270372723861, 0.3367564587603282, 0.1289211107098799
-0.0705524741132626, 0.3671010080004081, 0.11654160190519242
-0.06536131169592893, 0.34991952971004653, 0.12145883243437003
-0.05997790788680571, 0.35020152291216117, 0.12421718694859198
-0.06753738525795339, 0.3467968505784338, 0.12067499620569427
-0.06830414209367441, 0.3577502972103296, 0.11901539917898547
-0.07959289153912293, 0.36987885821818967, 0.11021766059743249
-0.07857103338468203, 0.37037066254076345, 0.11091033229414854
-0.07358846816055015, 0.34948379817571673, 0.11668127882581569
-0.07692673977094239, 0.3429139173165868, 0.11536182131564053
-0.07588776454161894, 0.34065018593283714, 0.11626825358842996
-0.07819498566042161, 0.36162785835096145, 0.11224818206211466
-0.08568674057921931, 0.37270437971643927, 0.10525641143101491
-0.08225808517081584, 0.3520988971928255, 0.11041304931760437
-0.08534238509098928, 0.3590277445674853, 0.10730135794399095
-0.08157599934429086, 0.33545121932462596, 0.11293551089091414
-0.08674035996923367, 0.3582181866140066, 0.10621665217309788
-0.08886211149958345, 0.3537188506865228, 0.10496056691113548
-0.09450461989229685, 0.3662051832112396, 0.09826140832160078
-0.09225366713171176, 0.35051218543040563, 0.10243750983632134
-0.09368554255237874, 0.34917582569016176, 0.10137004759936069
-0.09476390263398848, 0.35697934855994035, 0.09928234915664894
-0.0924917272608533, 0.33949741509445663, 0.10365535325447955
