-0.60933319575876, 0.5591157385990951, -0.1473977501734564
-0.6213017030800928, 0.5612915694178319, -0.062484193725775065
-0.631536715716667, 0.573397697931719, 0.04645293296478795
-0.6303073896124427, 0.5782000862098983, 0.0686278935151878
-0.626161858346007, 0.5582940647007477, -0.0388801306699345
-0.6351639254061952, 0.5555472858857154, 0.015373304123142298
-0.6322093320879384, 0.5518546210781168, -0.007713210553024093
-0.6273942577095285, 0.5320488085971693, -0.03681749161985554
-0.6279648149646755, 0.5290297450186627, -0.025158151001651835
-0.6356368291989559, 0.5434323468951454, 0.011819295633250564
-0.6316115548424021, 0.5238075065890181, 0.005308770809112559
-0.640575951289449, 0.5610678366415359, 0.10381937591800852
-0.6404330823029671, 0.557656493776069, 0.055650504260443344
-0.6406816894441035, 0.5364842424792421, 0.03980812196756315
-0.6450088494279719, 0.5489771061019227, 0.0791928249876058
-0.6412985900613056, 0.5425173815705928, 0.12613209250004473
-0.6444699831548085, 0.5291920227008695, 0.06740078702360049
-0.6457374986022566, 0.5361155804509795, 0.11195619858262706
-0.6465909056543979, 0.5264559892759563, 0.08492566074164534
-0.6371486556494469, 0.4976137788580881, 0.08445412352395079
-0.6364415950689918, 0.5242511985293195, 0.1391997084044092
-0.6420755191129911, 0.5193847162840611, 0.12300208408120318
-0.6375003480375943, 0.5122099103544732, 0.13274824462297002
-0.6316511710367927, 0.49651961146179074, 0.13659264172518512
-0.6247489024667322, 0.47307609450612076, 0.13083163602011327
-0.6345199883761528, 0.48750502872853047, 0.10937944960498994
-0.6168501562219422, 0.4509366564825578, 0.12395061298978871
-0.6287575828246883, 0.4783755487797878, 0.09106262180682596
-0.6213942182214292, 0.461754301198297, 0.12373134438196198
-0.6010230138996688, 0.4284353188926739, 0.14549684787718523
-0.5988202028997627, 0.329108013778209, 0.1185763688660132
-0.5929921224074239, 0.3333719570241519, 0.14511736666105277
-0.5998600157433636, 0.3448047703154292, 0.1289762510945344
-0.5952814111566557, 0.22801658589404405, 0.12289581759375451
-0.6021125496875528, 0.3792535255032871, 0.12006864467223619
-0.5974577578970222, 0.2995202333323901, 0.1291983379088142
-0.5947265148376146, 0.2250064855979219, 0.1290330513519488
-0.5959221182532656, 0.277473567295502, 0.133766961522228
-0.5843134145800395, 0.3135415165505504, 0.15184993596459143
-0.5935992650358334, 0.2537697123068287, 0.13727096704980757
-0.5952981758956437, 0.299033174808937, 0.13692547962770873
-0.587265365719885, 0.23014164981292148, 0.14688161451109133
-0.5943898902039969, 0.3760068470415823, 0.14593556645304956
-0.5950635932524878, 0.32147690550746755, 0.13917929495504122
-0.5925568168457517, 0.31675657454651107, 0.14383060152546404
-0.5854621469294113, 0.5092286858002552, -0.1643460042384951
-0.5789400649191456, 0.5082127684348934, -0.21648683065326946
-0.590787830011938, 0.5003271783312631, 0.02131456837667592
-0.5942669999751137, 0.4893910819278231, 0.04917024011754518
-0.5849754445591301, 0.37913182765105846, 0.09777360997676567
-0.49969126195448077, 0.34248957587693896, -0.29257317440905206
-0.5027044805441814, 0.3513053734295155, -0.32378135060942537
-0.501664428456956, 0.3462064577081294, -0.3118420135465545
-0.49803616533737394, 0.32364401125606784, -0.267480072419044
-0.5052714990584811, 0.3120488403782703, -0.3238136900384857
-0.5040215079255912, 0.31622593791861286, -0.31531572674212227
-0.4983078936587591, 0.32599193918333647, -0.2711761497921298
-0.49438563758372367, 0.4017406443546329, -0.2569830604664882
-0.4964287993316487, 0.3969056182078432, -0.2761361987953927
-0.4991909723180883, 0.4218354952061602, -0.3292115830479907
-0.4952516544934024, 0.40932727012122466, -0.27342533186363843
-0.4974677172219969, 0.41663709804161414, -0.3050439923799725
-0.495417801464861, 0.3116594397116806, -0.23527828542590054
-0.4927383160467676, 0.3336548508833907, -0.2114206787605759
-0.4938809032979793, 0.34218477986255, -0.22608751794522447
-0.4953843795908316, 0.33797057469973735, -0.2415133979756756
-0.4942944961668359, 0.3090430609402294, -0.22230656702878995
-0.4924763138438095, 0.35782693850067027, -0.21461307786192133
-0.4931164746220989, 0.321470428728225, -0.21250948582943235
-0.49287586794624805, 0.3175439067856805, -0.20888644064804018
-0.49401192317911624, 0.2618227670901445, -0.22081645249121012
-0.4858439337772975, 0.21909603836163485, -0.1556879357804568
-0.4925231691293025, 0.2182877511888946, -0.20536986807160074
-0.49353604097261483, 0.2823433039274334, -0.21932362529135724
-0.491772863800655, 0.22482693575690604, -0.20043393007774285
-0.4940677630732543, 0.27434605860885836, -0.2224851869972375
-0.49271190471413884, 0.24578385133714242, -0.2095264569297966
-0.4942748734011444, 0.2522973770272923, -0.2218227033007187
-0.496409582100668, 0.3276509445089477, -0.25073303700129884
-0.4995085370404495, 0.36821120146884356, -0.2974568810691003
-0.49597072873974224, 0.37613939824899045, -0.25830500019645525
-0.49796714111945983, 0.3527137786202387, -0.2754404220184245
-0.4967243057609487, 0.33419766830982056, -0.2561133198716968
-0.49753054387986506, 0.35895942548401305, -0.27198678445728247
-0.5024628623824556, 0.3725882177265685, -0.33302881433718573
-0.4961993838249521, 0.32247580144521015, -0.24692963314561192
-0.5018773630201848, 0.28743802022741555, -0.2884601036103007
-0.506243825105577, 0.29933668727384183, -0.32701344346840255
-0.5009069439569046, 0.25339621437326987, -0.27664159066794713
-0.5024421178913, 0.2776229892671373, -0.29227119254347156
-0.49920480450530214, 0.2515328398104909, -0.2618999487397846
-0.5005674474856808, 0.2577435335743937, -0.27418983929085516
-0.505620899445203, 0.2960735006472352, -0.3213512868774873
-0.5010385259415718, 0.2955204546962187, -0.28212698493962496
-0.49815939619340754, 0.2596385131857996, -0.25380360363853194
-0.5062032182138135, 0.292122421354692, -0.32376240208325907
-0.5048641677902413, 0.23396817281644552, -0.29129732392342345
-0.5067102941606992, 0.22996495657489385, -0.30027532806313206
-0.5046399499699432, 0.21914453893440877, -0.2836993697634057
-0.503866619420609, 0.275043924388486, -0.3029861579987727
-0.5078547610061739, 0.24020988166623267, -0.31125059106290676
-0.5030502802564174, 0.2169921174258883, -0.2735884390355606
-0.49811823218626733, 0.21635004968823715, -0.24478427599511737
-0.4966048427454203, 0.44431614024696137, -0.3222742565086691
-0.49814853366821077, 0.4309684390041626, -0.32634350765764253
-0.4959352400112933, 0.42706757373591375, -0.296734220770129
-0.4959443888671503, 0.429635149962235, -0.2994896380892126
-0.48597703531148095, 0.44404383007461323, -0.18056445799693843
-0.4875695914689534, 0.451228824246761, -0.21309393719559916
-0.4862939071825122, 0.4465724945272664, -0.1883191461735186
-0.4885170283657003, 0.4499108409520298, -0.2259215157070495
-0.5129706779652322, 0.5003113611630519, -0.32277391216210644
-0.4988453400553134, 0.49577830625863556, -0.2802616773078974
-0.4919764462023136, 0.4886760978541942, -0.26015911152673143
-0.5089243504933729, 0.5012319208043641, -0.3103374941287822
-0.5118689030875871, 0.519426165119901, -0.3081887065229163
-0.5079020840701751, 0.5206472430178491, -0.2942296479262715
-0.5029602798389787, 0.5279120472448738, -0.2713583542100606
-0.5076431485507172, 0.5378720828448337, -0.27077164577405316
-0.5037408089743596, 0.5287927755594459, -0.2725152929326048
-0.48794147803478577, 0.5146880186184326, -0.1973560327755216
-0.490648637577528, 0.5095908243544458, -0.23976739002691516
-0.49867322358952926, 0.4699329177012455, -0.30576424292323556
-0.4941647439228094, 0.4673242060584572, -0.28718363878624403
-0.5108720376825862, 0.48760422888676996, -0.32023304414510856
-0.5129805874733964, 0.4848983628345817, -0.3421682740254603
-0.5188292408937384, 0.49482130940656266, -0.34421141672754
-0.5059874436471654, 0.4754972572145883, -0.33141355383193616
-0.4849547763677782, 0.48375669394192133, -0.19142986236190468
-0.4872088688810272, 0.4744601789945977, -0.22670286584317662
-0.4844908146982284, 0.4826372085993871, -0.18619613919390826
-0.48752320008999117, 0.49123027227827326, -0.21955022291574855
-0.5018042058636395, 0.5115576919149605, -0.2837824370933568
-0.49553732192304645, 0.5113038751441378, -0.2641975155110787
-0.5159225756660989, 0.5081222789585464, -0.3305224293601098
-0.5219123771158167, 0.5544856379061645, -0.2749601061683506
-0.5297718039695913, 0.5467469085528398, -0.3087974204963574
-0.5236799083810935, 0.544432754277819, -0.2984940872065786
-0.50136948182678, 0.5374927735234083, -0.24309946693950313
-0.49865794753929193, 0.5296178319371999, -0.2526719568976511
-0.5089130445367853, 0.5521343935149002, -0.2346043789842457
-0.5045339077479549, 0.5605780442575519, -0.1569109255119514
-0.5123630729758369, 0.5530783206372543, -0.2537623165664906
-0.5714546288188369, 0.5624608072802331, -0.31739565810482995
-0.5913336803322535, 0.5791557331825096, -0.16068994956619392
-0.5915900879843049, 0.5794500229302516, -0.15795003103239139
-0.5591653002162847, 0.5865414821349126, -0.18028529809866675
-0.5675028681591816, 0.5875066991931809, -0.16255632501294082
-0.5538223210367111, 0.5528558023607422, -0.337137388622662
-0.5570378101871425, 0.554684482179467, -0.3457176122495452
-0.5459710424128903, 0.5826428213407474, -0.19723513163388684
-0.536613402252612, 0.5781644687158428, -0.2222600755476092
-0.5250528256935253, 0.5743696861154537, -0.19864619098860106
-0.5223424249469077, 0.564594005015655, -0.2510023745480133
-0.5290837295775455, 0.5735944685130875, -0.22353345687991913
-0.5452197950069433, 0.5447124559004197, -0.34591326232221226
-0.584573570936218, 0.5079297182582276, -0.21874693447743543
-0.5818912282741037, 0.5056508234255864, -0.2912720886173953
-0.5745934553370811, 0.5052670030139924, -0.29543443073918374
-0.5904391597725993, 0.5114031335727514, -0.319393471488322
-0.5833433687434414, 0.5044581606611434, -0.36074484201295803
-0.5902861190363271, 0.5084775528073662, -0.28439619109263425
-0.5960534822783541, 0.509120637906535, -0.20933110717902897
-0.4861294021324988, 0.3495453070716101, -0.10579341843065868
-0.48581782736109014, 0.32078820089376164, -0.10269442114753591
-0.48583357943764816, 0.32290934072686606, -0.10273834120735315
-0.4858564459181017, 0.32300836646944164, -0.10330566055267718
-0.48687802050895757, 0.34963478081669475, -0.124899394281476
-0.48500662125110355, 0.33090269481518814, -0.08026563600586398
-0.48606381628916007, 0.3505362115980654, -0.10395079808869895
-0.4849704635454032, 0.3213589544514718, -0.08095474347889521
-0.486223789259844, 0.42497177246416173, -0.16167971638488082
-0.48790471077785236, 0.4001126807439308, -0.15736129934254417
-0.49021811805887205, 0.4224929251529089, -0.21942104736539284
-0.48802180273191126, 0.4315310462915718, -0.19689399871463464
-0.4882265464920957, 0.39984922793042627, -0.16193712925863127
-0.4848142396578586, 0.37253263037393586, -0.03780713548301517
-0.4842239164387373, 0.3486553874099447, -0.025071011457235455
-0.48443217944091377, 0.33765660428159305, -0.05310393481782258
-0.4837806885966006, 0.33801666991337304, -0.006674528606215493
-0.4839271221494704, 0.3201872150186279, -0.038621121663370554
-0.48475618576305374, 0.3549313844673997, -0.05504103336383093
-0.4836899919861293, 0.4239450783494429, -0.06355381768977411
-0.4845005389622373, 0.42335183541897015, -0.10154925782052371
-0.48362274659581683, 0.4380628926835921, -0.1114883431844608
-0.4843876305198504, 0.42915889314593797, -0.11704338648199572
-0.4823832883980698, 0.4441780467165665, -0.07229869832786907
-0.48077354065216704, 0.23606058962997573, -0.04174301422803687
-0.4795047366626976, 0.21732262597191487, -0.006850653339300894
-0.48066844816714704, 0.2373940351724328, -0.03139480689689382
-0.48077758201402454, 0.23242242308694977, -0.051412062888867086
-0.4812013838925992, 0.24177906393094528, -0.055059632112927526
-0.4808104412181802, 0.23369975772913576, -0.0502684357469302
-0.48315110328150257, 0.29088187984237956, -0.056184333860688634
-0.48732465266129643, 0.38351978624461114, -0.1271683263145293
-0.48522574948039976, 0.372489941968211, -0.06250255302557006
-0.48555188469784294, 0.38445395600073895, -0.06633550918724129
-0.48608827481684264, 0.38457243596236523, -0.08449860009249349
-0.48571489479161656, 0.3742369328281794, -0.0780721000032627
-0.4849347255665475, 0.34044175928539855, -0.07204099876394679
-0.4867517286497121, 0.3647789985212508, -0.11905463239968661
-0.4851559141384506, 0.3579795461640733, -0.06892664216212031
-0.49311591718243597, 0.3054164891146407, -0.2098962044885555
-0.4911536660849408, 0.30852023824781893, -0.18794168597959493
-0.48967930986631736, 0.30195319814847194, -0.17399941141862635
-0.49291968503139166, 0.28255438639283875, -0.214349694624292
-0.4870386766375352, 0.25246049342885546, -0.15985456072567789
-0.4886262857288312, 0.28413572156969313, -0.16780811476464236
-0.4881629096834154, 0.30848170687778786, -0.15584822843067836
-0.49113042888173725, 0.3035107840039073, -0.18912963702607438
-0.4867473198952593, 0.26188162987728064, -0.15402370547664376
-0.4822141143391509, 0.25012907498829506, -0.07701630927996539
-0.4826985159583969, 0.2556782642391318, -0.0834482146543399
-0.4824451886788937, 0.2669112534610194, -0.06606482599078178
-0.48425834069809304, 0.27714751646697805, -0.10058874125307493
-0.48075728332647805, 0.22065330909130987, -0.0703547583054068
-0.48179548344890155, 0.24831697897755522, -0.06849841870058483
-0.48322522347916935, 0.26289209066115565, -0.08927149793794766
-0.48568051466269213, 0.3084142786242562, -0.10461995047572888
-0.4825801860543633, 0.24924548633631854, -0.08691281172828265
-0.48369551786860443, 0.26652188605137295, -0.09725952747061516
-0.4831588563015772, 0.24652672638633746, -0.1009187998689513
-0.48300000090959805, 0.2479927014039087, -0.09735325344610626
-0.48237786698970153, 0.23484392687988773, -0.09257529857159795
-0.48387053656865275, 0.25624296126785706, -0.10897399177462691
-0.48450178994129767, 0.23144585982800256, -0.13236829640886433
-0.48249325047648084, 0.23364934264559245, -0.09522822003370764
-0.48343849084131213, 0.2242012455810269, -0.11679695663067596
-0.48304343038084885, 0.21898136216908798, -0.11224097976546123
-0.49278014634655937, 0.37761538276956946, -0.21844262580320803
-0.488341749601878, 0.3276985847057561, -0.15860466325330694
-0.48961850507007454, 0.36786355251732117, -0.173428206708096
-0.4927671939889033, 0.3859219627843096, -0.21748535496666993
-0.4886599660693193, 0.36948972545924474, -0.1593564976696117
-0.4899912650300313, 0.3855791862192527, -0.17720149890378184
-0.4887994591980467, 0.3529615881713754, -0.16291284296824798
-0.4914657157154857, 0.38488689975980694, -0.1986794636422562
-0.48228001388515285, 0.4891697946314472, -0.1510530930111079
-0.48828173820875986, 0.5065561863133831, -0.21671778669001313
-0.4828783269476311, 0.4996029901659399, -0.14938977858612607
-0.48968059673261444, 0.5047277205118276, -0.2375719157095068
-0.48826515137498194, 0.501923477427188, -0.22086248632145694
-0.4821163137106248, 0.458800444356274, -0.11300159897244755
-0.48372349131240205, 0.4466096792085661, -0.14791983800743275
-0.48224620494237874, 0.4618530172108299, -0.13073455678487375
-0.4816875183071698, 0.4631263522582081, -0.1076492890617863
-0.4823824949768259, 0.5055799335487817, -0.059188790633729775
-0.4833541212579827, 0.5128824965995268, -0.11614513106677314
-0.48101640072178703, 0.4949712452789114, -0.06985120130926427
-0.48460618971623126, 0.5227541238517445, -0.06691814856567357
-0.48116668820016995, 0.4660515449681192, -0.03251093299597828
-0.48123022768148377, 0.4673175543120274, -0.015323572050793788
-0.4810448217425649, 0.4660742823595806, -0.05034371876387263
-0.48036836764854374, 0.48363642578025884, -0.04167935567260326
-0.5046967750842102, 0.5655346845301858, -0.04171614432347959
-0.5007894746197223, 0.5581853623459361, -0.10858010002218178
-0.5058249522674483, 0.5657924759700338, -0.10274514514183503
-0.48756252059841704, 0.5336422107500167, -0.04011186574529418
-0.4918169573206457, 0.5408087849070722, -0.005611084668072879
-0.4812112792442578, 0.48161321200106944, -0.12838426247405257
-0.4812496305032141, 0.49088183123550555, -0.09760910791904007
-0.48212695410051065, 0.4928843678438843, -0.13639811042851238
-0.4823006323409622, 0.4959063723461231, -0.13479104138931786
-0.48895419150430863, 0.5273104756843081, -0.16571503796398318
-0.4908139512426892, 0.528639429601621, -0.17994797669151494
-0.49726142010043445, 0.5265128521408436, -0.25324058115728626
-0.49158857075001516, 0.5426758763861224, -0.04853362261117783
-0.49138662666981525, 0.5399146905483238, -0.1380735807022822
-0.49258366527438147, 0.5434478095863491, -0.10497980006823888
-0.48208077614435874, 0.5003346205305734, -0.0288184302971371
-0.4834299521254641, 0.5047958661402787, 0.008485766028472862
-0.4840336153364159, 0.5145394359923446, -0.021341356628265848
-0.485052260481939, 0.5240960707886524, -0.10242149592231356
-0.48610085836772077, 0.5258373123435987, -0.12218401247611169
-0.4844890101835114, 0.5195252700320443, -0.14757261978148975
-0.4982127409413353, 0.5511707469417473, -0.15077181890786107
-0.4996322841611188, 0.5478823470168246, -0.18021805333499186
-0.5417666778677321, 0.5944509672360566, -0.08768963939165615
-0.5404467164623378, 0.5952865398275682, -0.06211309227171674
-0.5402729710795948, 0.5932260639497746, -0.09623353274241186
-0.5236720750700351, 0.5860042858891588, -0.016489955477980142
-0.5236451361082776, 0.5847169064109019, 0.03111882092257419
-0.49607883731439373, 0.549180444059991, -0.12434952261930689
-0.49844671136356733, 0.553561910133934, -0.12066068132315522
-0.4945057080395222, 0.5460711963852207, -0.13135447243806048
-0.5176833491114093, 0.5715707810894202, -0.1786957104728335
-0.5096606662577077, 0.5663727301250869, -0.15561185201989108
-0.516258576849266, 0.5719842823533932, -0.16579039631366105
-0.5086133329230802, 0.569917291375423, -0.010367349437894337
-0.5079010619059757, 0.569068491547167, -0.014234189799905688
-0.5235577670770831, 0.5849888481953703, -0.07270277804434631
-0.5231613381760253, 0.584139233820169, -0.08585273781952997
-0.5186561714723784, 0.5784322148438628, -0.12708449148229498
-0.532518105361987, 0.5841517415802979, -0.15911428931905858
-0.5284155810636778, 0.580474358028343, -0.16865954854506432
-0.5329262109006585, 0.5805749913664061, -0.18873526583119735
-0.5153161837731355, 0.5751100526341448, -0.1250653775441959
-0.5045582057710234, 0.5626320936633853, -0.13968611031915149
-0.5588588346358995, 0.6002047565180937, -0.04936185534193474
-0.5581872443607881, 0.6018788962979591, -0.034146983565682125
-0.5525822240507609, 0.5984796194646256, -0.06363771705279297
-0.5237168981172666, 0.5820293002459233, -0.12607411267486163
-0.5278227337093335, 0.5832983820729306, -0.14381065011120664
-0.570724631481299, 0.5767769155175275, -0.23646618328950955
-0.5794219540342436, 0.5854596181235501, -0.16160614321549446
-0.5696658879368333, 0.5814856282373909, -0.20207376068121025
-0.5885918979343063, 0.5874729372781572, -0.11362462787711572
-0.5754457418098693, 0.599966164793865, -0.047725043848311936
-0.5788271667800856, 0.5969458106441342, -0.06307702988095827
-0.5664890456021641, 0.5955082419696678, -0.10064889596208274
-0.5515300647429923, 0.5822392382010949, -0.2061618926104965
-0.5531828954171597, 0.5833279078623868, -0.1996744225818839
-0.5654943600412831, 0.5919073664302876, -0.12994918580041243
-0.5874037231185046, 0.5940130542025596, -0.06735396879953694
-0.5825704437278217, 0.592048937996938, -0.095789577112659
-0.6096967160151776, 0.5952497893772886, 0.04259744574887564
-0.6067411064220509, 0.5941889528892189, 0.018465596518458326
-0.5985314168697982, 0.600326650437687, 0.0462835599554105
-0.5993770386093754, 0.5994375647172595, 0.04103716925510003
-0.5667238771095796, 0.5978567607994703, -0.07670476694025954
-0.5467770849584574, 0.5922913738925321, -0.11861333137476403
-0.5612248132286514, 0.6037030515092043, 0.004503601423709135
-0.566604636237672, 0.6064339229811728, 0.047001074666913764
-0.57536221762477, 0.6061510524473293, 0.05371528445292993
-0.540012378665147, 0.5969937390692507, -0.005072655865800871
-0.5304830068752742, 0.5921338445029154, -0.025180351313090217
-0.5889550750505728, 0.5079011287488383, -0.22731356561284882
-0.6029007359557927, 0.5085836144572548, -0.07787382934102102
-0.5956060189143032, 0.5093660294225963, -0.14413140929656634
-0.5816074245859748, 0.5101349595877712, -0.14009257472340259
-0.611540746412941, 0.5076293006355234, -0.0333461807009022
-0.6166609525766605, 0.5159316220988557, -0.07755714862068756
-0.598728781525702, 0.5096833226459643, -0.13904084929706326
-0.6110114350268301, 0.5136502549514063, -0.12074959469763938
-0.6015300829588901, 0.5146241882551973, -0.21612471287530566
-0.6124843468499404, 0.5204638027953538, -0.1368722249877864
-0.606384744810754, 0.5108705617021065, -0.12044376559771847
-0.5968119126938339, 0.597329570277173, 0.005207406585823056
-0.58848310648512, 0.5991685904011012, -0.007173237902528489
-0.627321182269426, 0.581754685994258, 0.09694218985083553
-0.6094281519700975, 0.5931840495310985, 0.11277487551127463
-0.6074101597704631, 0.594879176228654, 0.08649225101561954
-0.5692701759707468, 0.6031560275800452, 0.0018644220187051088
-0.5565118526433367, 0.6021076292920605, -0.02695970372323564
-0.6012596089923732, 0.5987049489156085, 0.0709235641190371
-0.6117377401064318, 0.5928247612707347, 0.08571828272104452
-0.5796777439914318, 0.604572156835203, 0.07389846056242336
-0.6176124064179216, 0.5757720478750576, 0.14029181203158766
-0.6342014384468948, 0.5675539959104764, 0.11901131146074234
-0.6165393546891925, 0.5872113650280515, 0.11640888284039169
-0.6234437458246087, 0.5426761388197173, 0.15315936553276963
-0.6141159463334331, 0.5068969419818431, 0.1588095946512717
-0.6132030662112954, 0.5473257915342453, 0.16015094301119273
-0.5933065912574245, 0.590065895063336, 0.13652198423333559
-0.5858396530760311, 0.5802911013177152, 0.15370758964888262
-0.5936536344008996, 0.5166286051855901, 0.1661520377529619
-0.5779398832941198, 0.6041010287650996, 0.08087749267985908
-0.5724333687763985, 0.6049271026182149, 0.08973349859078078
-0.5524296702711018, 0.6019329072225207, 0.06553574916208485
-0.5636460573061816, 0.594683588543178, 0.12877719252001807
-0.5919856182607736, 0.5873501978013841, 0.1428418486439418
-0.5464348577058945, 0.5927737928177376, 0.11401617113192625
-0.5616416453896761, 0.599815512971188, 0.11180190511843718
-0.5283141504632987, 0.5859269500418436, 0.06878459047586458
-0.5345149057184803, 0.5891851087782322, 0.08344771495834431
-0.558649083399896, 0.6048214556685327, 0.041989693609271024
-0.563287877103334, 0.6065200518957719, 0.06056970664969084
-0.6092741113727274, 0.5358531889893878, 0.16300620904085886
-0.6037345078411241, 0.49171131495619974, 0.16096366254095862
-0.5874077905106432, 0.4845260235503257, 0.16475573539349647
-0.5827273784865414, 0.5167881404963579, 0.16687933378816922
-0.5720191838239712, 0.4632295855796156, 0.16354230120986116
-0.580483303783944, 0.45462320260843436, 0.162308396066483
-0.5521471070825472, 0.40748136453078376, 0.16344683417741912
-0.5356944171271779, 0.48226108822637614, 0.16219870061498629
-0.576272904604837, 0.5003186201733888, 0.16629187875148868
-0.5799841588920156, 0.5506011039823635, 0.16477747079521815
-0.5714771499726263, 0.44771330435409457, 0.16225586382228294
-0.5590542082116275, 0.48515763815322566, 0.16637040262024147
-0.561172301141275, 0.496487553196562, 0.16628210839311044
-0.5744066814985462, 0.4403223314732886, 0.16159178076414776
-0.5724550147066212, 0.3419649199994467, 0.15875239257075005
-0.5662747791901754, 0.318317793266129, 0.16049921322176375
-0.5544378730650936, 0.3546921348613782, 0.1631691688174019
-0.5573361689611871, 0.37806174030522904, 0.16268039718760305
-0.5602826626334931, 0.361375180741513, 0.16227620722576952
-0.5587244861045019, 0.28349132547244155, 0.16295870494110187
-0.5578072729704289, 0.25021359754076866, 0.16312991165037127
-0.5577803069697178, 0.3163844581230262, 0.16273929497383258
-0.550976562183568, 0.2933687087538437, 0.16397733607667048
-0.5593946581552884, 0.30430705578764744, 0.16266355987512152
-0.529055558097615, 0.23586621870486763, 0.16620027359894574
-0.5232366026540095, 0.3062179623810967, 0.16313373906113537
-0.5146943472271541, 0.29271277252369204, 0.1609864619244803
-0.5481123097576824, 0.3580508818996414, 0.16407177542777523
-0.5456322564210562, 0.3509732406135378, 0.16441359741695252
-0.5374134162185471, 0.43201172138076643, 0.16381944725503497
-0.5346591071209801, 0.42279098848368235, 0.16371982113814326
-0.5214800468937255, 0.3851818085674097, 0.16238534720972678
-0.5345173233305194, 0.38147250767836766, 0.16479057102870268
-0.5333739172222007, 0.3375383410083657, 0.16546941758216094
-0.547623982779454, 0.23183123230874633, 0.1651306406947713
-0.5417762512599168, 0.24039837483627788, 0.16562623303247626
-0.6292259586155686, 0.4827448005887759, 0.08099889884440234
-0.5948591423597069, 0.4859757513482566, 0.054324239664896384
-0.5805703477563036, 0.5824394737004472, 0.1532989328684773
-0.5648596938122111, 0.544713737640328, 0.16381447045706254
-0.5559651463862173, 0.5305597102382685, 0.16379348893415838
-0.5621176174882644, 0.5624886468175324, 0.16011752907123225
-0.5419844536160389, 0.5607006218490795, 0.15257724168809955
-0.5475979112378909, 0.579903255229409, 0.14281001503169402
-0.5295282835478743, 0.5901213222948944, 0.012480379795893844
-0.535098890133946, 0.5934346192515828, 0.042695347196747946
-0.5100630160520557, 0.5631988548895371, 0.07819817355025034
-0.5136024239615096, 0.5662689239935591, 0.08834556753108612
-0.5561847272114429, 0.5876874411859574, 0.13914593805192665
-0.5430223454862254, 0.5915306790921233, 0.10783046521347026
-0.5155717661946551, 0.566074651827353, 0.10455497993195943
-0.5357847304137182, 0.575000380145472, 0.13687947330483388
-0.5077336540377292, 0.5535491215063347, 0.10347919453404866
-0.5227158280611488, 0.5744654273690222, 0.1032147435626022
-0.4979440697619917, 0.5452096393496589, 0.06273859930690912
-0.49696301888654737, 0.5462496163816719, 0.04752020234571628
-0.5184880028291932, 0.5783527911315821, 0.05010590426250647
-0.5104398297555223, 0.5720895951144873, -0.0077921606378130665
-0.5948656612154283, 0.4073378190026615, 0.09653001810308595
-0.5935866488120987, 0.3740436320436195, 0.09943469953171463
-0.5841726841243723, 0.32790030265479664, 0.10115873730589685
-0.5979203805746732, 0.3687484860271672, 0.10564953783126851
-0.5927207358034067, 0.24197583555132426, 0.10841373009212049
-0.5939444562540483, 0.29178704833474367, 0.10583661787896247
-0.6227299252604996, 0.46985816853774864, 0.08645430548924485
-0.5918247307013175, 0.4613398381829044, 0.08003969906748624
-0.604006787494724, 0.43908565379379694, 0.09177910617034218
-0.6083601081271157, 0.5017808227433049, 0.0007976556102120976
-0.5798283413670589, 0.5111840048508989, -0.0842166642214247
-0.6084825693418838, 0.49883778502658804, 0.015814459392404327
-0.5832880212890086, 0.5077702902675967, -0.01619155087852751
-0.6023744940286304, 0.4955426380440821, 0.0280149214641708
-0.6186802655774984, 0.4939129107501711, 0.036564641689058194
-0.6033955463793015, 0.5073783089313597, -0.051905157036471854
-0.6097386600230904, 0.508321931262179, -0.051925393458770175
-0.6303127688910077, 0.5169034196118234, 0.011964088266788657
-0.6060016749573376, 0.5013315989092665, 0.005351865868229035
-0.4869285885656093, 0.5169401276748866, 0.031523906404051755
-0.4842647498355281, 0.5056995232811364, 0.0244488372124585
-0.49028427781121753, 0.534651019230481, 0.026865856230008804
-0.485969322651467, 0.5168577507840881, 0.013821144876708269
-0.4828274166537995, 0.4901470559918877, 0.035985572838921516
-0.48267462530814864, 0.46919583246473145, 0.044423045097391575
-0.487070644340591, 0.5068884912247923, 0.06757196890890552
-0.4865258825864941, 0.5110163106646254, 0.04544654037090433
-0.4861022947275408, 0.5104250945032741, 0.040552172219051934
-0.5000480801726875, 0.5543317868573957, 0.023098099005791396
-0.4983214930780453, 0.5513000254602524, 0.021404834287532357
-0.48755590178971486, 0.4638558943516388, 0.11239979448721114
-0.4856199977256935, 0.4673897458469187, 0.09459022842775798
-0.4984799901190049, 0.5378876724064203, 0.09857937152035105
-0.49707856811097473, 0.5337409537290849, 0.09642340735071689
-0.5009494464892599, 0.5440400907869494, 0.09738594659866806
-0.5080093228069407, 0.5560291060522949, 0.09618501873216073
-0.49540560515940524, 0.5119771909134245, 0.11415438605197234
-0.5396088959629258, 0.5137049556601521, 0.1618287683038631
-0.5497887708204443, 0.5388623043228927, 0.16139231608611876
-0.5400906383774478, 0.5235214555680675, 0.16024759246582493
-0.5318263836876682, 0.48403665406082114, 0.1614944702987072
-0.533624401863921, 0.46659424105571334, 0.1621249820372484
-0.5202146254452501, 0.40826811677727687, 0.1616817846602882
-0.5025717125635585, 0.4498736711420998, 0.14553222705326546
-0.5056231152343715, 0.45712768811019044, 0.148358374148991
-0.5229292526476698, 0.4952264458505621, 0.1562405063479414
-0.48840061561615317, 0.48580293279625225, 0.10360745044385611
-0.4878367598455319, 0.444677542390032, 0.11520450582586239
-0.48775437249506665, 0.45936140996491887, 0.1152182080942641
-0.489403756933996, 0.4629111898691945, 0.11789218049119696
-0.5126284660737792, 0.5480161464858156, 0.12746417951066077
-0.5230320228029732, 0.5456626894742094, 0.14272671817355018
-0.5054837628931003, 0.46202238769018866, 0.147624707480525
-0.505631501788148, 0.4957251345299497, 0.1407481405712503
-0.5198741325007552, 0.5221065255192443, 0.14919288718981533
-0.5080721906892585, 0.5318576537404469, 0.13188356648788097
-0.5033645406189835, 0.5328215822548213, 0.11933578267929848
-0.4988837573872842, 0.5266968392973412, 0.11177133307821466
-0.5142788075122867, 0.5115959754977104, 0.14708549909817697
-0.5221589659709758, 0.3278183912021936, 0.16259688915555331
-0.5253963943677982, 0.3331736952506421, 0.16356570432575296
-0.49488972785898155, 0.35001312545246044, 0.13825584160685667
-0.4971242540599786, 0.3628542478231036, 0.1415183753000819
-0.493072534057702, 0.3410080342338626, 0.13563389964932535
-0.5112622386897266, 0.2865120897201877, 0.15927146761845365
-0.5103228255218765, 0.2361522351231655, 0.1576552224981964
-0.5174728711502858, 0.26689182983048637, 0.16191000886681328
-0.5072973379369892, 0.2846149691646917, 0.15604925275231046
-0.49743863234254276, 0.31432716850212306, 0.14197717804044496
-0.49977718293480616, 0.2786335663496248, 0.14451443107092662
-0.489405883627599, 0.23726613573204866, 0.12272013798259732
-0.4886744930809028, 0.3168433035897073, 0.12091026392598196
-0.48993034185282713, 0.26665026726421115, 0.12598597712861392
-0.4874726539828414, 0.30808610611452425, 0.1147599276416509
-0.49178236023758876, 0.4457905934134022, 0.12747743630575623
-0.5083329791213214, 0.4278935290387556, 0.1537021709133117
-0.5049499902358834, 0.4180749300792364, 0.1511475021000674
-0.490367519426614, 0.2349750992060281, 0.12735332237319746
-0.4990971535753761, 0.21674679040368572, 0.14068621092338307
-0.4965830529051866, 0.2277036123295193, 0.13711418668865566
-0.5069453296978189, 0.21503210338532058, 0.15336133950918757
-0.5024990853177254, 0.3666083276787034, 0.14905514743692086
-0.5054767788845508, 0.34003880429916805, 0.15400931496139747
-0.5068474522173005, 0.3295975708305087, 0.15625906214930063
-0.48883405040917693, 0.40719015481839127, 0.11866104125179462
-0.48717878032123324, 0.394139644856109, 0.11243740918739452
-0.48951455044345527, 0.3994578061264179, 0.1219504988543611
-0.48357238435471994, 0.3448724243199649, 0.02051647237674089
-0.48343334117960013, 0.34279252996580095, 0.024535581325596863
-0.48318006159643545, 0.3429224351700262, 0.03553825203145329
-0.4835613028423439, 0.33822836050663996, 0.014750489426803435
-0.4828536319259764, 0.434748365791781, -0.009250891057985502
-0.4819458872369373, 0.44752533588115284, -0.03308926732159365
-0.483982829480876, 0.41857260062296375, 0.018452402830340248
-0.483821469718722, 0.4192611410759804, 0.003256660621280772
-0.4855342163537951, 0.44881708082629385, 0.0990858230618856
-0.48519095458417066, 0.42725976884357053, 0.09839109368563931
-0.48590789585930205, 0.35086306881240614, 0.1069293255022774
-0.4875535181925727, 0.3751946712878535, 0.1147617783017531
-0.48703989244578777, 0.3735562308671614, 0.11223872928550362
-0.4837188047116674, 0.42187185027475005, 0.06804693792504776
-0.483153187755284, 0.4454083430663125, 0.06522255485847445
-0.48278190120021974, 0.4563711208999797, 0.059232543893207465
-0.4838772386328295, 0.3616315434483752, 0.08187419246014761
-0.48245963697673194, 0.32379658247502013, 0.06799061537589213
-0.4831757505727433, 0.3357147778732534, 0.07740557225296779
-0.48457656504805624, 0.3545372504197586, 0.09750763851108848
-0.4852965972798383, 0.39048953776388007, 0.09921482818022564
-0.4844292465199976, 0.3557737318513177, 0.09428748022003774
-0.4853282801500645, 0.3848238593530581, 0.10171153565772188
-0.4840599838835027, 0.2799300876929492, 0.09839615096591997
-0.4864500313074795, 0.2222142819197545, 0.10939406970452868
-0.48433644331809367, 0.30888943495224325, 0.0994494585860647
-0.48554657800497303, 0.23253418886364285, 0.1053073879660833
-0.4823109956639422, 0.265220622046507, 0.08290467322391207
-0.4819051405371984, 0.228146381422236, 0.0864432754951481
-0.48274856976455827, 0.26606219904144085, 0.09082529434539499
-0.4828656281095533, 0.3133014907009725, 0.07884386893431344
-0.4804184477618223, 0.24685291746927301, 0.06432519069971922
-0.4813459458588493, 0.2758870776683814, 0.0663737933874542
-0.48119305595154416, 0.2626266620948228, 0.0684261030644969
-0.47946467742765253, 0.23081701763398443, 0.05832075924831052
-0.48374237461120134, 0.38562183537538386, 0.059841311043842695
-0.483087868593832, 0.35471540347717223, 0.05289460392763663
-0.48400532259093715, 0.38004917732184396, 0.03628766514034917
-0.48408909046927173, 0.3982701453172733, 0.05806767764015873
-0.4829658092816975, 0.2983721620725972, -0.024562474775170526
-0.48200462937839283, 0.28735030991064714, 0.010170176538720776
-0.48351895406802586, 0.3104517934888231, -0.029655030557859004
-0.4834907365859342, 0.3011629065451782, -0.0519141059746839
-0.4828468142189216, 0.2940102184840538, -0.028045449616508344
-0.48170758202021274, 0.27433800706809885, -0.004038324592407688
-0.48095617096735194, 0.25143651354970226, -0.013977370172174073
-0.4827509460229458, 0.30351006171786654, 0.002939850429854434
-0.48167513770829473, 0.3000525833546714, 0.04886560841706505
-0.4828415066985324, 0.31298010569743295, 0.019170770756240248
-0.48054726350838056, 0.26448402589258124, 0.04359224937312287
-0.48154790463756025, 0.30322279331474944, 0.0588536732784682
-0.48148841199205483, 0.288302551777901, 0.039356242268195146
-0.48131344501966544, 0.28085249368607124, 0.03569109997662741
-0.4849299521043188, 0.39322469791417536, -0.007293496269818031
-0.4849636917149342, 0.3822300004389183, -0.033520173064536196
-0.48384185797196777, 0.3514772614064764, 0.01456959152583968
-0.48465114854379066, 0.383728010354523, 0.0008038900479817954
-0.4837660347873725, 0.3394219629648908, -0.002921370649979525
-0.48486708146792074, 0.38417946555940086, -0.0198200627284556
-0.48466829294595676, 0.37901712050592806, -0.010701853083646417
-0.4807636967973772, 0.2568590901802136, 0.013233592332718916
-0.48156026937228, 0.2761255483121614, 0.010323515201901707
-0.4796825065243126, 0.23955331273794944, 0.042761463047124845
-0.4799362986248957, 0.2423042667358185, 0.032038090849307706
-0.4807263712694778, 0.25636058577086107, 0.014539088557291625
0.543238632336634, 0.5086667663238106, -0.3638134992275347
0.5661536515049035, 0.5144917649153842, -0.36833215281936615
0.547644577880386, 0.5517638883865713, -0.35047430525006756
0.537154630923873, 0.5691274656065902, -0.26812113958933004
0.5228004739498666, 0.5470140656407582, -0.2909538293699532
0.5282018581280941, 0.5495118685838185, -0.29962097334643883
0.5869404407220064, 0.5134093534835269, -0.3674014617612766
0.5706283703752348, 0.5159281922775006, -0.3691616653446276
0.582507849907146, 0.5454325281543856, -0.3717037982220798
0.5716012031391056, 0.5617181174341951, -0.32161345695898114
0.5737817641876661, 0.5676671736887065, -0.2890797636067307
0.5557530337655788, 0.5749067471518302, -0.2617741984174936
0.5567647923276494, 0.5653657323230181, -0.3061192271093549
0.5428070506710181, 0.5027401110078152, -0.3630607427921357
0.500204719797738, 0.4345767307363706, -0.344051681949366
0.49897625713548277, 0.4499734292028814, -0.34574021532242716
0.4993057523044077, 0.4481011357844491, -0.3476167869173966
0.49775408643968777, 0.4368649632351656, -0.3180859217757168
0.4897238336690888, 0.4250638731115699, -0.2021309852909039
0.4907343095995283, 0.4241688035600194, -0.21641624758754935
0.48706314234670545, 0.4222581349144813, -0.15831296944923462
0.4893369519875591, 0.4322137402688975, -0.20484116262366717
0.4946331543776232, 0.417273003886615, -0.2635630796346016
0.5012260445272467, 0.41824702767329974, -0.3396854043982367
0.4960568667247351, 0.4087189014663327, -0.272430335001089
0.4986213367053132, 0.4144357545233585, -0.3066512031178863
0.49991956203520926, 0.41201857862079144, -0.3193869284563611
0.483250041096554, 0.4443853743331406, 0.0018093650625027081
0.48438769325245673, 0.4231790776239112, -0.004272337913305025
0.48488579955374655, 0.41571426068119327, 0.005668037625045121
0.48321950074022146, 0.4407005447292727, -0.027484947846238707
0.4841899419184823, 0.4301775218713846, 0.019720657782957438
0.48345607728896856, 0.4531899302045973, -0.1168228257354242
0.4824632679971392, 0.4668553996914447, -0.11790579479708485
0.4835850018293928, 0.4461966639917724, -0.09741075885275244
0.48345484520558835, 0.46097116446506736, -0.14549586359015548
0.4886807928532378, 0.45614766472498436, -0.22284857527228924
0.48934673463273315, 0.45366110581444613, -0.2300446976320223
0.4881352094801039, 0.438453691934442, -0.19393294183888826
0.4903778333450257, 0.43465774123476275, -0.22350743167953388
0.48523733049570356, 0.4289613278598302, -0.1164920411451112
0.48525561529340044, 0.4253182753311107, -0.10416849796335417
0.48432547579322005, 0.4337680840086371, -0.08877793857181104
0.4839652185213594, 0.43812608000263814, -0.08675790998159916
0.4853236842707083, 0.42081968052380075, -0.09120424716086814
0.4836653228492118, 0.4905132052908635, 0.035271653728223065
0.4832240530357036, 0.4638489074680479, 0.03340333733863871
0.48760360430640926, 0.4518198011114464, 0.10856774974305114
0.485001220615088, 0.4465688397575102, 0.0882838203993001
0.48462310021325467, 0.41595820214635554, 0.06510692431789104
0.4844968510664041, 0.4181747407294211, 0.06167738777918078
0.4840480885815337, 0.4520182415376358, 0.07342041888562571
0.48248484677789727, 0.4557698561366955, -0.026410234715738935
0.4825087040535234, 0.456313521396094, -0.019534324831937275
0.4816792834908529, 0.47434241394045884, -0.03055157294397076
0.6094328997765347, 0.4288773433339218, 0.1207867233519582
0.6129595804787422, 0.439310576250758, 0.12624518436541718
0.6037012543181566, 0.4103508259085125, 0.10812926337616861
0.5985024843679123, 0.44473297632275643, 0.08716581684143682
0.5887984610925848, 0.510600314532699, -0.35157334472062973
0.5975086595007553, 0.516823526781738, -0.26158952046957507
0.5945110596992462, 0.5253602351976796, -0.3237010720492375
0.6037000291064579, 0.5325527121872041, -0.23439674260747334
0.6056739460543892, 0.5348434806722336, -0.21916626322586394
0.6187537166196548, 0.5383889959575687, -0.11385194100120515
0.6108798611313572, 0.5192805794279333, -0.1559494634058715
0.6159094571859213, 0.5226642715631116, -0.11933751780929533
0.6230820224857269, 0.5254477017478532, -0.06398490078749065
0.6324701045584447, 0.5179812444350689, 0.01564077376988114
0.6363780979957643, 0.5201148922766322, 0.032441290753738
0.6218774025551048, 0.5229044278145331, -0.0654238660961328
0.6304254954887626, 0.5054923187553039, 0.03453787458191007
0.6306899365564969, 0.48180677866850197, 0.08655468550616591
0.6263091729071041, 0.481180120180201, 0.07130634163574268
0.6116849542801489, 0.4392312765221676, 0.10926217699439277
0.5953533826810702, 0.2301886256587251, 0.11498730029082127
0.5985477531746226, 0.3674129750555577, 0.10530329176778519
0.6006888783597193, 0.3504508938896338, 0.11686603696463321
0.5969021084428119, 0.27926915318504403, 0.11577709671041293
0.5868737547576998, 0.5534206957878116, -0.33132862337150965
0.5897884296574286, 0.5634402851127405, -0.25747369060737624
0.5769329873802744, 0.5592261782392856, -0.32909693575839893
0.5751642832981748, 0.5619845635368467, -0.3187948770217179
0.5820648341437684, 0.5552353669890272, -0.3429113913387999
0.5990260955017579, 0.5745200325205884, -0.15099415322006013
0.5818323989878752, 0.5858765789711345, -0.1546728823447429
0.578183074103955, 0.5751689373480837, -0.23453853123794877
0.5953350845544225, 0.5921499196174489, -0.060947129119388384
0.5998537496625378, 0.5912054173607474, -0.04835634042995006
0.6424326273324396, 0.5635727928352143, 0.08364626068331475
0.6316092941140179, 0.541834005324498, 0.14559586038129974
0.6128428373445611, 0.5907629974881909, 0.02273919107022123
0.6075870979435959, 0.5944730579877948, 0.020530011859253496
0.6209486987193469, 0.5826139697456859, 0.011341884817075092
0.6303049452895827, 0.5775520871272198, 0.05502374184136876
0.6362826406798565, 0.5658684053658243, 0.11971729120053776
0.6235993926931059, 0.5857467753380375, 0.10128681963143737
0.6201692017139115, 0.5881191656739808, 0.06707077322901824
0.5793186833318665, 0.42482358205867743, 0.15945321273540303
0.5978982435489583, 0.3881527039163945, 0.14395096183883427
0.5723585780894602, 0.36175358732155716, 0.15947375932617766
0.5864588678984973, 0.2812388650126641, 0.15006414280134125
0.589277324496033, 0.2720983292993576, 0.1474841679036239
0.571955842680945, 0.22118464662368043, 0.15882342253049977
0.5557923088547424, 0.24177485935281012, 0.16400390677865873
0.6305983726438209, 0.5254760561780427, 0.1492396463704966
0.6193828954440578, 0.5101910414194616, 0.15678571127956653
0.5984781928854749, 0.4294891644672922, 0.14905189800657484
0.6194912202524987, 0.4861875735815793, 0.148935825878866
0.6060319198594671, 0.47599544832334, 0.15711337549126295
0.595460738791166, 0.43976838383720374, 0.1539362836586786
0.5933740064658757, 0.5417745360867252, -0.33627796491681994
0.5912190993095321, 0.5217852578357887, -0.3557576279918551
0.5935166594338547, 0.5354393690888168, -0.3474683895418848
0.5983222520562632, 0.5427554247059876, -0.2760202224213428
0.5983479519868192, 0.5414087252397939, -0.27773076207974506
0.602033072406027, 0.5235209956358816, -0.2405203920818251
0.5941564724959023, 0.55602831945512, -0.26740631591812514
0.5910790913556474, 0.5481284727229585, -0.33180942937808455
0.6049335928202997, 0.537608705834568, -0.22538363671138092
0.5962998195932259, 0.555149768120323, -0.25362529543482315
0.5898701540216305, 0.5593073650531473, -0.28006272211071503
0.5893025168872255, 0.5561194407340468, -0.3013973497749645
0.6121081386384785, 0.5619196075267732, -0.12461659295703903
0.5944769880310052, 0.5774860261622822, -0.16009847849360087
0.593740094478503, 0.5693050354627388, -0.20666842341763528
0.6134690067584185, 0.5265556858629629, -0.15118193629771
0.60689252906658, 0.5516385300381001, -0.19196221063044375
0.6111720355727068, 0.546361509605868, -0.1674937438756066
0.6061973366881637, 0.5610483610067951, -0.16695409872503955
0.6135853788692831, 0.5487698288784333, -0.14511610565485092
0.6192836453882681, 0.5438187696940628, -0.10991353979559901
0.6320354438639919, 0.5454872988005313, -0.01707667056186959
0.6225809697443497, 0.5507196390272275, -0.07741420206330096
0.6046218338573335, 0.5803535537700273, -0.09209603610127913
0.6041228209385195, 0.5777547193364592, -0.10657058132011397
0.6256326084685272, 0.5746005661813903, 0.0019419919869965198
0.6311927554282781, 0.5720644603245654, 0.025334362433820392
0.6153300870691076, 0.5705005224377887, -0.078530569785913
0.6322849871514302, 0.564949068313549, 0.012386741052311974
0.627438331571055, 0.5588524498029168, -0.034664377268957186
0.6380495063682714, 0.5702345582074754, 0.0822474638010357
0.6251939169596631, 0.5715015554760592, -0.015169668721059232
0.6434888121146227, 0.5495100229977709, 0.05379809128605699
0.625424494310656, 0.55003481408857, -0.05910392508731553
0.6249997937997417, 0.5561374078135459, -0.05551644906310101
0.6305008165480745, 0.5378196829147492, -0.027840973390736885
0.6416383379480037, 0.5427144849657682, 0.04084262339871578
0.6328157765492114, 0.5316397996365989, -0.002097763566871396
0.6352695415464553, 0.5684401263890829, 0.040351634850594856
0.6414077519169671, 0.5575298220262456, 0.11958864503840413
0.6477757283161419, 0.546043191062735, 0.11210410044573516
0.6361153174454545, 0.5536716079192294, 0.01423801880834805
0.6374739630708562, 0.5314771789535488, 0.13850451870609468
0.6453673191233913, 0.5341172225904977, 0.06594829766798606
0.6450183581293458, 0.5185513951829119, 0.11056782979423634
0.636327938525848, 0.5173780925826617, 0.03576661098478591
0.6343304631684986, 0.48680545396564295, 0.11995784832496029
0.647281454918131, 0.5327410694638229, 0.10502561130854662
0.6278574304251243, 0.5031383145297817, 0.14625474018599066
0.6463519166364388, 0.5220978730234314, 0.09514912230831676
0.6378687478426369, 0.50510634872607, 0.12707625619566612
0.619677850893013, 0.47228559059949843, 0.14361622872384586
0.629743136517772, 0.4800394256408362, 0.12797563755147567
0.612667018738241, 0.4384487267144996, 0.12474625443724653
0.6301563460687656, 0.47894240868647026, 0.12543594690883708
0.6255685297933311, 0.4667856800998577, 0.1148047103880809
0.6005961443578949, 0.40511255096484267, 0.14223782391750983
0.5992955692213986, 0.3489149357621287, 0.1110252262324153
0.6056904126267882, 0.4067275768653427, 0.12724616226546823
0.5953797231835041, 0.3286860706284576, 0.14104098445994834
0.6037963139878425, 0.3947513425133318, 0.12154399820081563
0.5974091378927769, 0.2947867879569169, 0.11556241846237178
0.6020792633476082, 0.36890194768791973, 0.13082756953784666
0.5947830463652726, 0.22008407609243613, 0.13144312183053408
0.6000424716206956, 0.3955469424466178, 0.1400197296659599
0.5856542288954709, 0.34487317512239063, 0.15303473948676144
0.5980545361346385, 0.30303263477709486, 0.13148182558794913
0.5952487766349898, 0.24762906780962546, 0.13464696861855824
0.5785678142342376, 0.27552751007798626, 0.15610421546065706
0.5917808127923656, 0.295666277689528, 0.14518870537294634
0.5933949558190434, 0.28771499513260956, 0.14112447018328816
0.5961439795973855, 0.2763495634612629, 0.135202580340949
0.5842180680489711, 0.5100104948563495, -0.06245110475442139
0.5824515609072805, 0.5110944559086958, -0.09754734869699265
0.5907614348517616, 0.5094131719205605, -0.1147667822787171
0.5834197677499806, 0.5088118718127472, -0.19488355143596237
0.595082115767704, 0.5019960252673341, 0.011055991496889496
0.5920804385703782, 0.45425643184608483, 0.08475418583792765
0.5007849676003044, 0.34613120099267125, -0.2966917689435859
0.49970737886494365, 0.37420990255443165, -0.291480836582259
0.49845894535017604, 0.35766133601090105, -0.2726033863268494
0.5000055819491871, 0.3781573251354786, -0.295988526209327
0.49811303001486595, 0.35166104338860216, -0.26700262404022146
0.4990875280512551, 0.3638975236247383, -0.2815597676561033
0.4980626753695266, 0.3658531152081476, -0.2701288669939582
0.5015360568900371, 0.3531108533946949, -0.30727022090575384
0.5020264886503991, 0.3938617147990636, -0.3306500798345561
0.4982811111382855, 0.398595904262742, -0.2892198993310446
0.4962728041810326, 0.3884399984292498, -0.25739434753010715
0.4995595502065775, 0.39923314001071175, -0.3050673649301753
0.5023566370662769, 0.4108952078930175, -0.3475131844144612
0.49145838844154266, 0.3768353087645887, -0.18702716129349906
0.4906115740959526, 0.34220396289784805, -0.17793537958434466
0.48999606687602737, 0.36398143186327037, -0.16697967827748272
