1.0901682621003697, 0.658144533026904, 0.04084553444016237
0.9884649256037354, 0.5400826236716424, 0.030868638304485413
1.0282982391798017, 0.5597478827294696, -0.09741662047803135
1.037592743639647, 0.5694155376521619, -0.0334283202164712
1.0875361172132885, 0.6566009140004997, -0.1962347934603377
1.1031823721386043, 0.6946761213326782, -0.14306717770413166
1.0872612126370376, 0.664042080900323, -0.22552186226848292
1.0709353554167853, 0.6563437011292013, -0.27232877114360177
1.073817338233539, 0.6896693044453648, -0.2914851452417858
1.0397705935107375, 0.730639194796131, -0.34316935976886986
1.071817317237158, 0.6178148653704176, -0.021178769516935654
1.1014515155061086, 0.6895574202506066, 0.026833498608133298
1.0644022900735575, 0.6047071744496351, -0.02146258139517012
1.048765088034313, 0.5817406000911184, 0.014320249781614211
0.9771242417163635, 0.5476460524528333, -0.35379338127946736
0.9499655804145747, 0.6826624368605723, -0.3453511503196012
0.9130162693387129, 0.6360913487804122, -0.33281204183215246
0.9291039447398864, 0.639963830925591, -0.3438343550499071
0.9267482731321813, 0.5614489671668966, -0.3554572185725533
0.9041124982679334, 0.6134608538145923, -0.3289501595305109
0.8934372267251323, 0.5851677785649426, -0.31271676416748784
0.9214438989499446, 0.5440258129310498, -0.2612211873569912
0.8776044482060319, 0.6645772597460241, -0.22759596417387415
0.8783844972492499, 0.622272584946351, -0.2233121069420707
0.8872457357174883, 0.7672773528650985, -0.11598059470695737
0.8822202873509278, 0.7408272857677907, -0.15554321737504948
0.8764862301908157, 0.707871243060089, -0.11045329141145657
0.8731988480007079, 0.6555390935220468, -0.16630831074011942
0.8751869497345639, 0.6274849520657727, -0.16328297264074917
0.9131346059106262, 0.5572896575930386, -0.08691059470551053
0.9569933315399447, 0.5405287073745276, -0.14153183263250188
0.9392653610550193, 0.5450880201146745, -0.13853357716356599
0.9594885822472652, 0.5381781314843697, -0.19926737910465112
0.8727106392735051, 0.6509273450412021, -0.13616013906684124
0.873820191218413, 0.6589140468980538, -0.1897134553928293
0.8759759331309142, 0.6634010782491391, -0.21888128901024764
0.8774065100145017, 0.6155297247447745, -0.14493467462189283
0.9016353870709402, 0.5484562856559332, -0.3347054940948819
0.876991997996641, 0.7095127271290019, -0.05847405066501213
0.9108774899213339, 0.5587332102476362, 0.04377209838799897
0.9097911099854659, 0.5594330643317208, -0.016526453628386374
0.9372929511712249, 0.5461429383887021, -0.10487067756650074
0.9347199405540727, 0.5471750961050053, -0.06647979129538523
0.8850871457670895, 0.7396557593688717, -0.2079607320083386
0.8871681454676056, 0.7182363311850789, -0.24023080887043907
0.9041017223728094, 0.700209024317253, -0.2940500718546706
0.9111986751206355, 0.6748981034073702, -0.315605464628576
0.8740671754120659, 0.6791475676492746, -0.024780626639643706
0.8742683779460105, 0.6852023229860436, -0.10620260991549227
0.8886209673564446, 0.7729084054561277, -0.05129654186878839
0.87298989738976, 0.6511195322901242, -0.06625570309579623
0.8732556086726262, 0.6387759681459142, -0.12373439628793138
0.9777727615136198, 0.6643969925465789, -0.3506064344873337
0.9629978767591441, 0.6754659051672508, -0.34902545674907265
1.0838238160309552, 0.948009073968083, -0.22138042285588244
1.0773073118610885, 0.9213304271309574, -0.3541343154031924
1.101536974708659, 0.8627728958945846, -0.3151401089168682
1.0796280778382346, 0.8911973919503229, -0.3495846553116343
1.1094536998324598, 0.9189895325441312, -0.2951536738347441
1.0962452719297708, 0.8211892701029284, -0.308770702536159
1.0781299044181116, 0.9578182536532938, -0.27317131766626734
1.1126446755024044, 0.8240260544913796, -0.27027221367432286
1.1235224292646784, 0.8591085163717096, -0.22991573761694148
1.1021121901010058, 0.6909080332543203, -0.0961904182575084
1.113061923968769, 0.7276337696488662, -0.09574991415237977
1.1228958380726628, 0.7865666514067579, -0.1854474994900116
1.1228985234804396, 0.7758633022969237, -0.0878869243113152
1.1275200416416613, 0.8523682745664727, -0.17817048668069718
1.1256316386945957, 0.8713691698836467, -0.14539720741945164
1.0831367970296646, 0.9452270248542776, -0.16231119462710275
1.0776613704199167, 0.9479054949618084, -0.15672032071478292
1.1221084128348358, 0.801505161060082, -0.21310964769240132
1.118548748100068, 0.8149238600542184, -0.24150966490810327
1.1230003165197493, 0.8805322697495896, -0.19762864802561114
1.1265562712667885, 0.8607340454399189, -0.18733013464238985
1.1017897320443915, 0.9467272298040402, -0.316295611160917
1.1238353599467166, 0.7873163527009791, -0.05248654256437412
1.1176880458277756, 0.9005796350967537, -0.044039451531841065
1.0973406694230652, 0.9323372026111288, -0.033944156181359736
1.1199098496187252, 0.8943369453657483, -0.07891435981745804
1.0794939103381314, 0.945979392644211, 0.0030798121656482637
1.1139723468103164, 0.7356200666325696, -0.1612096070832094
1.1244542043624022, 0.7902591343061292, -0.13548989688881438
1.1100383620424494, 0.7222666564695959, -0.18865227882165075
1.1150369123740937, 0.7615385618368659, -0.2231846582380648
1.1234290928121649, 0.8193304398352437, -0.22148030042157507
1.0989820192168218, 0.7380640636172329, -0.2629111310622093
1.1076256316651056, 0.8019908497024277, -0.2744708598992342
1.061597947456441, 0.7486929041152562, -0.33238668802122945
1.0473067397454499, 0.7114211124006458, -0.33523173498399184
1.1278032461970422, 0.8227680305659043, -0.12204115528338833
1.1193741298878048, 0.7587327395950155, -0.027862377453963638
1.127814245904701, 0.8263959368684028, 0.04426621542623889
1.0976854571869223, 0.6780067874429039, -0.04298110467028331
1.120217220583312, 0.7615672830661493, -0.07608649941964046
1.1279010672018817, 0.8278754621004941, -0.057905443033744695
1.0527324703909755, 0.8677946330216688, -0.3546643809388791
1.0451553560909932, 0.8102762070888807, -0.35163848876651654
1.018326419619014, 0.9584222283203263, -0.14035472723379666
0.9733113630970537, 0.8998196439536916, -0.3200106119420124
1.0014986340341028, 0.9143414423511858, -0.3480317847054507
0.9990560120653165, 0.9434796510250987, -0.3379527140269133
0.9722353685412339, 0.9156709511315132, -0.30126673693232175
0.992847403402205, 0.9539566753419734, -0.27086610473884976
1.042121115274629, 0.968350722870167, -0.28212571371320494
0.9335822875131472, 0.8722997471561, -0.23941097627111702
0.958258633198538, 0.9168402777794302, -0.23682203251100056
0.898418424701212, 0.8053356397270649, -0.10570057109393952
0.8952255914724618, 0.7923555053565372, -0.16729992955121287
0.921884441831885, 0.8642683706861933, -0.09658312944811959
0.9414066618591639, 0.9019847880167341, -0.12897006154488497
1.000939976789293, 0.954417967788414, -0.12810517912279892
1.0215431716258778, 0.9582669886222833, -0.10327891041106341
1.068187972811804, 0.9519286990227518, -0.17936415493389013
1.035256064248705, 0.9596593102465882, -0.1718420335951676
1.0541626144732557, 0.95859614629343, -0.21832630049584184
0.9307786852856534, 0.8798850585114837, -0.19585109932976408
0.923102158153456, 0.8664864724731314, -0.14944511392734527
0.9696851914310914, 0.9315920454879345, -0.2297522987959974
0.9558436879822955, 0.9179039313135675, -0.2107623874109884
1.0027584904550615, 0.9624866722903676, -0.32140657989270993
0.9064132742904536, 0.8303743037768713, -0.11756334692961609
0.9272524776772606, 0.8755637453850316, 0.033180049633202716
0.9852581321923766, 0.9472492533338185, -0.043776483439533574
0.9967884582299595, 0.953262981007351, -0.03076091968349609
0.9847047609512398, 0.946663227606827, -0.12537421728245882
1.0659344931968433, 0.9506099206658827, -0.0619882268555719
0.9052501497651748, 0.8234008787400939, -0.1738285506469282
0.8899794591322865, 0.775204021204388, -0.16394621684517907
0.9328866110767134, 0.8664677837713429, -0.24786260559968787
0.8888541304697021, 0.7582070534870999, -0.2036306313539881
0.9090753317763162, 0.7731926378418172, -0.27015937130765666
0.9106977770591266, 0.7891887316698752, -0.26273364275590577
0.9484556832646165, 0.824855854938169, -0.316129428251499
0.9235811937288889, 0.7424433551283041, -0.31056731131030946
0.9473432374758988, 0.7149806051051854, -0.3404117895353641
0.8795480054675238, 0.7316951200193896, -0.11365255456627896
0.8968518705317619, 0.8001478291650135, -0.08871305821563649
0.8963947816621533, 0.7988348862789236, -0.017955293969158632
0.8795269540768902, 0.7296108257292323, -0.04163092413894907
0.886189560964212, 0.7620714526877417, 0.009380858445671318
0.9683871481640547, 0.9332960776071113, 0.00199033588372123
0.9435550996823499, 0.904910829331318, -0.10440430621865257
0.9305328002234275, 0.8823805982507233, -0.056590466695684155
1.0470435130346814, 0.9654416930521486, -0.35703036563230667
1.0214016316559889, 0.8482615222223431, -0.3539317485596635
0.9973447550069715, 0.78608220735131, -0.35031747748053627
-1.0353233861275328, 0.5740825476946047, -0.916045195675817
-0.8025768585950402, 0.5390317941085867, -0.9668755434108939
-1.0357667902448677, 0.5928145834474392, -0.981321653212831
-0.9780498484704474, 0.597497613176352, -1.029311372426549
-0.9907552595081319, 0.580156805302287, -1.0169692707129436
-0.9676566680794159, 0.5688278737765564, -1.018004548261996
-0.9136169583740308, 0.5396388077659441, -0.991507181587191
-0.9361831043573206, 0.553745448539803, -1.010483784480301
-0.9323593480532082, 0.5332472471465868, -0.9685694368667408
-0.8400968679163998, 0.6356668523618966, -1.0714945379690795
-0.7949441934517099, 0.6201041211143843, -1.0651728838015981
-0.7458639403717398, 0.5863514030868557, -1.0442620204866344
-0.7648912189888044, 0.5542950036888661, -1.0127452747529075
-0.7824410416459163, 0.5432763675132831, -0.9382347120052632
-0.8236845701712805, 0.5418608722115918, -0.9416527203233928
-0.871834975251829, 0.5392472736705456, -0.9853806052838016
-0.8785083397419884, 0.6243797154163547, -1.0644955629136783
-0.8540514113672708, 0.5472276375803989, -1.0043130563053297
-0.9284739972398005, 0.5914171270495377, -1.0399089018590901
-0.8944222461125304, 0.5807716268293054, -1.0374276879130797
-1.0179658737699986, 0.5206525314535436, -0.9692777960296598
-0.7861602430296787, 0.5435643659003628, -0.9938396368046172
-0.7752715878981177, 0.5542149555129636, -1.012734620560224
-0.8679044606582214, 0.695523725439823, -1.0932419610004431
-0.8131201092446231, 0.6812336505723053, -1.0907662785440562
-0.9963839215181562, 0.7079055249233475, -1.0546544306937022
-0.9552988502182963, 0.6185142117004062, -1.0463671952747182
-1.011061243884817, 0.7022740944748529, -1.0427149855561708
-0.7997829625084056, 0.6285639804439075, -1.0690365040351573
-0.7149294766287546, 0.602174620581084, -1.0547795093027164
-1.03665767739162, 0.6242698216102965, -0.9774272933813857
-1.026918849840046, 0.6927667400596098, -0.9372281904132584
-1.0063950407070172, 0.5677968920418902, -0.8883014842863453
-1.037406639248055, 0.6071998717181927, -0.977445525820711
-1.038338994962912, 0.5787021950152952, -0.9450734386800081
-1.0092446581159664, 0.5971224543634687, -0.8927297140235009
-0.9423967512559215, 0.6441372703805128, -0.8755127775082328
-0.9677375087614588, 0.5387592305463189, -0.9155301241298663
-0.9482801638082392, 0.6662580242996321, -0.8789718268533542
-0.9603722397845091, 0.6487557017060539, -0.8804288878569825
-0.9412808459860101, 0.5475364414980112, -0.9074858079865442
-0.8581270478178193, 0.7634873593894138, -0.8797162760690611
-0.7982710002014852, 0.7237359067033823, -0.8697193941289485
-0.8477447006287899, 0.6448197988981113, -0.8650414085525369
-0.761815735554179, 0.6186373598255894, -0.8685070603047622
-0.8556429559920665, 0.5741124481497422, -0.8851911654875435
-0.7626839495358739, 0.5498424064680727, -0.9178078411562878
-0.9013149464194106, 0.5421213018407816, -0.9305401959817132
-0.8772090568115269, 0.5429366690448176, -0.9316443725074577
-0.8917999565535261, 0.7057249555077091, -0.8718937570144738
-0.9316810129248443, 0.6864908004913604, -0.8772958494493399
-0.8916437986033576, 0.6509302171827551, -0.8672842582986514
-0.8591955770871331, 0.62291619060324, -0.8677412659319003
-0.9779476332099283, 0.5529574474450951, -0.8924721890490837
-0.7210268870663329, 0.6974720919603492, -0.8675927699468231
-0.7927674345949345, 0.5775562832763778, -0.8834368952829886
-0.7433159623708098, 0.5495051173330925, -0.9191846763276383
-0.7506011094877165, 0.5388010151880064, -0.9597246855205064
-0.806305559757708, 0.6735830398268926, -0.8648162777017048
-0.8774296818854598, 0.7125904020449529, -0.8714238010028368
-0.9675018131140565, 0.6875679292533006, -0.8885111679726403
-0.9400525633487882, 0.6999202925916805, -0.8815464069358161
-1.0250087423657224, 0.7152608208298595, -0.9401655147094516
-0.7824567866426777, 0.6861454363582734, -0.8661139655999307
-0.7282437753783826, 0.6532596081313514, -0.864788907147636
-1.0357694873204193, 0.6425983122217332, -0.9765269338502715
-1.0217989135477423, 0.526272337619858, -0.9185283975472122
-1.032425516109192, 0.6925701160230073, -1.0035593902871078
-1.0249758344334032, 0.8108295871543842, -1.0459115631070823
-1.0061831497569296, 0.8457745428170146, -1.0826865235563887
-1.0262723713340403, 0.8884751889464904, -1.0754226201795232
-1.0007100258869412, 0.8295265376147938, -1.0817691044934956
-0.9380754366018337, 0.8400378063280467, -1.1092704063337206
-0.9762942062430408, 0.857935469972172, -1.0993524528471639
-0.95250765075186, 0.9334432959023506, -1.0935090488711428
-0.9572059991296613, 0.8764343984546095, -1.1058361512770611
-0.9132720173897386, 0.9232636364639646, -1.0995856904000743
-0.7939702300823066, 0.7292167751409091, -1.1052913903701969
-0.848739903429071, 0.8052604558643249, -1.116906869543579
-0.8001326155955883, 0.8230332140496892, -1.1197951226380451
-0.8421735008979447, 0.8445367631670964, -1.1196020964654743
-0.8472180786179787, 0.9178984966434554, -1.1034230886624923
-0.7969223592235096, 0.9431008587033822, -1.0766038376857179
-0.812281074675218, 0.9457734933244364, -1.0742869596565159
-0.8677434235390182, 0.9337256584780591, -1.0903411696110037
-0.9255891461845669, 0.8117023988700753, -1.1084611980801267
-0.894841125314471, 0.887043481005432, -1.112232318669123
-0.9186827832183848, 0.8513843142592001, -1.113300551060926
-1.0222384818162598, 0.8262323375373721, -1.059112806375767
-0.7323451793132238, 0.7814153645622678, -1.1151731138975178
-0.7741131903860793, 0.9254351486999939, -1.097814191394881
-0.763502012018303, 0.9435572188759482, -1.076902034096922
-0.875549018534929, 0.7548539727828012, -1.107861839268648
-0.8708235480039901, 0.7473957666519766, -1.1066770402112844
-0.9056024722487761, 0.7176718308140351, -1.0950496647749934
-0.9060853087964128, 0.8011629998170413, -1.111195669074486
-0.9657916561065644, 0.7237570283180387, -1.078054170727992
-0.9952608681615853, 0.7586469676829342, -1.0685404837825945
-0.9902344758035027, 0.736520806940432, -1.0667339489110588
-0.9942165366223887, 0.8172863183479895, -1.0831467653396585
-1.0185378557176483, 0.7773208485464631, -1.0499799791917552
-0.7909230180097295, 0.7046462863261355, -1.0984801460291005
-0.6993587202498521, 0.7262860759679014, -1.1046162744856645
-0.9937633446107526, 0.962203471510413, -1.068402152139602
-0.7480575038373288, 0.8796653424477164, -1.1171660161687529
-1.0280148728285918, 0.7931873401352381, -1.0135223128421667
-1.0308340302605896, 0.9753054831113876, -1.0157108515779547
-1.0066879202036403, 0.9195606146314061, -0.9750471083651276
-1.0373684113172634, 0.91640195559753, -1.0606193614411368
-0.9901784579219741, 0.9677280343504797, -0.9964676777205654
-0.9787829071882381, 0.9239337648214672, -0.9661253273850153
-0.9679423929595041, 0.9085430175093574, -0.9550051560661543
-0.9417645092862814, 0.9645295809311552, -1.0050455389066515
-0.9445433065916954, 0.9103875937654755, -0.9507602767546096
-0.9055752783002874, 0.95919259563718, -1.036996304877213
-0.85686739506223, 0.7856500622167342, -0.8853081667009013
-0.7680476479799476, 0.8068112765757925, -0.890663514088034
-0.7843786943071758, 0.8749207996877819, -0.9186316026775616
-0.7469575033099107, 0.9121535991273582, -0.9427117991997
-0.7409606977275375, 0.9455061553671488, -0.979889452377902
-0.8575842994943733, 0.9562721497781499, -1.042529288556329
-0.9256838422885649, 0.9553302497259903, -0.9852976052761921
-0.8470582234000092, 0.9560076463647554, -1.0426585053831052
-0.873846212805527, 0.9536510943214079, -0.9866206459949701
-0.8239358741566438, 0.8606709639782584, -0.9122809572754687
-0.9204431234423927, 0.8419566255948432, -0.9140324808760615
-0.8489323108114558, 0.9038921101920951, -0.9351825544629239
-0.8595305698180764, 0.9312604672756057, -0.9584909509210326
-1.010257364390733, 0.9637407766938526, -0.9938774644239432
-0.7108013560879541, 0.8774066938646918, -0.9206309365652698
-0.7124121507794007, 0.9510856578003243, -0.994892560777849
-0.7922135472512379, 0.9582849918464055, -1.0260180121869868
-0.8228336377509897, 0.7742894897882513, -0.8810711733867499
-0.8885133328045771, 0.8437449919131794, -0.9081294681621159
-0.8627676068015121, 0.7666495124033955, -0.8806519642599249
-0.9132072696957478, 0.8600249188826787, -0.9199904906861806
-0.9064240600483049, 0.7489494796361835, -0.8823811083489161
-0.956643482340102, 0.8705616490522374, -0.9356108328209284
-0.9891273952424724, 0.8696367680612564, -0.9497820049147362
-1.011722390294546, 0.825707691156823, -0.9532486152491286
-1.0123141887725413, 0.7916663081383696, -0.9444578717415262
-0.754734110144744, 0.7863954126778958, -0.8841735820352732
-0.7653526783679081, 0.7504972331432307, -0.8755045951825587
-0.6835692508818365, 0.809839457902052, -0.8919056407126892
-0.7078259016522146, 0.8971798478125543, -0.9322144688838072
-1.0338158103016695, 0.8704163617842338, -1.0162480004287358
-1.0116466686140098, 0.9655974519700514, -1.0720378404161717
-1.0300465166173425, 0.7479221465377304, -0.9972970754197514
-1.0286784391172843, 0.7859183261816927, -1.0007659616370201
-0.33539963577717896, 0.647106050851522, -0.9992334294458948
-0.3497387381379472, 0.5417920267309573, -0.9910164633376717
-0.3258267659384379, 0.5644092495581557, -0.9617101598769018
-0.35538609621999306, 0.6749619816803097, -1.0358137321726513
-0.37978548743288476, 0.6353647931745362, -1.0394383537871081
-0.3892534176228367, 0.5921524241701287, -1.028356216250151
-0.4111411281475043, 0.6251019324702958, -1.0493026199678483
-0.4041158281472753, 0.595189892872247, -1.0345314848856177
-0.6211979357971171, 0.7185529967898405, -1.1027014762746052
-0.5222719150395083, 0.6181852107544802, -1.0635466486328875
-0.5672125962549084, 0.6645105425732125, -1.0852842472948436
-0.5827400584420748, 0.5823688128399709, -1.0414482440150474
-0.5932456160841106, 0.5467687338268903, -1.0024607469818212
-0.4905928417602926, 0.5486604665834621, -1.005973394324667
-0.4792691923998217, 0.5366447129261251, -0.9761780675063398
-0.46926089327334003, 0.6405213732834427, -1.0700163687353887
-0.46348190772581277, 0.6182774515292782, -1.0593245564752451
-0.5434498984491636, 0.5551155457529147, -1.0142134927852848
-0.5288941200591659, 0.6035767620562197, -1.0555729970523269
-0.35461058005396734, 0.6779875822451235, -1.035888126226429
-0.6741534205156502, 0.5989908024751381, -1.0528487932950843
-0.6617550902040126, 0.6272175508418345, -1.06786558185582
-0.7317947045112083, 0.5393691667277478, -0.9701312554146477
-0.6183262798434801, 0.5488392351566485, -1.0053038972608757
-0.6774735615160555, 0.5404023315885923, -0.9525632040661134
-0.5194289505640608, 0.6968483840434359, -1.0948436470822542
-0.4491620140806213, 0.6751573536086981, -1.079544623474481
-0.3956240858033989, 0.6355177647364474, -1.0478090786424101
-0.3602260835002905, 0.7256230867713598, -1.0535815122725265
-0.6441391504981344, 0.6580990988862084, -1.081852590585024
-0.6043708581588983, 0.6182554364537449, -1.0641025945457667
-0.6349684245607041, 0.6915390628192544, -1.0938973754076222
-0.6105624057396459, 0.5692784024352374, -1.0294395644011627
-0.711604531174562, 0.5756368681583, -1.0355350165495498
-0.3674807485285725, 0.5256904371309716, -0.9408350747583363
-0.42380440591591406, 0.5483013144965743, -0.9066718692953702
-0.3557740169147869, 0.614630615407659, -0.8950769002009605
-0.3279795084861345, 0.6008775754711144, -0.9299580236779579
-0.33431452438814013, 0.5600245301757361, -0.9007697346578853
-0.3715617666607376, 0.6143994730245107, -0.8877532392837537
-0.40282404584331644, 0.5832811292404545, -0.8818868222654239
-0.3811508845133994, 0.528379776785172, -0.9413481806415155
-0.4492418689808825, 0.6477917698886481, -0.8708829882261807
-0.40554340881656586, 0.5411025792668365, -0.9130338909932081
-0.5996645398860787, 0.7281627244907997, -0.8707313029945356
-0.5112905668409241, 0.6765444348089454, -0.865980946230669
-0.6019669567862145, 0.670465069831942, -0.864664863127216
-0.5230230868904312, 0.6072986519937258, -0.8713572413341018
-0.5235358751908293, 0.5623222875249594, -0.8962259354094588
-0.6199352087488333, 0.5471068566924264, -0.926625631210543
-0.5337707758384209, 0.5789007125748327, -0.8818018998530672
-0.46743343190062686, 0.5391421939496108, -0.9430093504724125
-0.5580637260925063, 0.5600240423196386, -0.89976137321512
-0.49386435732411876, 0.6848452498056362, -0.8679758083762987
-0.46469866410524563, 0.6002121331036677, -0.874595431380626
-0.5258825560506848, 0.6483670532371159, -0.8648985237612214
-0.5458697100485567, 0.634677144969539, -0.8657160285176705
-0.36148761438605137, 0.5434395088422721, -0.8969090830731701
-0.6653927284405757, 0.6813884120165999, -0.8660508264833027
-0.6062520521910978, 0.5756352710674683, -0.8853309442371426
-0.7081047531364109, 0.560635712783198, -0.8998669568977824
-0.5663635339833056, 0.583727113305101, -0.8800232480747857
-0.6762438270090796, 0.5505373164304068, -0.9160206000609687
-0.5540248355675242, 0.756277613971428, -0.8767764629158641
-0.4789932954363745, 0.7297856434300372, -0.8747386593981676
-0.4542990338129731, 0.7405874421950123, -0.8818588891132398
-0.3874166712030377, 0.6808614414770602, -0.8940021425022883
-0.37114995127774963, 0.7338566027606476, -0.9154558342234235
-0.6430679575207896, 0.7048716665210067, -0.8683320750918904
-0.6711669564344567, 0.7563148514683122, -0.8767974345017849
-0.5878316301799005, 0.6960720192190356, -0.8671395437336897
-0.689767854297965, 0.6090617858438561, -0.8712760768506377
-0.6664218525041672, 0.6304508568538812, -0.8666863652705388
-0.33337367232040765, 0.6726569975200267, -0.9556137844279352
-0.3250026284624861, 0.5306289518656567, -0.9381639912067157
-0.335800759399145, 0.7182792951176196, -0.9571397516959448
-0.32982856070598143, 0.8961016778004689, -1.0614707694172174
-0.3644405856933697, 0.9339729010158039, -1.0900997850975371
-0.3429987253654733, 0.8915863725273174, -1.078861831190751
-0.365541518489914, 0.7858026983804847, -1.0736477432045624
-0.38257196906286695, 0.9349447326909588, -1.090646537406666
-0.4032174433607933, 0.8933991499293124, -1.1005719495515078
-0.4128089790713251, 0.927286397757376, -1.0944208524892232
-0.4316707944512925, 0.913718210140874, -1.099689640343665
-0.452975000990372, 0.8779021892951206, -1.1108894824710072
-0.5233203785346358, 0.7498116358131657, -1.10878335198003
-0.5314232061342611, 0.8003570249932009, -1.116816562486621
-0.5882705835359566, 0.7696578747270386, -1.113932796008326
-0.5149253501329123, 0.8455854328653155, -1.1192961251523943
-0.5806357569860445, 0.8693993320860536, -1.1186508287876125
-0.5727114833707245, 0.9409369690930884, -1.0808052084059967
-0.4958888463323504, 0.9061132751761198, -1.1065655715483431
-0.547727195449129, 0.9548776672900153, -1.0527740961578314
-0.5389181653404027, 0.9440508296739016, -1.0769169795036893
-0.47703957884685494, 0.7775781373398376, -1.1113386126622982
-0.4812873217768039, 0.9126216317029766, -1.1030945962226528
-0.5403335279766444, 0.8424876347122452, -1.1198616930787015
-0.37584362333733967, 0.9537981422361758, -1.0760764669101288
-0.6890354579572046, 0.831718894386507, -1.1204565392219834
-0.5882146489516423, 0.8338211837715819, -1.120370467486633
-0.6706686477369894, 0.9297399944606558, -1.0936589595461668
-0.7001192494251436, 0.9135637178405305, -1.1065644167485673
-0.5433685099034063, 0.7379629474705244, -1.1067450386381124
-0.48848097279832564, 0.7003545510867334, -1.0938796495251697
-0.5013655653325074, 0.767753194764325, -1.1119712722268882
-0.44494042703295383, 0.7469478500148363, -1.0984415461772734
-0.3874873474640595, 0.8192885950569089, -1.0917318434563898
-0.4137576173104942, 0.7080909044283266, -1.0787458350143808
-0.4013962245007987, 0.825773831506384, -1.0992869416993767
-0.3585313467649779, 0.7426751912463173, -1.0570490365549243
-0.3412856683051633, 0.7643195547207458, -1.0431756424266412
-0.5793992081953118, 0.7322988743700722, -1.105920809994144
-0.5988780546133347, 0.6791461857944505, -1.0901333522169847
-0.6901408653124093, 0.8001480066821407, -1.11719940650421
-0.7122012185192184, 0.7140739702419026, -1.101402418027098
-0.7180758974343877, 0.7612644158440167, -1.111896123124568
-0.5666267896149109, 0.8192660952376751, -1.119398937749184
-0.5774112183660065, 0.8544654299452766, -1.120514969431691
-0.723204377437707, 0.8704720051782787, -1.1189561459113893
-0.3306454536308995, 0.802526827712903, -1.0296625257426961
-0.33460990363277243, 0.6937042251615404, -0.9940709805103654
-0.5445110788262794, 0.9614686853203686, -1.0093965271099037
-0.3236512618182641, 0.8967934677116877, -1.0266054153272257
-0.33499918187753164, 0.9045066711496984, -0.9814202972574719
-0.3746033741276475, 0.8793974979382888, -0.9492851958543576
-0.3855967577769858, 0.8715191020261683, -0.9422783256986899
-0.41270635328313726, 0.9117360039740162, -0.9500245629797568
-0.41305903172715275, 0.8771648799820104, -0.9345611863959901
-0.39376388513044036, 0.9012770237171941, -0.948693059299623
-0.4381512487002147, 0.9630222938147113, -0.9957756271012062
-0.5539592147318714, 0.7757554520518594, -0.8810289879338683
-0.5908894227688013, 0.788281401759954, -0.8846849746790173
-0.5838136748287504, 0.8563509011691343, -0.9101212432483693
-0.5935402630982272, 0.8914514584580119, -0.9278328024716214
-0.5683508926352825, 0.9305852449129453, -0.9576213496862704
-0.5629205378251081, 0.9573499341065844, -0.9963506774127213
-0.5782930399475419, 0.9599126748591156, -1.0257890353739074
-0.45475700563530086, 0.9640647994485467, -1.0267811239666516
-0.49274228164725353, 0.9620934740565517, -1.0332172166741433
-0.4682256212262258, 0.86763640846105, -0.9190187970087176
-0.5118078983443103, 0.8605214135383698, -0.9128658704902354
-0.5385678767684301, 0.923263365414657, -0.9496007095082155
-0.46187959533177536, 0.9211734172232877, -0.9491588005288332
-0.3464130952210721, 0.8801583321579879, -0.9649850741277932
-0.6149909791342527, 0.9013704356012595, -0.9342529702307534
-0.6500370651606243, 0.8743354995334128, -0.9191871983347359
-0.7374540475679994, 0.9500683935559335, -0.9894132240940507
-0.6765034334219908, 0.9525836700198664, -1.0035362440712574
-0.6446813253427723, 0.9226886248258199, -0.9526161912926325
-0.6823014435247792, 0.9456189124065661, -1.0670381695400601
-0.6813848563233724, 0.9552353887329293, -1.025774263251921
-0.545898218402804, 0.7794063753755461, -0.8821946027943802
-0.4478053527459879, 0.7566464639285052, -0.8871835073112014
-0.45867135425549826, 0.8222449674488383, -0.9026671346575348
-0.40177311005308725, 0.7961799470313697, -0.9125271170326745
-0.3606538566263996, 0.8028492659743346, -0.9388836992132649
-0.423430765986356, 0.8567940984611411, -0.9243872446438164
-0.3618859351997546, 0.7488162805955842, -0.9253897732924785
-0.3383939900256426, 0.8449470088648905, -0.9681784372766772
-0.6475260188214341, 0.835080469370754, -0.9009324365542934
-0.6072287842356816, 0.868880558471185, -0.9162178468834752
-0.707956933579494, 0.8003405823922615, -0.888599907228417
-0.7342344436582456, 0.8297400012792406, -0.898356026215566
-0.6282625660735154, 0.7838131932516096, -0.8834579526253982
-0.582780891064324, 0.8278244420598712, -0.8973565279984435
-0.3934750434477584, 0.9658574588934614, -1.0377678506779022
-0.6449511465450395, 0.8886737933901868, -0.9269897507015523
-0.575766764426926, 0.918428800740597, -0.9464241700379398
-0.3297602369287602, 0.8054292797655399, -1.0039831895560876
-0.32724744889239793, 0.8468902634443111, -1.0013284744651336
-0.3315720600609258, 0.8046170440816357, -0.9816519088599314
0.9187488057753752, 0.552549915426063, -0.7168920287326345
0.9827888354336769, 0.5391777926161623, -0.7925915216457977
1.0107437925580538, 0.5934743626508535, -1.0308916504646906
1.005552857909827, 0.5576246076771991, -1.0242713333350841
1.0119660357703304, 0.5533824063422315, -1.0001438993124703
1.0196427387621423, 0.5597516506415916, -0.9804737868126048
0.9830563173645649, 0.525620891463145, -1.000364462067414
1.052619167661981, 0.6001224770680715, -0.9413183897866394
0.95119955670484, 0.5372532938647052, -0.9313654670625426
1.0748579569469143, 0.6235116051617983, -0.7965659478620917
1.0626006651967157, 0.6009698726992557, -0.8316602488123026
1.0297414265238243, 0.5611648110849118, -0.7833725252897547
0.9936467191782989, 0.5401983122696405, -0.8493799700390832
0.9484263662047454, 0.5419407511197813, -0.846790083256394
0.9902723042597701, 0.5380659385466535, -0.8941673499799236
1.0280660876026064, 0.5612020244458062, -0.9122007232862255
1.059540177493606, 0.6132622036139631, -0.9395751686633997
1.0315010563793887, 0.5638502997652348, -0.8904238896237029
0.9828500033683908, 0.5237190396516572, -1.0222782714867984
1.0632595210007496, 0.6024418416551576, -0.7554275412770506
0.9953187080691996, 0.5419580505598331, -0.7091759599909808
0.9661249420694746, 0.5390431335734635, -0.7951310619465305
1.0740370978550566, 0.6225614038605269, -0.8406538189814532
1.0792841973001397, 0.6557314288748362, -0.9325829119279114
1.1016441060814144, 0.7072699464104666, -0.912043111080322
1.0708025785853652, 0.6748753360473654, -0.9788869584468968
1.0307205522641245, 0.7279386441551116, -1.0379092124464764
1.0990688781242035, 0.681809411625294, -0.7654168675260254
1.03458893887416, 0.5663035543668519, -0.7456631053748751
0.9954581783000962, 0.6778236457059681, -1.0426758422316689
0.964191200683111, 0.7382242071880878, -1.0386006796843898
0.8979446391691912, 0.5547891592532851, -1.0051465873557068
0.9417008699834446, 0.638331413490617, -1.0429127206271924
0.9547474542613252, 0.553814009776645, -1.0465282701785474
0.8980077748412745, 0.5814651794880594, -1.0195356206773072
0.8969980632036474, 0.6574570113229288, -0.9904719762804837
0.9328218230110836, 0.5330128183146623, -0.9924055059220941
0.8938567952026074, 0.6935900079575069, -0.966374267503823
0.8848492052793211, 0.6438595589530988, -0.9583251523754802
0.9097910349949461, 0.5545705965466068, -0.9213050099304098
0.8863181181344262, 0.7577930580594969, -0.8577506081174705
0.8777831027682317, 0.7186353034899443, -0.7689797280990042
0.8726632655881219, 0.6442897317195602, -0.8220391767472702
0.8770699309296534, 0.6176156646976712, -0.7666440639652625
0.9130588341828979, 0.5573379298191625, -0.7752047930308983
0.9391201343924749, 0.5438671597989121, -0.8726943545511058
0.8887434195100553, 0.5831856215501926, -0.932605675163636
0.9232201076312612, 0.5473727591536034, -0.9090972574642422
0.9154842225670069, 0.5536700194769665, -0.8803638481110129
0.8850799878137039, 0.6835345611689387, -0.9433355958995282
0.8745978662969113, 0.6306053715975031, -0.8355118729472663
0.8753449881372304, 0.6319357866901749, -0.8834232050267783
0.9099626797598179, 0.5449634562506502, -0.986984370842611
0.8854735784326729, 0.5912355391498029, -0.7234364070049715
0.915129025773373, 0.5562602699313041, -0.710239842085214
0.9331985609996178, 0.54766373723438, -0.7360667462096999
0.8760145962426178, 0.70019579481168, -0.8340293241219212
0.8804492983459625, 0.7164529228791651, -0.8947397118293441
0.9003555423672871, 0.7244317705956083, -0.9705574181822552
0.892130783876391, 0.7204217217785733, -0.9500999149468988
0.9304504621873548, 0.6781632296067039, -1.0311466879217859
0.8732591823437396, 0.675904173306993, -0.8070832808796592
0.9261805071495561, 0.5289610707046604, -1.0180857835488162
0.8749645793358117, 0.6293532922691456, -0.7516341639887427
0.9221838813566723, 0.5324141877042734, -1.0093953416473194
0.9833055926254065, 0.7145926896106856, -1.0426154640536927
0.9844331127109782, 0.8020349016589425, -1.0399178497223451
1.087682721641419, 0.9379638529352194, -0.8015003737575619
1.0716700335586864, 0.8590531395183336, -1.0374485426922595
1.089753926483512, 0.8319558422232691, -1.013301222484766
1.1102308753190846, 0.9306860372828616, -0.9695975514265145
1.1171908818572682, 0.8907461991693735, -0.9592215819119929
1.1098155047552798, 0.9273927267322982, -0.9285123924318023
1.1203953225584147, 0.8825829283412988, -0.9443462770658874
1.104456353682357, 0.934153487936414, -0.9221200952163429
1.1000282433865256, 0.6877866645422138, -0.8651750411445223
1.1201706917283687, 0.7646210393355647, -0.8586177243968667
1.1225649196449319, 0.7722917831598943, -0.7778467986491545
1.1291231349383732, 0.8422421567564613, -0.8525819689463883
1.1288721496842786, 0.8598492206811023, -0.8745503269313156
1.1074430209318566, 0.9259215098660575, -0.8528899419857457
1.1134385613832423, 0.9189702688089473, -0.8568821168766353
1.1062385462175877, 0.9286091502915148, -0.8709676446056104
1.120904696376261, 0.7916465207651157, -0.9079253716964872
1.1221133306704885, 0.8992702682142966, -0.8762995591623972
1.128982934931372, 0.8596989390805779, -0.8465429041478536
1.0706064102371047, 0.7951608559005913, -1.0255747161169206
1.1287652965007484, 0.8457600214849103, -0.7740246944340514
1.114023182383183, 0.9148477279478968, -0.8058195961395829
1.1212661353674294, 0.8887888502129356, -0.7434294766421234
1.1157734621783701, 0.7432069973071775, -0.8453021649230911
1.1230812519040434, 0.7780585181187825, -0.8353830228055164
1.1132983714103943, 0.7682885249783171, -0.9255998832864039
1.1019091970364678, 0.7288542227788147, -0.9342441376846524
1.1148050273763903, 0.7888561751851867, -0.9331350166684564
1.0774702837712336, 0.7263782920504003, -0.9926043705554486
1.0563752154830435, 0.7091195814007337, -1.0166839626926
1.0687316247809187, 0.7324520817576705, -1.0085102904277123
1.052622404133624, 0.7757750755901867, -1.03434351972633
1.1123371265514646, 0.7248253384593344, -0.7617433830760668
1.0979141928634373, 0.6786574618104778, -0.7359776810413108
1.1278780301250004, 0.8312182528443237, -0.7322855729095046
1.0803250111242118, 0.9700971494701788, -1.0119188385945423
0.9920181340010829, 0.8542229777923734, -1.038606557647862
0.9621787989364015, 0.820400201629817, -1.0256337629185786
1.0187872182907758, 0.8664065099623754, -1.0438568023134702
0.9960932024405245, 0.9063613087856867, -1.034730722276827
0.944992577226497, 0.8612024716798284, -0.9801014463634874
0.995608592303222, 0.955267458820952, -0.966123768803869
0.9657653820730834, 0.9118464410155166, -0.9748833192192292
0.9932413589145005, 0.9498039213871043, -0.9262561163096705
0.976578231442865, 0.9305409360075783, -0.964306678418521
1.0432217982298164, 0.9639180597869164, -0.943271830787689
0.8968232307631328, 0.8006841221075699, -0.8084107676584744
0.9246301932643171, 0.8696162882920564, -0.7790038807530266
0.940543588104216, 0.8982310566556584, -0.810915247170883
0.9707052015421627, 0.9307555155375805, -0.8610595381537847
0.9881678179563175, 0.9446496917605017, -0.8295097670973683
1.0530358138274, 0.9497403550187351, -0.7741231136022779
0.9829585738972217, 0.9400400673348257, -0.887471229937502
1.0769354073139745, 0.9494281014526353, -0.9082416945745072
1.0185738435431793, 0.9559365880515928, -0.8899957057981495
0.9141028690620623, 0.8465601324142282, -0.8242716387599174
0.9919573177137739, 0.9463870599090748, -0.8823129672461618
0.9410182791516025, 0.8944933700368616, -0.8921151475790206
0.9952180187994635, 0.8872753436909417, -1.0370492443415056
0.9154086596885468, 0.8493954033287101, -0.76794222602544
1.0000109640657795, 0.9502221333845322, -0.7304986449135558
0.9752374272274733, 0.936791782038253, -0.7816653240129554
1.0708709700064518, 0.9437495871002864, -0.7495066536973064
0.9159025095685698, 0.843480206906723, -0.8946346715157052
0.8966973243552319, 0.7916397439222089, -0.8861315929057197
0.9094602331992908, 0.828899583939237, -0.896226475954085
0.9342762477381529, 0.8445945313853989, -0.968907690995428
0.9100627887859384, 0.7858462654295302, -0.9550586168281356
0.9363344807434605, 0.7712018569427224, -1.0118581647759313
0.9310969049837543, 0.8194112670121972, -0.9819726826802089
0.940116752121882, 0.8026136939105433, -1.0046806108440824
0.9629605409244576, 0.7744175348964637, -1.0346324170588983
0.8822304037891189, 0.7428169440673515, -0.7637396130576186
0.9279534745933311, 0.8771516173670023, -0.7295805217954012
1.0691355699896818, 0.9763534034535812, -1.0233115306187708
0.949033849043656, 0.9110636332089429, -0.7294842619187281
1.0012716478939834, 0.8501194454228104, -1.042707934578452
1.0116025737586802, 0.7599255635320301, -1.0426113806540704
0.9986940592304101, 0.7299805340016862, -1.0428731827444828
0.9185333464693454, 0.5528675822444958, -0.6709080483513171
0.9787531900855224, 0.5380757874489459, -0.5453976582269072
1.0176051846814191, 0.5997613797690741, -0.3718240269507123
0.9990153064251817, 0.5735922772178008, -0.36220681568275914
1.0489124522925457, 0.6499692782328512, -0.39542179119374704
1.071537040531873, 0.6574942509439264, -0.4385502514591185
1.0369126448931372, 0.6065374695391761, -0.40213531020650717
1.077597599762309, 0.6600885797350624, -0.45403604280458965
1.048104323988434, 0.5869697753042065, -0.4788147902382246
1.0920845887309572, 0.6619364892128624, -0.620789570411291
1.0750609927815755, 0.6263851866559309, -0.5275008435518814
1.0324616900823618, 0.5639128779926683, -0.5270866045884557
1.0281020056127175, 0.5596000575922633, -0.6138535861081534
0.9491450693168404, 0.5421848223595325, -0.5679343250114315
0.9729586446065812, 0.5328836312101972, -0.4580210753845799
1.0880792958137344, 0.6632788813550771, -0.49145581812561845
1.0269410764608564, 0.5586372157441231, -0.5180098901921433
1.0504655424224272, 0.5854855983678039, -0.5097365351203156
1.0268479798291554, 0.6199130243488074, -0.37461109146337895
1.075856180306094, 0.6256208984026521, -0.5974758753840245
1.0887799787326775, 0.6551809685164295, -0.7395621291553266
0.998683799565128, 0.5429654250198372, -0.6961787114025869
0.9945913474993684, 0.5417636287450877, -0.6941274187924777
1.0359095383290509, 0.5676772749030982, -0.667135335352307
0.9584003221340431, 0.5408529401777732, -0.6311646501476116
1.0882733615989792, 0.6530446354738324, -0.5794074677930121
1.0694743207912274, 0.6216877711740624, -0.4881717342876086
1.063654003054335, 0.6365367208502603, -0.4391574139063975
1.0803184906643741, 0.695597954245185, -0.42851700910598434
1.0641384786475123, 0.7301816446410504, -0.3819555297430068
1.1065854297043276, 0.7044962104936481, -0.5994866631350402
1.104331063477716, 0.6983277100501755, -0.6526511394083108
1.102848717608654, 0.6935580943522317, -0.7051211440664038
1.0456597427019205, 0.5770487953594613, -0.5890781590922864
1.0520620366518167, 0.5859445716062268, -0.6649367125342411
0.9477354796821507, 0.5356185314396823, -0.35295382503079287
0.9100302776163653, 0.5551178334948063, -0.48629003416251004
0.8980321895923529, 0.5897366166131163, -0.3819723477584927
0.9634869448915098, 0.5801661653751014, -0.35141599326438977
0.8973879199695234, 0.557305867357615, -0.40257682337206857
0.8940525669372656, 0.6076559124422791, -0.3969340410896636
0.8934059984125178, 0.6055169700035232, -0.39896696254287684
0.9008858904415316, 0.5513660763251645, -0.40237686940696094
0.8946122086000976, 0.7120240513626684, -0.4325061590665056
0.9510585996476483, 0.5324268323020251, -0.4307089825435715
0.8814177063872218, 0.7390773754933836, -0.5706050141949149
0.8847325233542537, 0.75459839323599, -0.6343913918518453
0.8735442599148249, 0.675531766173733, -0.6433730600992716
0.8755774262118992, 0.6232722701498591, -0.6110486885422549
0.8800071620653777, 0.6061383982916383, -0.6212501263416464
0.9147276446869893, 0.5561272508878441, -0.5852012610249172
0.9544730812826304, 0.5415383064931789, -0.6009846261994675
0.9398184482237071, 0.542930911492645, -0.5100745800552852
0.9704277836483302, 0.5371833413455508, -0.5539148293069583
0.8734671983306962, 0.6657872678516599, -0.5282309443688188
0.8833418553841035, 0.7201975877772808, -0.48232133009622835
0.8756096929452754, 0.6661492146093966, -0.49529232774257237
0.8816624684075272, 0.5995846696956322, -0.5362485513271938
0.9061864007187347, 0.5737011107979212, -0.3638269099016692
0.8732206308321413, 0.6704937813282659, -0.694147665722555
0.8985483511007337, 0.5700322297435889, -0.7401995940727976
0.9069760688872575, 0.5617723210697652, -0.6860309262401749
0.8787353530148265, 0.6119365172270305, -0.6847753613999982
0.9416345853039649, 0.544954066411875, -0.6842656452111897
0.8743528691735376, 0.6788250094413184, -0.5401942498710832
0.9003463648378494, 0.7732132275343422, -0.4591640410973046
0.9309219608928196, 0.7528658936636142, -0.37709558280510036
0.9000754541245066, 0.7140888577460135, -0.41605639726722377
0.9533290952888593, 0.703190407454148, -0.350319992353058
0.8768768876449159, 0.7071229295398704, -0.7174662020200503
0.8797811801337798, 0.7304680120927246, -0.6884360404427134
0.8728491373866192, 0.6594214125495411, -0.6249680542802012
0.8744357850532916, 0.6335264670046373, -0.6631473371109801
0.9622303620922987, 0.6197242401111422, -0.34978859347184343
0.9182995309992885, 0.5289964263739009, -0.36947926679256354
0.9928618930892078, 0.6909325937244937, -0.3478654765913584
1.0340496647880237, 0.7315022724876336, -0.35521558077031024
1.088922195943426, 0.934863294114891, -0.7538581613414008
1.0449825802185084, 0.8947998963424852, -0.3547272087388585
1.0984799934322527, 0.9264315540153931, -0.3904980398066398
1.1032771486381696, 0.8894204232351761, -0.4060258089586359
1.1021259771790675, 0.9236852215356065, -0.4243874862330164
1.0841135488849918, 0.9543741858735871, -0.41762244399072224
1.1098877682574608, 0.8929285796962836, -0.44507484161081445
1.0992662302248244, 0.9290054785715898, -0.45232424351986966
1.1104725254320884, 0.7163735698724851, -0.5904952767923749
1.1143575300728812, 0.734079972945239, -0.630969573605817
1.1236597595575923, 0.7888896378204729, -0.570037733255705
1.122215876437816, 0.8719396626372864, -0.5942067975709072
1.114913382734048, 0.8959484832855447, -0.6005864194897478
1.110605960670412, 0.9055876552992983, -0.6202293847483087
1.1104227909664057, 0.902510786839523, -0.49659810577000135
1.08701949103736, 0.9343276201992701, -0.5519021734745709
1.1217462332237185, 0.7875231614163694, -0.5160638997227516
1.1040760384946402, 0.917256868408427, -0.50601257706799
1.1245601567145909, 0.8415120700688489, -0.5147213310525967
1.0709719576436343, 0.8569321549208572, -0.36326540335396135
1.1273198250337355, 0.8424638690240754, -0.7089233469054386
1.1267455118256393, 0.8287264365575908, -0.6128071510713781
1.0890962721396535, 0.9313796742005869, -0.584582168948105
1.1112841251317356, 0.9032664332859446, -0.5845523147490985
1.0625144892300042, 0.9463911109150418, -0.7395844450272336
1.0949301696945595, 0.6801293895990815, -0.500897800830875
1.1112282955371173, 0.7278795978388075, -0.5222044335206351
1.1131564842523685, 0.7485702265090433, -0.4957926516309633
1.1202276473494293, 0.7928717340232881, -0.49281646144103775
1.0855121670965753, 0.6988092089349113, -0.4402494590271149
1.099216043881683, 0.8288766879680446, -0.40776985111212644
1.0472400738675904, 0.683554086490833, -0.3761063707959848
1.109895346556411, 0.8321454326100937, -0.43207946596150726
1.0660978558983456, 0.7502228865762121, -0.37751402225777553
1.0507643524280752, 0.7666242814459183, -0.3601756532279068
1.1217717939111553, 0.7700519543820743, -0.6882566911157041
1.1144431843002736, 0.7342585617594695, -0.6231957562989532
1.1196531981786213, 0.7600189169199766, -0.6910105122738656
1.1229361769368484, 0.7813166739436664, -0.6840967224822153
1.0659923352774663, 0.969551791590612, -0.3995937151128842
1.1232711207599837, 0.868743077969407, -0.6511706189465285
1.0786956181408573, 0.9594971871901068, -0.3593162665616607
1.039819347110707, 0.7830517378904158, -0.35300653308735885
1.0119430579016535, 0.9524474277279865, -0.5855791874798075
0.986099430610672, 0.9520730364281079, -0.3949084533681281
1.0305309636430595, 0.9089626721932932, -0.3545501095527187
0.9974142672727547, 0.966481197741947, -0.37993658959484644
0.9737486414637941, 0.9358536952763561, -0.42007269907281564
0.9796247065925914, 0.9418809394786996, -0.4062751012814157
1.0334379856988503, 0.9669006572095731, -0.44422083099748666
0.9186079861842237, 0.842245542112465, -0.4767881091150238
1.0679367893236675, 0.9605320614144055, -0.43221214664738605
0.9045623541356794, 0.8215142809404374, -0.5388271172876159
0.9006036289133437, 0.8116591515907231, -0.631189228497463
0.9101891101750691, 0.8391886509311088, -0.6021036141313127
0.9519289778092065, 0.9159417263888493, -0.5375552263816475
0.9753821085812111, 0.9395430068518287, -0.5891114076969195
1.0356935042961481, 0.9519530891952638, -0.5696340007700365
0.9856677077578596, 0.9484177753813299, -0.49010548809858334
1.0698951383817916, 0.9522352098045728, -0.47448970993054057
1.0329335363378498, 0.9557808837108878, -0.514134651914661
0.9110763578099341, 0.8342270408712759, -0.508643910630524
0.9554293792918895, 0.9196805803491375, -0.5342793949396396
0.9435586504877461, 0.904114507771419, -0.5311716392210212
0.9417090107446366, 0.90083255544523, -0.5223154178720981
0.9250517512248332, 0.8735716985332828, -0.6190766639038755
0.9130427038803298, 0.8442143829874855, -0.7359138737939565
0.9202361326139188, 0.8615814178786173, -0.6459165687226224
1.0055984619468732, 0.9504201637064476, -0.6625791186150537
0.980182719538017, 0.9405395332953566, -0.7303386696500258
1.0399420470858214, 0.9490276955083481, -0.6461955961289079
0.9009626010844489, 0.809230761482628, -0.5293204630147597
0.9032088988947957, 0.8108158653248877, -0.5071869105359659
0.9270631133255712, 0.8614375968493038, -0.4763056296845408
0.8858071077184181, 0.7450585033099889, -0.5055952830063319
0.9315123448915383, 0.8532386910919352, -0.4416167373625817
0.9446176546746113, 0.8670447556212365, -0.4161804625476947
0.9217159325407471, 0.7474320423858604, -0.38930344341924616
0.9519730348109927, 0.8486512705561273, -0.38908969918713504
0.9570932925250765, 0.8073659275935731, -0.36471926885367945
0.959783051914004, 0.7671865109507252, -0.3535540869723138
0.9023906554105641, 0.8170458284083039, -0.6718067739477104
0.885157991757848, 0.7571431363167738, -0.675729637751306
0.9041571647885095, 0.8225517398704713, -0.7489558010857497
0.9090952123876745, 0.835031426098363, -0.6910273909097033
1.051058165348532, 0.9779558713819335, -0.3875480571007176
0.9363202815922802, 0.8944033001524195, -0.6583009032355458
0.9639873514046724, 0.929685194686356, -0.6140479159563346
1.0233137002787973, 0.8732288716716426, -0.3530341726172222
1.024934806959159, 0.9870990121361987, -0.36966237051773
0.9984475443211389, 0.8378459145527428, -0.350707687732425
1.0143824612339194, 0.7170458999361624, -0.34928863062074483
0.977299814561511, 0.5310730265939598, 1.0313583236880481
1.0401643937935166, 0.6517706768605354, 1.0073090341524862
0.9765930919853865, 0.580484555728841, 1.0363357035749752
1.0542704995659882, 0.6617600612432994, 0.9900538510272416
1.0548694255258093, 0.6247537447355254, 0.9637564754102848
1.0353731148836276, 0.5925404146475916, 0.9787303870757597
1.0772342243832607, 0.6557435607823721, 0.9302738053162123
1.0353138509142377, 0.5697408999575675, 0.906146142768663
1.0894893821620113, 0.656033890008431, 0.7749366571032883
1.0858718663122704, 0.6505315330251336, 0.8578865352204295
1.0573129513186683, 0.5925832207157673, 0.7463142311348216
1.042405139631593, 0.5740743905509206, 0.7530739904956235
0.9963884002690697, 0.5418207481709267, 0.7704837698282838
0.9684266543377167, 0.5374334275290253, 0.8410999302913683
0.9939372002110922, 0.5395779565571694, 0.8669426014917536
