-0.6466956239973354, -1.1102229998097382e-18, 0.14671125929951484
-0.6868288779912658, -1.1102229998097382e-18, 0.16109759081274225
-0.549918001695936, -1.1102229998097382e-18, 0.2625647149431981
-0.6716714339867652, -1.1102229998097382e-18, 0.24188073044898095
-0.6152719161070794, -1.1102229998097382e-18, 0.1902252454603723
-0.6760125694402166, -1.1102229998097382e-18, 0.22932636765131487
-0.5785266272345309, -1.1102229998097382e-18, 0.2426184405841304
-0.6668475644277205, -1.1102229998097382e-18, 0.24896088298684232
0.051305595943213336, -1.1102229998097382e-18, -0.7818020542682101
0.05656587047019664, -1.1102229998097382e-18, -0.7777100378661633
0.19817942522295617, -1.1102229998097382e-18, -0.7023208348181695
0.015564134233726663, -1.1102229998097382e-18, -0.8015704390066155
0.07816713645115603, -1.1102229998097382e-18, -0.7349891744836594
0.08240676076424525, -1.1102229998097382e-18, -0.7133622675559625
0.024261453193058898, -1.1102229998097382e-18, -0.8114694199979143
0.11961124047362356, -1.1102229998097382e-18, -0.7124548842969446
0.09517122290469253, -1.1102229998097382e-18, -0.7616319889181007
0.05065330139124406, -1.1102229998097382e-18, -0.7090177145658424
0.19541570786501816, -1.1102229998097382e-18, -0.7224349295767142
0.20007225988262012, -1.1102229998097382e-18, -0.6945382292915511
0.1025735137294087, -1.110222999809738e-18, -0.7465579221555977
0.04556310683796269, -1.1102229998097382e-18, -0.7364253861089611
0.0719513128800406, -1.1102229998097382e-18, -0.854448136541526
0.16255926441366028, -1.1102229998097382e-18, -0.8764915976372063
0.169957549278192, -1.1102229998097382e-18, -0.8863681676539324
0.1989744162496481, -1.1102229998097382e-18, -0.9024765682220975
0.26940441041082863, -1.110222999809738e-18, -0.8563601918337956
0.0891634910559054, -1.1102229998097384e-18, -0.8724909390873911
0.1326528436887514, -1.1102229998097382e-18, -0.885761837086283
0.20322226319154574, -1.1102229998097382e-18, -0.9027906460232457
0.19555296799549188, -1.1102229998097382e-18, -0.840575338126206
0.24419620766157635, -1.1102229998097382e-18, -0.8654796117578692
0.2341184956476902, -1.1102229998097382e-18, -0.8517356693561815
0.2688417403796471, -1.1102229998097382e-18, -0.914709457804386
-0.12187619471720328, -1.1102229998097382e-18, -0.9250826140276779
-0.01952011193164169, -1.1102229998097382e-18, -0.89843031180925
-0.04889387482585392, -1.1102229998097382e-18, -0.940023995880379
-0.01540400933148909, -1.1102229998097382e-18, -0.9430006390103067
-0.04536655093595006, -1.1102229998097382e-18, -0.8956203924513186
-0.05092123952738019, -1.1102229998097382e-18, -0.9121705227194357
-0.09819337182310642, -1.1102229998097384e-18, -0.8968932602427793
-0.11849634911560473, -1.1102229998097382e-18, -0.9060943275927691
-0.2001613838524119, -1.1102229998097382e-18, -0.947353316808954
-0.16402441308573504, -1.1102229998097382e-18, -0.9239121611075892
-0.05919118319857957, -1.1102229998097382e-18, -0.9479968783231008
-0.07886398151849466, -1.1102229998097382e-18, -0.7472195599154208
-0.0960403514674222, -1.1102229998097382e-18, -0.7915038905810456
-0.007733582545356582, -1.110222999809738e-18, -0.6986878578098317
-0.17260943231184817, -1.1102229998097382e-18, -0.8058973155871622
-0.09945511022794458, -1.1102229998097382e-18, -0.809489730558802
-0.17672242406534647, -1.1102229998097382e-18, -0.808686544959903
-0.1089329442825712, -1.1102229998097382e-18, -0.7461969733349376
-0.07054206542973071, -1.1102229998097382e-18, -0.8039404867779036
-0.18453475029977665, -1.1102229998097384e-18, -0.8246790078974924
-0.1910074357918879, -1.1102229998097382e-18, -0.8249632816785256
-0.02431201729551998, -1.1102229998097382e-18, -0.7683860768933473
-0.024630467026441553, -1.1102229998097382e-18, -0.8356436938314142
-0.14483662091835742, -1.1102229998097382e-18, -0.823845921470447
-0.14983975002908587, -1.1102229998097382e-18, -0.8150990756017253
-0.03636595681847682, -1.1102229998097384e-18, -0.7129482344719246
0.19444433024710225, -1.1102229998097382e-18, -0.472744303733478
0.18403421348119745, -1.1102229998097384e-18, -0.49801676648221765
0.08835477253821854, -1.1102229998097382e-18, -0.5142438320815266
0.17221452980953283, -1.1102229998097382e-18, -0.47639337491006917
0.01575882568957213, -1.1102229998097382e-18, -0.5455757637450895
0.029934003228668373, -1.1102229998097382e-18, -0.6309300502878151
0.06801931604035633, -1.1102229998097382e-18, -0.521534460934125
0.007225477713461553, -1.1102229998097382e-18, -0.4882083708945223
0.10121497418618686, -1.1102229998097382e-18, -0.5023553123550284
0.07725850209716598, -1.1102229998097382e-18, -0.4687482182922438
0.011717557949444204, -1.1102229998097382e-18, -0.6550887289075854
0.10062211224049705, -1.1102229998097382e-18, -0.5949627224837053
0.18128345158836426, -1.1102229998097382e-18, -0.5209830010754438
0.0759743379870017, -1.1102229998097382e-18, -0.564114705639287
0.05321683014243235, -1.1102229998097382e-18, -0.6204362280633132
0.0024601469705888912, -1.1102229998097382e-18, -0.48440649084910925
0.03196388972868351, -1.1102229998097382e-18, -0.5479808703585984
0.017533307242320315, -1.1102229998097382e-18, -0.5944652587220911
0.08141456864736762, -1.1102229998097382e-18, -0.4822343617676579
0.044534012084559246, -1.1102229998097382e-18, -0.5554482610808822
-0.14915669079699728, -1.110222999809738e-18, -0.7580983432574848
-0.16133469852721594, -1.1102229998097382e-18, -0.7336717956127943
-0.0638396062972556, -1.1102229998097382e-18, -0.7033289907499733
-0.15449106810946953, -1.1102229998097382e-18, -0.7538159854803292
-0.16045417732913364, -1.1102229998097382e-18, -0.756645894099567
-0.1923407434770664, -1.1102229998097382e-18, -0.7070151460576006
-0.2230835270062454, -1.1102229998097382e-18, -0.7658910232751481
-0.27899357507786365, -1.1102229998097382e-18, -0.7545800733713062
-0.28045328376107803, -1.1102229998097382e-18, -0.7533771854924682
-0.22691955916928452, -1.1102229998097382e-18, -0.759355839519956
-0.13687285202428964, -1.1102229998097382e-18, -0.7397860888583228
-0.10148144480590052, -1.1102229998097382e-18, -0.7184503549827962
-0.1827044478369541, -1.1102229998097382e-18, -0.7273951382800918
-0.2004456361575776, -1.1102229998097382e-18, -0.7700900378984669
-0.31250388629865766, -1.1102229998097382e-18, -0.7703326772235206
-0.3346421043088761, -1.1102229998097382e-18, -0.783188777255599
-0.3367942509470256, -1.1102229998097382e-18, -0.7276284486400955
-0.4300180216111079, -1.1102229998097382e-18, -0.8285011088711989
-0.39438659186985386, -1.1102229998097382e-18, -0.7712149550491854
-0.3211051666920918, -1.1102229998097382e-18, -0.7089199746227535
-0.3724218531895618, -1.1102229998097382e-18, -0.7964840781744215
-0.41816487312622297, -1.1102229998097382e-18, -0.773630819096435
-0.35451802145987277, -1.1102229998097382e-18, -0.8271232649752156
-0.31770039401421474, -1.110222999809738e-18, -0.7439796209050212
-0.3615216982370302, -1.1102229998097382e-18, -0.799691996583406
-0.33225224842285983, -1.1102229998097382e-18, -0.8134894708173672
-0.4737419694525393, -1.1102229998097382e-18, -0.8147605612357547
-0.3114791948559445, -1.1102229998097382e-18, -0.7356394865482506
-0.0619278139633464, -1.110222999809738e-18, -0.4819392580569039
-0.20408297267017877, -1.1102229998097382e-18, -0.5808322114141793
-0.03242337642734246, -1.1102229998097384e-18, -0.4792093497896259
-0.1802774369391368, -1.1102229998097382e-18, -0.48023038973196264
-0.1777047987256924, -1.1102229998097382e-18, -0.4921039454782751
-0.17278842373555447, -1.1102229998097382e-18, -0.5258156112910143
-0.2532943521816192, -1.1102229998097382e-18, -0.47032106534598606
-0.2700235352941676, -1.1102229998097382e-18, -0.5537058242243215
-0.2793684832853194, -1.1102229998097382e-18, -0.5677819362606282
-0.18302814857361838, -1.1102229998097382e-18, -0.5092629199857545
-0.23295532503862845, -1.1102229998097382e-18, -0.528831181281962
-0.22921140799732997, -1.1102229998097382e-18, -0.6328169667990913
-0.28103136691308295, -1.1102229998097382e-18, -0.6190627587395776
-0.09099371158197957, -1.1102229998097382e-18, -0.46670653732380285
-0.11830448066141112, -1.1102229998097382e-18, -0.4778108633577648
-0.10824012065872135, -1.1102229998097382e-18, -0.4749167995396704
-0.15561057896845426, -1.1102229998097382e-18, -0.4962897395491032
-0.13899926883833724, -1.1102229998097382e-18, -0.5332275494979579
-0.12130289651480668, -1.1102229998097382e-18, -0.5085795165906041
-0.15015430856094256, -1.1102229998097382e-18, -0.5548863985928022
-0.07854070216506684, -1.1102229998097382e-18, -0.48042994806431155
0.024357935951442672, -1.1102229998097382e-18, -0.28309780508731786
0.07481038449389664, -1.1102229998097382e-18, -0.39253299098082606
0.1913152927645971, -1.1102229998097382e-18, -0.26640116939585395
0.09860403723198392, -1.1102229998097382e-18, -0.3407333171267261
0.03831240544571887, -1.1102229998097382e-18, -0.29908801026705023
0.09361182031334966, -1.1102229998097382e-18, -0.36112005874897896
0.042988824703268015, -1.1102229998097382e-18, -0.3280334478134777
0.18361246734722783, -1.1102229998097382e-18, -0.3119262604417744
0.05114856886034136, -1.1102229998097382e-18, -0.391133055139093
0.19836422384550612, -1.1102229998097382e-18, -0.29917152534760233
0.019249971256994663, -1.1102229998097382e-18, -0.2971428175692361
0.16632042877386927, -1.1102229998097382e-18, -0.2506656856092148
0.052310607341274885, -1.1102229998097382e-18, -0.29669089872341287
0.041550221529177284, -1.1102229998097382e-18, -0.3108078722813568
0.06930731838572907, -1.1102229998097382e-18, -0.2618041747736295
0.20448173646852005, -1.1102229998097382e-18, -0.26258094319613284
0.014173798406325766, -1.1102229998097382e-18, -0.2654703928913035
0.07771177403344219, -1.1102229998097382e-18, -0.33379562899172255
0.07744545201891626, -1.1102229998097382e-18, -0.309502579076553
0.1041746471428829, -1.110222999809738e-18, -0.3401795086929903
-0.24789506226331537, -1.1102229998097382e-18, -0.6777330038273768
-0.005992704657245896, -1.1102229998097382e-18, -0.4969523856196445
-0.06669774648979801, -1.1102229998097382e-18, -0.5373693473516963
-0.013924906504887546, -1.1102229998097382e-18, -0.4848295348283109
-0.05195202429578403, -1.1102229998097382e-18, -0.5693191801030133
-0.10485103987671698, -1.1102229998097382e-18, -0.6388125292748563
-0.19694678094790496, -1.1102229998097382e-18, -0.654512415322615
-0.029465138360794257, -1.1102229998097382e-18, -0.6740162422516204
-0.040718297747656514, -1.1102229998097382e-18, -0.668494247117178
-0.08599837485644231, -1.1102229998097382e-18, -0.6740504490007637
-0.04225147434175072, -1.110222999809738e-18, -0.506189408750675
-0.028514024645061704, -1.1102229998097382e-18, -0.608145882836696
-0.029974593417683767, -1.1102229998097382e-18, -0.6589044557886949
-0.1692720203247476, -1.1102229998097382e-18, -0.6100916864098237
-0.22713774055723981, -1.1102229998097382e-18, -0.6654774099558464
-0.21162260941202712, -1.110222999809738e-18, -0.6577118907338944
-0.10354006163155721, -1.1102229998097382e-18, -0.6458527141283262
-0.01929609823185847, -1.1102229998097382e-18, -0.5956760945614308
-0.1505009101508109, -1.1102229998097382e-18, -0.627454136667453
-0.0873267888234039, -1.1102229998097382e-18, -0.5672240866112762
-0.27858930039069485, -1.1102229998097382e-18, 0.18998432651330338
-0.12186626540148246, -1.1102229998097382e-18, 0.022307781712068493
-0.1413466074119085, -1.1102229998097384e-18, 0.1063434389035097
-0.2622530883093283, -1.1102229998097382e-18, 0.030096260339198624
-0.060820381318388364, -1.1102229998097382e-18, 0.047621658136593296
-0.1153532228439294, -1.1102229998097382e-18, 0.03837066958488523
-0.23473831090346214, -1.1102229998097384e-18, 0.20467650098790127
-0.16177932137056683, -1.1102229998097382e-18, 0.07852311698972494
-0.12939773729876752, -1.1102229998097382e-18, 0.1007062179503088
-0.19586936827404922, -1.1102229998097382e-18, 0.1474903917201772
-0.05801422674098766, -1.1102229998097382e-18, 0.011828240943148983
-0.17935456857608745, -1.1102229998097382e-18, 0.14519516675846308
-0.15977910420061675, -1.1102229998097382e-18, 0.04075489795831981
-0.13456917782906125, -1.1102229998097382e-18, 0.12124707849226142
-0.15876038896611114, -1.110222999809738e-18, 0.13415452694823077
-0.18433624900800907, -1.1102229998097382e-18, 0.1484797285403828
-0.27584007984709524, -1.1102229998097382e-18, 0.06687611000471613
-0.2713141821516995, -1.1102229998097382e-18, 0.1891389871746253
-0.25979399536416703, -1.1102229998097382e-18, 0.13209507675504245
-0.1456356070556581, -1.1102229998097382e-18, 0.0826310043662492
-0.23657587727232837, -1.1102229998097382e-18, 0.03473679814229561
-0.22662973872803643, -1.1102229998097382e-18, 0.12895168557853898
-0.2292693091179081, -1.1102229998097382e-18, 0.024084611548693492
-0.1699857350990783, -1.1102229998097382e-18, 0.11531179672314061
0.1442996117101718, -1.1102229998097382e-18, 0.187942427695864
0.21314293301140722, -1.1102229998097382e-18, 0.22279129982997276
0.12840869572576818, -1.1102229998097384e-18, 0.18976211951728122
0.08236440305867415, -1.1102229998097382e-18, 0.1361737332450426
0.2561384247245031, -1.1102229998097384e-18, 0.2630752384839548
0.08794766646818168, -1.1102229998097382e-18, 0.13382347837914166
0.1377459840704233, -1.1102229998097382e-18, 0.18369027424487158
0.12874097359247935, -1.1102229998097382e-18, 0.17992264613793912
0.12634942796007662, -1.1102229998097382e-18, 0.14565319229467305
0.07584975411750676, -1.1102229998097382e-18, 0.14116375466074416
0.21290264366466063, -1.1102229998097382e-18, 0.2237622752666873
0.18593773729628532, -1.1102229998097382e-18, 0.19263899591037736
0.067463854762378, -1.1102229998097382e-18, 0.15132387799580355
0.11968840903393632, -1.1102229998097382e-18, 0.244887259991872
0.000492462596529158, -1.1102229998097382e-18, 0.19051937046650247
0.02894010753330775, -1.1102229998097382e-18, 0.2386263719733702
0.03794893409803738, -1.1102229998097382e-18, 0.13076318081819382
0.054706328266511756, -1.1102229998097382e-18, 0.16806526415094494
0.1569106799785088, -1.1102229998097382e-18, 0.19904872896852113
0.12664830010356184, -1.1102229998097382e-18, 0.23775298144373225
0.24638323949568003, -1.1102229998097382e-18, 0.2524710651971995
0.004383932499000515, -1.1102229998097382e-18, 0.17671191110189227
0.06149567469604857, -1.1102229998097382e-18, 0.20836145446917698
0.23347003868801874, -1.1102229998097382e-18, 0.233251473955158
-0.14954625252887443, -1.1102229998097382e-18, -0.4015977978208691
-0.1645057285272748, -1.1102229998097382e-18, -0.42765229354095907
-0.16896933166779435, -1.1102229998097382e-18, -0.4189950459218996
-0.01176601401044757, -1.1102229998097382e-18, -0.27988358361172483
-0.06384319529953933, -1.1102229998097382e-18, -0.36213484363866455
-0.0072255629619960675, -1.1102229998097382e-18, -0.3559166956426442
-0.14785655749883142, -1.110222999809738e-18, -0.3644934022622038
-0.15897330576900287, -1.110222999809738e-18, -0.4325724291185867
-0.19679018793382896, -1.1102229998097382e-18, -0.4114250503957278
-0.018638476899323672, -1.1102229998097382e-18, -0.35066004692590325
-0.037241518914802416, -1.1102229998097382e-18, -0.41925332904940704
-0.06526823068081945, -1.1102229998097382e-18, -0.37787407909471604
-0.01769880820579994, -1.1102229998097382e-18, -0.4499105656024507
-0.009816283708412452, -1.1102229998097382e-18, -0.448313852356226
-0.09973530536999188, -1.1102229998097382e-18, -0.3311667770086281
-0.05294590833306085, -1.1102229998097382e-18, -0.3425027019096479
-0.1802817194179765, -1.1102229998097384e-18, -0.44186216147218604
-0.004684265997533421, -1.1102229998097382e-18, -0.2993991467797202
-0.22825807704404996, -1.110222999809738e-18, -0.44842091032171894
-0.06497538897301522, -1.1102229998097382e-18, -0.3648010248150136
-0.010578099667333944, -1.1102229998097382e-18, -0.3207006019265194
0.09061892901319744, -1.1102229998097382e-18, -0.1188727759859203
0.2203663547042541, -1.110222999809738e-18, -0.018892281930301617
0.045386493414656566, -1.1102229998097382e-18, -0.08596123975536854
0.021084402828734923, -1.1102229998097382e-18, -0.07649909176940245
0.11573649732442427, -1.110222999809738e-18, -0.10315455658460428
0.1477072473364237, -1.1102229998097382e-18, -0.038520339508883436
0.02991146031184871, -1.1102229998097382e-18, -0.20658043774845697
0.1814526322955483, -1.1102229998097382e-18, -0.03493224546390994
0.187246942807705, -1.1102229998097382e-18, -0.03811899034711681
0.13980587530326508, -1.1102229998097382e-18, -0.08359897697317134
0.20558581236828263, -1.110222999809738e-18, 0.006774092775420661
0.017609595720350642, -1.1102229998097382e-18, -0.14439219575228587
0.013580943533258916, -1.1102229998097382e-18, -0.11994966522279307
-0.001947314734259188, -1.1102229998097382e-18, -0.1522057033054298
0.20902243569675957, -1.1102229998097382e-18, -0.04225591283407167
0.18216188611406206, -1.1102229998097382e-18, -0.04413284363399197
0.04239514722583347, -1.1102229998097382e-18, -0.006772691613864255
0.12452965713361874, -1.1102229998097382e-18, -0.07193200124013059
0.07349164521369043, -1.1102229998097382e-18, -0.11566825988872574
0.08730008979713703, -1.1102229998097382e-18, -0.14982128205968315
0.1209457694651199, -1.1102229998097382e-18, -0.05755477480479054
0.15610689696265007, -1.1102229998097382e-18, -0.09810116581381502
0.09949861767531025, -1.1102229998097382e-18, -0.050249426937954506
0.18759241258394838, -1.1102229998097382e-18, -0.022532404788157424
-0.17292369690811651, -1.1102229998097382e-18, -0.09358174691996551
-0.26371817045552626, -1.1102229998097382e-18, -0.2410543999459272
-0.18384018779621572, -1.1102229998097382e-18, -0.15594513181840247
-0.26948592944136, -1.1102229998097382e-18, -0.06508920554133514
-0.23616326301808213, -1.1102229998097382e-18, -0.24050084724133336
-0.23042961471404, -1.1102229998097382e-18, -0.24538709487423066
-0.13321489088289562, -1.1102229998097382e-18, -0.2210352022328254
-0.09750672875859377, -1.1102229998097384e-18, -0.17737804081106903
-0.15815769870494478, -1.1102229998097382e-18, -0.16496986415066342
-0.015755039353862108, -1.1102229998097382e-18, -0.23940612276203238
-0.2218972930945376, -1.1102229998097382e-18, -0.11156617721835055
-0.27564022086052903, -1.1102229998097382e-18, -0.18426745702531322
-0.10810003184813947, -1.1102229998097382e-18, -0.1646008826684162
-0.20168073709998552, -1.1102229998097382e-18, -0.0793273264515666
-0.2791633526259248, -1.1102229998097382e-18, -0.16610421038864356
-0.08197170632910747, -1.1102229998097382e-18, -0.18275309869469009
-0.23345121061548874, -1.1102229998097382e-18, -0.2257370961792134
-0.20416061450709377, -1.1102229998097382e-18, -0.15292987287211357
-0.11744968388982335, -1.1102229998097382e-18, -0.22243328929335043
-0.2819981709357153, -1.1102229998097382e-18, 0.007300001472861118
-0.13842530459827093, -1.1102229998097382e-18, -0.12443963455006819
-0.23165370089082324, -1.110222999809738e-18, -0.05531902876055973
-0.1598305349663346, -1.110222999809738e-18, -0.12413009346456652
-0.13177000798712818, -1.1102229998097382e-18, -0.17134596822384296
-0.0646016346789115, -1.110222999809738e-18, -0.17752751634459904
-0.026199251262543025, -1.1102229998097382e-18, -0.09102518778075881
-0.12068579824100881, -1.1102229998097382e-18, -0.04990388683562122
-0.011475124007529564, -1.1102229998097382e-18, 0.0014101063525132221
-0.0760519927283146, -1.1102229998097382e-18, -0.10094210896132629
-0.05767273457067212, -1.1102229998097382e-18, -0.03135248297960405
-0.046149910318633636, -1.1102229998097382e-18, -0.14530958630754587
-0.13295408911315656, -1.1102229998097382e-18, -0.01494529510967877
-0.11100587878747326, -1.1102229998097382e-18, -0.07343499076306056
-0.19871061458416348, -1.1102229998097382e-18, -0.029797635766476895
-0.113520383814288, -1.1102229998097382e-18, -0.14246700034682297
-0.10292022663718324, -1.1102229998097382e-18, -0.0789050544815347
-0.11086220543278559, -1.1102229998097382e-18, -0.004794172225745254
-0.08992447038212341, -1.1102229998097382e-18, -0.01093612795086403
-0.11088807338283635, -1.1102229998097382e-18, -0.11276779939673996
-0.009444433208607434, -1.1102229998097382e-18, -0.20003368359970747
-0.2089809007620332, -1.1102229998097382e-18, -0.03401776662970046
-0.14554656616874367, -1.1102229998097382e-18, -0.07362173495008456
-0.014080748432418012, -1.1102229998097382e-18, 0.007200408358890908
-0.04495808647223114, -1.1102229998097382e-18, -0.09098537890328003
-0.0032656900166312145, -1.1102229998097382e-18, -0.0697010908792613
-0.05376506407160456, -1.1102229998097382e-18, -0.17791960522212524
-0.21750346999964298, -1.1102229998097382e-18, -0.016254234146950274
-0.09777172578626632, -1.1102229998097382e-18, -0.03591420129361916
-0.43662669822074474, -1.1102229998097382e-18, -0.22068026439559957
-0.3857221308120486, -1.1102229998097382e-18, -0.10804446453910102
-0.3264255554371306, -1.110222999809738e-18, -0.2443284172560616
-0.34333430963661565, -1.1102229998097382e-18, -0.15695021723505964
-0.29222184695010023, -1.1102229998097382e-18, -0.1421532337598959
-0.45023117251682027, -1.1102229998097382e-18, -0.22403449558258806
-0.35553663318208406, -1.1102229998097382e-18, -0.1889284113219315
-0.3074035323897404, -1.1102229998097382e-18, -0.055829092945375226
-0.4445462739902517, -1.1102229998097382e-18, -0.23802693768047
-0.5151966998941085, -1.110222999809738e-18, -0.24219868274912487
-0.36071236679174823, -1.1102229998097382e-18, -0.09407864605466161
-0.38332044270933047, -1.1102229998097382e-18, -0.14676989982609923
-0.2918948871174036, -1.1102229998097382e-18, -0.09250332997968842
-0.302953544987556, -1.110222999809738e-18, -0.022673025697839484
-0.40821201999136764, -1.1102229998097382e-18, -0.23102951661060117
-0.3514854981664295, -1.1102229998097382e-18, -0.08203909341115577
-0.329512453592044, -1.1102229998097382e-18, -0.18230801307184896
-0.30312111308748746, -1.1102229998097382e-18, -0.2403817575874185
-0.2994262824417601, -1.1102229998097382e-18, -0.04758261628330043
-0.5074139308132894, -1.1102229998097382e-18, -0.2446356713871205
-0.3782145579256843, -1.1102229998097382e-18, -0.22605300822580734
-0.40049735480612897, -1.1102229998097382e-18, -0.23344222653991548
-0.4013690206653915, -1.1102229998097382e-18, -0.6195245140289334
-0.31392727464557213, -1.1102229998097382e-18, -0.6246488525582816
-0.31604126741773697, -1.1102229998097382e-18, -0.6158462729467111
-0.4908493464288298, -1.1102229998097382e-18, -0.6573844474885774
-0.3468940289316217, -1.1102229998097382e-18, -0.5477903362732326
-0.3529606129987538, -1.1102229998097382e-18, -0.6498513817807334
-0.4322559073068579, -1.1102229998097384e-18, -0.62694848283009
-0.3240776446865119, -1.1102229998097382e-18, -0.6249231741043348
-0.29694149258667607, -1.1102229998097382e-18, -0.6203103457536041
-0.40831639623281646, -1.110222999809738e-18, -0.5874951909892485
-0.3094326003938393, -1.1102229998097382e-18, -0.5712393856023481
-0.3224745884088336, -1.1102229998097382e-18, -0.6506847074472618
-0.2841804705900329, -1.1102229998097382e-18, -0.6206485406916176
-0.46393731816790085, -1.1102229998097382e-18, -0.6438387421295556
-0.49280905133870917, -1.1102229998097384e-18, -0.6612400834899137
-0.4588162846628554, -1.1102229998097382e-18, -0.6471656349718276
-0.4065114839837074, -1.1102229998097382e-18, -0.6271633656519564
-0.3413410390140623, -1.1102229998097382e-18, -0.6636137710371471
-0.310475435233706, -1.1102229998097382e-18, -0.5428267866195708
-0.38927599235105054, -1.1102229998097382e-18, -0.6365986432963584
-0.20647528996046, -1.1102229998097382e-18, -0.26987574246258805
-0.21784974623876113, -1.1102229998097382e-18, -0.3063822148670193
-0.2770502176619657, -1.1102229998097384e-18, -0.42254366790907166
-0.25106800496805654, -1.1102229998097382e-18, -0.31729956453702346
-0.19334531491418178, -1.1102229998097382e-18, -0.3574860611994856
-0.10031055001594719, -1.1102229998097382e-18, -0.3092625845664278
-0.17058509009700973, -1.1102229998097382e-18, -0.2966804336395704
-0.223640087872283, -1.110222999809738e-18, -0.40687045483465684
-0.2291965322702169, -1.1102229998097382e-18, -0.28104504776786376
-0.21184144844274325, -1.1102229998097382e-18, -0.2558706322948735
-0.0643210384534853, -1.1102229998097382e-18, -0.26803061283289137
-0.27469877371575546, -1.1102229998097384e-18, -0.42695178264644773
-0.11219430155117059, -1.1102229998097382e-18, -0.32867525546055937
-0.27638416421953427, -1.1102229998097382e-18, -0.2539098954651472
-0.19786499117901055, -1.1102229998097382e-18, -0.3822346454677157
-0.17438426718931863, -1.1102229998097382e-18, -0.36160410554128136
-0.2198956006887527, -1.1102229998097384e-18, -0.4089244531957791
-0.24608667502660939, -1.1102229998097382e-18, -0.36695805780428103
-0.26823605102100084, -1.1102229998097382e-18, -0.3011637456416966
-0.11212508541762548, -1.1102229998097382e-18, -0.28681360368028425
-0.5165622579125969, -1.110222999809738e-18, -0.44047423314265005
-0.33840503796865534, -1.1102229998097382e-18, -0.44672260009168463
-0.43446424102203585, -1.1102229998097382e-18, -0.43393684202045174
-0.34569691038253025, -1.110222999809738e-18, -0.3682303911951042
-0.38958311259247835, -1.1102229998097382e-18, -0.3536622693117366
-0.3191683211230178, -1.1102229998097382e-18, -0.2809447552569627
-0.5176686198454951, -1.1102229998097382e-18, -0.4442012169342434
-0.3973319218515318, -1.110222999809738e-18, -0.3525922507808502
-0.3386385022722467, -1.1102229998097382e-18, -0.35048556140717646
-0.3495475822582961, -1.1102229998097382e-18, -0.30495072743954377
-0.3070938172200427, -1.1102229998097382e-18, -0.36780305586466666
-0.3771953370238391, -1.1102229998097382e-18, -0.45172721452653897
-0.4876172654890626, -1.1102229998097382e-18, -0.4355254421472595
-0.4366709232283671, -1.1102229998097384e-18, -0.4355739668312388
-0.2857169538544668, -1.110222999809738e-18, -0.2910292029497039
-0.5006819066891719, -1.1102229998097382e-18, -0.46351664105493795
-0.3115679966001732, -1.1102229998097382e-18, -0.3477211467378901
-0.3948545761295879, -1.1102229998097382e-18, -0.3401173177371306
-0.33893440137303416, -1.1102229998097382e-18, -0.44930654460547
-0.3215636683912781, -1.1102229998097382e-18, -0.33629360018895416
-0.723325167267669, -1.110222999809738e-18, 0.12450201979423736
-0.7388432512605988, -1.1102229998097382e-18, 0.1703756194077917
-0.6636620063922973, -1.1102229998097382e-18, 0.09283644872613683
-0.578219982906032, -1.110222999809738e-18, 0.016228007009097684
-0.6352387820158772, -1.1102229998097382e-18, 0.07408982368855854
-0.6811786202222876, -1.1102229998097382e-18, 0.08165700656894272
-0.7703511171967556, -1.1102229998097382e-18, 0.10619620708058855
-0.5819280917073181, -1.1102229998097384e-18, 0.014365613697259761
-0.6898561340624344, -1.1102229998097382e-18, 0.06687113386987095
-0.6843827228363124, -1.1102229998097382e-18, 0.0943566085583217
-0.6410098254200197, -1.1102229998097382e-18, 0.09571492255095715
-0.6327780930075161, -1.1102229998097382e-18, 0.06668977986865356
-0.6874314309126929, -1.1102229998097382e-18, 0.0729469303769121
-0.7896002425570775, -1.110222999809738e-18, 0.012053662226564836
-0.7309956628171228, -1.1102229998097382e-18, 0.1023830997847961
-0.7919745360361121, -1.1102229998097382e-18, 0.21034074774883946
-0.6038131702806333, -1.1102229998097382e-18, 0.06001246892562711
-0.7156070437264606, -1.1102229998097382e-18, 0.06508143547270864
-0.6944080610548781, -1.1102229998097382e-18, 0.009686343171733574
-0.7772485348609439, -1.1102229998097382e-18, 0.16031255614303752
-0.6102773193161132, -1.1102229998097382e-18, 0.0394157169094018
-0.4649326490031622, -1.1102229998097382e-18, 0.17235302405361272
-0.4703774581523212, -1.1102229998097382e-18, 0.10616337558965785
-0.5271596935971116, -1.1102229998097382e-18, 0.24399356557287874
-0.3719581330393305, -1.1102229998097382e-18, 0.22624685877556364
-0.511181252031606, -1.1102229998097382e-18, 0.23081290546028746
-0.4219291475894691, -1.1102229998097382e-18, 0.16324086402563562
-0.48645093165735775, -1.1102229998097382e-18, 0.19130651033164753
-0.33679147495722916, -1.1102229998097382e-18, 0.2223665023257167
-0.3490316007873369, -1.1102229998097382e-18, 0.2508342237270488
-0.521564259929342, -1.1102229998097382e-18, 0.2315463840719227
-0.3911946155705243, -1.1102229998097382e-18, 0.21759086395297433
-0.47377956819862116, -1.1102229998097382e-18, 0.2601462575230439
-0.3428379480891913, -1.110222999809738e-18, 0.2177932034795851
-0.3962999576738143, -1.1102229998097382e-18, 0.23957301304908896
-0.5419607608702506, -1.1102229998097382e-18, 0.2522405253498714
-0.44470265590713176, -1.1102229998097382e-18, 0.16212921069907893
-0.37015823210167204, -1.110222999809738e-18, 0.20265051316568253
-0.4008010827035043, -1.1102229998097382e-18, 0.2531295648423829
-0.49833213640327206, -1.1102229998097382e-18, 0.1682085719785372
-0.504939800913991, -1.1102229998097382e-18, 0.20548572376661006
-0.5011680081170816, -1.1102229998097384e-18, 0.06636678295895432
-0.510801484776777, -1.1102229998097382e-18, 0.16238114618779198
-0.4528446575582084, -1.1102229998097382e-18, 0.21900614479865038
-0.5300125560621419, -1.1102229998097382e-18, -0.06726988212656784
-0.5161694647318202, -1.110222999809738e-18, -0.21283988671404622
-0.36868332260833436, -1.1102229998097382e-18, -0.03410062163540734
-0.5295100593969831, -1.1102229998097382e-18, -0.12995053501095213
-0.3790425372942594, -1.1102229998097382e-18, -0.03403767745474707
-0.49778424756512013, -1.1102229998097384e-18, -0.18120478171654716
-0.49924376964873485, -1.1102229998097382e-18, -0.047590499465311964
-0.4116378377975231, -1.1102229998097382e-18, -0.10476361676887953
-0.5193020691265691, -1.1102229998097382e-18, -0.07643257121211784
-0.41959090885919637, -1.1102229998097382e-18, -0.08883739693708591
-0.42122059186292915, -1.1102229998097382e-18, -0.0004377901781614608
-0.5379171095905917, -1.1102229998097382e-18, -0.22589548914241417
-0.5345946814451199, -1.1102229998097382e-18, -0.1412638507425007
-0.48100143677156415, -1.1102229998097382e-18, -0.008550609915218794
-0.46567133792889204, -1.1102229998097382e-18, -0.04547962534284571
-0.4434800197122037, -1.1102229998097382e-18, -0.04537553403178762
-0.5052613706527126, -1.1102229998097382e-18, -0.1668309515058437
-0.5303315807630887, -1.1102229998097382e-18, -0.10882410860976997
-0.40092212187491894, -1.1102229998097382e-18, -0.0438495440110742
-0.5275303306842114, -1.1102229998097382e-18, -0.10825689335137247
-0.5401722512484964, -1.1102229998097382e-18, -0.1120030026076087
-0.5007463707351641, -1.1102229998097382e-18, -0.10804291677194842
-0.39962719254513235, -1.1102229998097382e-18, -0.01449723992450736
-0.7634758214373563, -1.1102229998097382e-18, -0.1495147752003276
-0.7767908468725935, -1.1102229998097382e-18, -0.034241574632851546
-0.5736656953805177, -1.1102229998097382e-18, -0.23587670432639274
-0.6824710303925796, -1.1102229998097382e-18, -0.1789822492225031
-0.757573376932648, -1.1102229998097382e-18, -0.07634075354965696
-0.6723931278245031, -1.1102229998097382e-18, -0.1572517620637155
-0.7644969881148214, -1.110222999809738e-18, -0.03548235412630649
-0.6816668477164856, -1.1102229998097382e-18, -0.13872778959135548
-0.7511246081019826, -1.1102229998097382e-18, -0.07087316632613709
-0.749505089809317, -1.110222999809738e-18, -0.06401234978451645
-0.7904598002939445, -1.1102229998097382e-18, -0.2005151480889287
-0.7060116084828707, -1.1102229998097382e-18, -0.19082359165814908
-0.6439442671562627, -1.1102229998097382e-18, -0.1597640094816949
-0.699204814587206, -1.1102229998097382e-18, -0.21426189527516448
-0.742314616927993, -1.1102229998097382e-18, -0.17602325476185895
-0.6201434007316314, -1.1102229998097382e-18, -0.22897730702256053
-0.6188955571434152, -1.1102229998097382e-18, -0.2178374013583558
-0.6741860992068316, -1.1102229998097382e-18, -0.22366751662667272
-0.7874458724671607, -1.1102229998097382e-18, -0.021326559325000667
-0.7388848303457913, -1.1102229998097382e-18, -0.0538601030039155
-0.7265298248377765, -1.1102229998097382e-18, -0.15309043005495493
-0.6001548765956313, -1.1102229998097382e-18, -0.10393388637871293
-0.6005583596099203, -1.1102229998097382e-18, -0.11325775551351212
-0.5639226770763048, -1.1102229998097382e-18, -0.12177277770201038
-0.5568665084220215, -1.1102229998097382e-18, -0.0845222651901588
-0.6458385380979834, -1.1102229998097382e-18, -0.01698399350222653
-0.7125852869324674, -1.1102229998097382e-18, -0.058585163513329104
-0.6646879689211233, -1.1102229998097382e-18, -0.06488679951237263
-0.7175901259594809, -1.1102229998097382e-18, -0.026858992978610274
-0.7280344291362709, -1.1102229998097382e-18, -0.030955964706240898
-0.7759009862317096, -1.1102229998097382e-18, 0.002638391306081373
-0.6449765054365134, -1.1102229998097382e-18, -0.06800343762614605
-0.7282203019027288, -1.1102229998097382e-18, -0.06011343174486726
-0.555195668827535, -1.1102229998097382e-18, -0.21455405103945868
-0.6637583023096346, -1.1102229998097382e-18, -0.0604633224728698
-0.5519051299165894, -1.1102229998097382e-18, -0.0039051305861017432
-0.6801643271382651, -1.1102229998097382e-18, -0.02340760611526756
-0.6901513309754825, -1.1102229998097382e-18, -0.05082174504913806
-0.5667207372350684, -1.1102229998097382e-18, -0.20128168869373173
-0.6525881135870013, -1.1102229998097382e-18, -0.0057850053297266125
-0.5778102419099161, -1.1102229998097382e-18, -0.10621393504474717
-0.5952791141536572, -1.1102229998097382e-18, -0.09249474564954603
-0.9370541551585952, -1.1102229998097382e-18, 0.05941151408551431
-0.9210414516637486, -1.1102229998097382e-18, 0.1507448030711525
-0.9103516300504282, -1.1102229998097384e-18, 0.11782680032170588
-0.9937731917960034, -1.1102229998097384e-18, 0.19816442589413197
-0.9107463757997124, -1.1102229998097382e-18, 0.14839164587111134
-0.9979540081522736, -1.1102229998097382e-18, 0.07341925874421223
-0.9352445028642882, -1.1102229998097382e-18, 0.05037185383123399
-0.9738115597821881, -1.1102229998097382e-18, 0.08859027304287423
-0.9420634582043447, -1.1102229998097382e-18, 0.009271461144985515
-0.9932367068181414, -1.1102229998097382e-18, 0.06963569485505161
-0.9562475785272824, -1.1102229998097382e-18, 0.1614597435628574
-0.8869179048470116, -1.1102229998097382e-18, 0.08079678428006302
-0.9842147758854507, -1.1102229998097382e-18, 0.08185330350320598
-0.9842879801627743, -1.1102229998097382e-18, 0.13035707750063336
-0.9323245744938992, -1.1102229998097382e-18, 0.17213908453502189
-0.9655796834819079, -1.110222999809738e-18, 0.21313276861244446
-0.8255207536852306, -1.1102229998097382e-18, 0.01823525379750288
-0.9320495667204848, -1.1102229998097382e-18, 0.06376163767518453
-0.660149615585851, -1.1102229998097382e-18, -0.3650664434612433
-0.5781418986341087, -1.1102229998097382e-18, -0.3240976931224543
-0.6301711554877505, -1.1102229998097382e-18, -0.33449983267851957
-0.6242616231056992, -1.1102229998097382e-18, -0.25085087618194113
-0.5590365668730337, -1.1102229998097382e-18, -0.2912436916819731
-0.683805047834855, -1.1102229998097382e-18, -0.26363417347245754
-0.5744648444230798, -1.1102229998097382e-18, -0.2554374264746678
-0.6129834241137722, -1.1102229998097382e-18, -0.3228197389913433
-0.6834041318112241, -1.1102229998097382e-18, -0.2640478696988537
-0.7374723197003554, -1.1102229998097382e-18, -0.28303618846740863
-0.5786989756783427, -1.1102229998097382e-18, -0.34894473041962887
-0.6228798235381567, -1.1102229998097382e-18, -0.35926193433064085
-0.5580083980544079, -1.1102229998097382e-18, -0.3448437038580814
-0.558324727902172, -1.1102229998097382e-18, -0.33438305635931487
-0.5567436046010372, -1.1102229998097382e-18, -0.43060294244771624
-0.654866315054515, -1.1102229998097382e-18, -0.27182073046752225
-0.6322609501155038, -1.1102229998097382e-18, -0.29698165422581607
-0.7727733436546053, -1.1102229998097384e-18, -0.26341389268159326
-0.87782094188919, -1.1102229998097382e-18, -0.22166554151708276
-0.9105490934748132, -1.1102229998097382e-18, -0.11383873966049018
-0.806275979250463, -1.110222999809738e-18, -0.2450819813907711
-0.984522577031326, -1.1102229998097382e-18, -0.07522775606410681
-0.9849613432669669, -1.1102229998097382e-18, -0.0711126868577176
-0.8349430316877295, -1.1102229998097384e-18, -0.23252054299830527
-0.9191631416576501, -1.1102229998097382e-18, -0.11812193823972611
-0.9060690504583395, -1.1102229998097382e-18, -0.14924371922828364
-0.9490088537715182, -1.1102229998097382e-18, -0.20562564496252228
-0.913073842720717, -1.110222999809738e-18, -0.15324095622463002
-0.9441640050507131, -1.1102229998097382e-18, -0.18201385137094495
-0.9782860282707287, -1.1102229998097382e-18, -0.023621179387446088
-0.8525147162603797, -1.1102229998097384e-18, -0.17736753473401617
-0.9567175935531822, -1.1102229998097382e-18, -0.14103745037045567
-0.8741009278042938, -1.1102229998097382e-18, -0.17748486948440814
-0.9459081311280455, -1.1102229998097382e-18, -0.07593693039369581
-0.960206476344027, -1.1102229998097382e-18, -0.20995287024804854
-0.8129070661192433, -1.1102229998097382e-18, -0.22918567517889127
-0.9113675473796553, -1.1102229998097382e-18, -0.37107042650121375
-0.8754554879078412, -1.1102229998097382e-18, -0.3775096158926637
-0.9286074186505398, -1.1102229998097382e-18, -0.40816866547418496
-0.8170005562856382, -1.1102229998097382e-18, -0.3341680777283142
-0.887290984903258, -1.110222999809738e-18, -0.3450480638916789
-0.8703964613029027, -1.1102229998097382e-18, -0.3663968012912554
-0.8102492451522767, -1.1102229998097382e-18, -0.3991259329553399
-0.819438231518731, -1.1102229998097382e-18, -0.30086514047760343
-0.9207068062794066, -1.1102229998097382e-18, -0.40944974667880435
-0.8594122892929125, -1.1102229998097384e-18, -0.3349835135910112
-0.9574565933690025, -1.1102229998097382e-18, -0.44219303428630086
-0.857981521280819, -1.1102229998097382e-18, -0.43654570109226765
-0.8304211728149755, -1.1102229998097382e-18, -0.38882777624155207
-0.8099603701463536, -1.1102229998097382e-18, -0.46361702487443457
-0.860672561299481, -1.1102229998097382e-18, -0.3154227763066535
-0.3149130172885056, -1.1102229998097382e-18, -0.8633449560636544
-0.45817134739948334, -1.1102229998097382e-18, -0.8595813288066628
-0.31050769757359165, -1.1102229998097382e-18, -0.8943875562959134
-0.3261471066977607, -1.1102229998097382e-18, -0.8605191766363199
-0.4900318566670793, -1.1102229998097384e-18, -0.8526815892897138
-0.3062675607849871, -1.1102229998097382e-18, -0.9298026192845149
-0.3967394518843059, -1.1102229998097382e-18, -0.8836640322212649
-0.5243766056340255, -1.1102229998097384e-18, -0.8365836454766289
-0.32689130174716036, -1.1102229998097382e-18, -0.9362446949834692
-0.4096532045662083, -1.1102229998097384e-18, -0.893674538214527
-0.3294845651621011, -1.1102229998097382e-18, -0.865020463362933
-0.5833709616369909, -1.1102229998097382e-18, -0.9456648652803452
-0.7021034679825212, -1.1102229998097382e-18, -0.926900037205307
-0.5750936105517072, -1.1102229998097382e-18, -0.9041525266712082
-0.6202116524659994, -1.1102229998097382e-18, -0.9237688933162013
-0.7008781438188814, -1.1102229998097382e-18, -0.916499967190352
-0.6202473017416774, -1.1102229998097382e-18, -0.9336756162481684
-0.7123804560106138, -1.1102229998097382e-18, -0.926670724645098
-0.5752462230287883, -1.110222999809738e-18, -0.8895331336120265
-0.6870935756312377, -1.1102229998097382e-18, -0.9363290963926664
-0.6505969506341166, -1.1102229998097382e-18, -0.9333064040273271
-0.5133119699429848, -1.1102229998097382e-18, -0.6854371701580318
-0.4041070789455326, -1.1102229998097382e-18, -0.7365294724481937
-0.4291662091195238, -1.1102229998097382e-18, -0.735876947396207
-0.5096182251215529, -1.1102229998097382e-18, -0.7226646607568499
-0.46548730520329296, -1.1102229998097382e-18, -0.6957031547760144
-0.5402940415869187, -1.1102229998097382e-18, -0.7041907376314422
-0.36677307165893974, -1.1102229998097382e-18, -0.7180118054577361
-0.4997819904815453, -1.1102229998097382e-18, -0.7397427029715496
-0.35594062810660254, -1.1102229998097382e-18, -0.6918377153249147
-0.42837836645706207, -1.1102229998097382e-18, -0.6852062396991251
-0.5426606704362136, -1.1102229998097382e-18, -0.7328943489523523
-0.4961501343975263, -1.1102229998097382e-18, -0.7522871157480548
-0.4555790708028421, -1.1102229998097382e-18, -0.7385360817926254
-0.5233879547985971, -1.1102229998097382e-18, -0.7575866163793524
-0.7175174398163306, -1.1102229998097382e-18, -0.8358765156673653
-0.7524808820204251, -1.1102229998097382e-18, -0.7139582675753435
-0.7174735634543994, -1.1102229998097382e-18, -0.811348955379926
-0.7413135614584907, -1.1102229998097382e-18, -0.7650696355470086
-0.712101723328215, -1.1102229998097382e-18, -0.8351782252757219
-0.7312014247190667, -1.1102229998097382e-18, -0.8336634169908239
-0.6169207234143522, -1.1102229998097382e-18, -0.818584086934175
-0.6125024681143538, -1.1102229998097382e-18, -0.8344937219454878
-0.7755907881865359, -1.1102229998097382e-18, -0.8109562044199095
-0.6094874171762364, -1.1102229998097382e-18, -0.821203052337077
-0.6941250650514786, -1.1102229998097382e-18, -0.7673663498168426
-0.6737360742418679, -1.1102229998097382e-18, -0.7905293559479804
-0.45844638768590434, -1.1102229998097382e-18, -0.532677897959284
-0.42303180110278554, -1.1102229998097382e-18, -0.4729811179275757
-0.511178514743022, -1.1102229998097382e-18, -0.4982043198619329
-0.5004774652246254, -1.1102229998097382e-18, -0.6403797683167256
-0.4284527595279112, -1.1102229998097382e-18, -0.5463943631903705
-0.541126158708209, -1.1102229998097382e-18, -0.5739041768178406
-0.528978069613808, -1.1102229998097382e-18, -0.645014057092043
-0.30766048751739256, -1.1102229998097384e-18, -0.4745320291462437
-0.48686383624930163, -1.1102229998097384e-18, -0.5907363598485162
-0.40175101951198494, -1.1102229998097382e-18, -0.5314595034063404
-0.5094542434294039, -1.1102229998097382e-18, -0.6434263113011369
-0.5376752662006947, -1.1102229998097382e-18, -0.5757079955087454
-0.4009746317686099, -1.1102229998097384e-18, -0.5351490354647831
-0.4028449887312463, -1.1102229998097382e-18, -0.47002784635202444
-0.29293590964475225, -1.1102229998097384e-18, -0.4673161382439294
-0.5245062198638983, -1.1102229998097382e-18, -0.6215331433559875
-0.4742263283159849, -1.1102229998097382e-18, -0.4687435393799344
-0.4473239420598825, -1.1102229998097382e-18, -0.5703913432632765
-0.41572009476392147, -1.1102229998097382e-18, -0.5173511343454302
-0.4057002131088962, -1.1102229998097382e-18, -0.5626624655906768
-0.5660049541506743, -1.110222999809738e-18, -0.46006282524501346
-0.7533160862341435, -1.1102229998097382e-18, -0.28776300526812665
-0.7923254583238719, -1.1102229998097382e-18, -0.28847708715078235
-0.6211736811215991, -1.1102229998097382e-18, -0.4036323662935389
-0.699042484927521, -1.1102229998097382e-18, -0.4345511009666274
-0.721185483651754, -1.1102229998097382e-18, -0.43550974036662476
-0.6094984949941478, -1.1102229998097382e-18, -0.4605203207459476
-0.6778702229982649, -1.1102229998097382e-18, -0.43477283541618805
-0.6304885363264515, -1.1102229998097382e-18, -0.4171583743701541
-0.6644006893971711, -1.1102229998097382e-18, -0.3990492376986132
-0.6866692546714765, -1.1102229998097382e-18, -0.45771806020234806
-0.6179992771244608, -1.1102229998097382e-18, -0.4129490423043848
-0.6371147373088129, -1.1102229998097382e-18, -0.4069874183903026
-0.755099097466907, -1.1102229998097384e-18, -0.46148356742030155
-0.7481788185232192, -1.1102229998097382e-18, -0.363952838646062
-0.7845302665849537, -1.1102229998097382e-18, -0.29185285238742203
-0.7130329436269466, -1.1102229998097382e-18, -0.36598259640551845
-0.6561476781550742, -1.1102229998097382e-18, -0.42759100719541177
-0.5282021876008804, -1.1102229998097382e-18, -0.4160964678552716
-0.4620909711378635, -1.1102229998097382e-18, -0.26006683912087025
-0.388535161449412, -1.1102229998097382e-18, -0.25559853700695373
-0.48343354865240906, -1.1102229998097382e-18, -0.2588232474427631
-0.5280783003456433, -1.1102229998097382e-18, -0.28258578397754575
-0.5007335313400499, -1.1102229998097382e-18, -0.32272374131945125
-0.4977764981747984, -1.1102229998097382e-18, -0.36350306212490624
-0.4217855294161559, -1.1102229998097382e-18, -0.2650998147950383
-0.43931132791336713, -1.1102229998097384e-18, -0.37211167963533825
-0.45499135183858924, -1.1102229998097382e-18, -0.27885706226638174
-0.4753646658853628, -1.1102229998097382e-18, -0.27995335913354713
-0.3564715028935572, -1.1102229998097382e-18, -0.2546397353446663
-0.5478642854129644, -1.1102229998097382e-18, -0.3966368632391246
-0.4771307274510327, -1.1102229998097382e-18, -0.3131613970920578
-0.427739828640147, -1.110222999809738e-18, -0.3491560719957201
-0.544334867414787, -1.1102229998097382e-18, -0.3679418925858291
-0.41993047050016885, -1.1102229998097382e-18, -0.3316011366361907
-0.4767568967628907, -1.1102229998097382e-18, -0.3230842680888303
-0.43558851088100253, -1.1102229998097382e-18, -0.34256271514666925
-0.5577567707021811, -1.1102229998097382e-18, -0.6090201650085648
-0.740803280175416, -1.1102229998097382e-18, -0.6445491582019137
-0.7684933537100596, -1.1102229998097382e-18, -0.6606523279838432
-0.6024932936770939, -1.1102229998097382e-18, -0.603479378214456
-0.6064180213994728, -1.1102229998097382e-18, -0.5604098118584537
-0.6661767919849474, -1.1102229998097382e-18, -0.6711308388853595
-0.6476483690094436, -1.1102229998097382e-18, -0.5582812641879741
-0.576699428589999, -1.1102229998097382e-18, -0.5752979320260948
-0.6178935823390941, -1.1102229998097382e-18, -0.6138412083743325
-0.6233331849240951, -1.1102229998097382e-18, -0.6735383556947137
-0.5533124377131751, -1.1102229998097382e-18, -0.5292862419594675
-0.6250367000742788, -1.1102229998097382e-18, -0.5916966285679824
-0.5821254921995304, -1.1102229998097384e-18, -0.5663999715725208
-0.6238383872768184, -1.1102229998097382e-18, -0.6387921871840512
-0.7467205106651865, -1.1102229998097382e-18, -0.6669403097153646
-0.6388138027015889, -1.1102229998097382e-18, -0.5606338082816926
-0.6259822877022717, -1.1102229998097382e-18, -0.653370506423432
-0.6832365093122679, -1.1102229998097382e-18, -0.5830676135196307
-0.9006446829983631, -1.1102229998097382e-18, -0.6801203715659454
-0.8246104809447177, -1.1102229998097382e-18, -0.618866802293017
-0.8995346574046923, -1.1102229998097382e-18, -0.6414484689563165
-0.8530013951812464, -1.1102229998097382e-18, -0.5868694111342219
-0.7958370706036995, -1.1102229998097384e-18, -0.4896610472326489
-0.9488991274149248, -1.1102229998097382e-18, -0.661916445933326
-0.8110982930252235, -1.1102229998097382e-18, -0.5916208075953389
-0.8986669295537543, -1.1102229998097382e-18, -0.6154463993796023
-0.8175304022027139, -1.1102229998097382e-18, -0.5522348206588494
-0.8738666971587138, -1.1102229998097382e-18, -0.5941017941625527
-0.896781162799263, -1.1102229998097382e-18, -0.6036956434898895
-0.8772493069096016, -1.1102229998097382e-18, -0.579087886045777
-0.9781925139300751, -1.1102229998097382e-18, -0.6701855698004245
-0.8707824908873826, -1.1102229998097384e-18, -0.556325301505666
-0.8614182460253266, -1.1102229998097382e-18, -0.5976452594541244
-0.6798741145137386, -1.110222999809738e-18, -0.6954406562144089
-0.5594559091720549, -1.1102229998097382e-18, -0.8259555608616547
-0.5616130234856829, -1.1102229998097382e-18, -0.7986937289692209
-0.5804488517071966, -1.1102229998097382e-18, -0.7947483820697558
-0.633290153163161, -1.1102229998097382e-18, -0.7437179365252424
-0.5708595053219866, -1.1102229998097382e-18, -0.6870957982904379
-0.5807390708601473, -1.1102229998097382e-18, -0.755196666410869
-0.6017360391222486, -1.1102229998097382e-18, -0.7282040920446232
-0.60645744420848, -1.1102229998097382e-18, -0.7062441042276797
-0.5925964935409586, -1.1102229998097382e-18, -0.765485125904029
-0.5506859655233108, -1.1102229998097382e-18, -0.7850326114089051
-0.6826157147690354, -1.1102229998097382e-18, -0.7210895727880469
-0.5568124825022363, -1.1102229998097382e-18, -0.7849140748768881
-0.6292301066385244, -1.1102229998097382e-18, -0.5202878100420342
-0.7715390279853431, -1.1102229998097382e-18, -0.5740086641610689
