-0.5317545916560553, 0.10009513808796688, 0.0037477371279245886
-0.5467981432354281, 0.040783271722052906, 0.003911895214725731
-0.5218264702999186, 0.07362468191555495, 0.003590680078797479
-0.5283137484294571, 0.06979918399989196, 0.0036652567834011634
-0.5352377109156911, 0.22208487690610573, 0.004040507441458648
-0.53711266870375, 0.10594390980902327, 0.0038337213535970835
-0.5209797702523096, 0.10171670023964385, 0.0036250765761703775
-0.5376748348511894, 0.044195174104673045, 0.003774321197501397
-0.5330589151460908, 0.07191177022874305, 0.00373284566820079
-0.513760151719844, 0.07840753938595844, 0.0037155691964675516
-0.5244860159683975, 0.12503285738919778, 0.0037048935266922414
-0.5222635549323643, 0.2310633482348477, 0.003963035116160536
-0.5258018324863792, 0.20684139209547314, 0.003914807579491068
-0.5138917647087515, 0.20054770016628354, 0.00397156720471149
-0.5652619684564203, 0.362941746169624, 0.041736357995962904
-0.5639510682726326, 0.37158428966012996, 0.005261022014815472
-0.42748703009431166, 0.3296177663239623, 0.003481098745070837
-0.38548700649068784, 0.329561804935959, 0.0034218085755282133
-0.5122525276558051, 0.3353619442407579, 0.0037888213153536737
-0.41089100133554035, 0.34087926670347973, 0.003606213978215914
-0.41621370710625416, 0.34272628309078973, 0.003635496085096627
-0.5251736373708173, 0.37607674990222917, 0.041874262877811416
-0.5272882942633119, 0.3433247707363301, 0.04246422157549052
-0.5337769489836539, 0.371116303034032, 0.04225428062472372
-0.5502283331745945, 0.3630625654926775, 0.042453223578254366
-0.5570291742674679, 0.37428418169780253, 0.0047469275260644764
0.008045431240225522, 0.34263153250820966, 0.007011202093365924
0.03961807532435399, 0.35083676296959126, 0.007114678167506149
0.07013815561396482, 0.346870133529919, 0.007060335463731552
0.0022434994035638255, 0.35147865240883314, 0.00712653230491635
0.015860839438243186, 0.34860805974918474, 0.007088004368336499
0.02521138649159914, 0.3245954268447088, 0.006775581515705329
-0.0029184635043166627, 0.3527981879441353, 0.007144139024350549
0.03470217010278045, 0.33529432002342385, 0.006913493842530543
-0.09836872932770188, 0.35730823880613966, 0.007321926405108928
-0.13076115733318858, 0.36048912933016686, 0.007467306155139722
-0.14029757809227375, 0.31879470806723004, 0.006678426193677452
-0.1605136121986082, 0.31860922418079085, 0.006669323903994293
-0.18170529483962494, 0.32313179978891693, 0.0067221734273571875
-0.13912564175574663, 0.34922162018381286, 0.007081263198645124
-0.16856895037897174, 0.3409361294632049, 0.006961988711591659
-0.18737442741073956, 0.33043223867577687, 0.00681687054195709
-0.17850334098743464, 0.33251904582513914, 0.006847390027547243
-0.14351971939787686, 0.3416717999177846, 0.006979957832862049
-0.02101937800993127, 0.3209751923403902, 0.006728307868481734
-0.03085968723654515, 0.3364883737757707, 0.006927970751603519
-0.0956074084049001, 0.32444245118794696, 0.0067610182302326365
-0.076222935450611, 0.3307826536939151, 0.006846472636845725
-0.04022493281244948, 0.33627285719673217, 0.006923632927494761
-0.054624572504000164, 0.3282648328156614, 0.006817359131581293
-0.04601598999215029, 0.31810330792968816, 0.006686930926489364
-0.10544809123730005, 0.3494775797973866, 0.007089696880233785
-0.02293118980411238, 0.3504888255522195, 0.0071115638927278305
-0.10866682778757725, 0.324458796873727, 0.006759622631826198
-0.12567039717013645, 0.3274030618993851, 0.006796667721317628
-0.0985753591856453, 0.34184310814306995, 0.006989787701954414
-0.0890416468358911, 0.3302754679459242, 0.006838315732146577
-0.05488295437874733, 0.350144724749032, 0.007103722284909748
-0.08998811841223606, 0.3518747319778439, 0.0071228905694061045
-0.06874727464773361, 0.3733037921108164, 0.009677312300734462
-0.16701051242955936, 0.3663139480898247, 0.007921199822838128
-0.13691875400467188, 0.3662656416644703, 0.007917119603522996
-0.29943312383478815, 0.36929533090915634, 0.00844467891938015
-0.13678120424126802, 0.3693987690452079, 0.008460947139241762
-0.3173825878659899, 0.36531917307677025, 0.007836254325717374
-0.33597167119283494, 0.3643056675611466, 0.007742369695653962
-0.15241572722173477, 0.37414951784532546, 0.009948979943385417
-0.3928650017750825, 0.3744098609288178, 0.026313490302328966
-0.2726784962341038, 0.374392812784335, 0.030199185588679584
-0.28855346592738235, 0.37432907366515483, 0.03686706169747819
-0.08575319192493179, 0.37435421681287406, 0.03694637105427014
-0.12345139547981278, 0.37435590513737615, 0.03647473285126535
-0.10850525616854648, 0.3743581710805397, 0.03634558276556094
-0.14403096746041816, 0.37451248676665416, 0.019373269282468002
-0.19481086693209157, 0.3745271648489915, 0.016890613701107345
-0.16507599058702382, 0.374580638977996, 0.011661399928092602
-0.32315717756197615, 0.37455550984375535, 0.011563181298272104
-0.32769240223856344, 0.3744888269702445, 0.01874171206898494
-0.29120840010634197, 0.37449491338984564, 0.018742312101695278
-0.2916394762146051, 0.37451827284915606, 0.016190901195143378
-0.17929340325503476, 0.3743542774357525, 0.03585065985219684
-0.15160565721517053, 0.37432722064134216, 0.0392257647311303
-0.21436118238501117, 0.3743818974979632, 0.032299435438822646
-0.23621030454928427, 0.37440796492213496, 0.029126634628382414
-0.2518797277280518, 0.3744185026395668, 0.027734546511967297
-0.1448616011067066, 0.37442897921653223, 0.0283624739996232
-0.1769451708977263, 0.31629653467996655, 0.040159810268986816
-0.24902678696113117, 0.2798701888121133, 0.04015937222072702
-0.22152386964287551, 0.32869001977533074, 0.040159897312547474
-0.2307472576671169, 0.3124684484983069, 0.040159722761925
-0.20784194176534876, 0.3086889877544502, 0.040159704570613144
-0.25900997967617767, 0.29623523925815853, 0.04015953101105055
-0.24900279450420026, 0.32238077178966706, 0.04015980798841378
-0.2295041710817906, 0.3045980948579013, 0.040159643203674836
-0.17925251801649678, 0.3169120715896327, 0.04015981450840908
-0.18959821169800045, 0.31632986236674576, 0.04015979925904903
-0.21120556106328647, 0.31988974491506206, 0.040159816364077325
-0.26785658510804095, 0.3195331904668963, 0.04015976188535452
-0.19320103098188138, 0.3261983473579463, 0.04015989718172986
-0.18108217755743267, 0.31113009045750734, 0.04015975359991509
-0.24174010606196153, 0.3224062793473767, 0.04015981476552647
-0.22824882554395648, 0.2956665927518376, 0.040159552779334216
-0.009848235637821525, 0.3380788431587914, 0.0401361280716892
-0.1019152029446947, 0.34061382431693005, 0.04010713358806527
-0.015271710997547726, 0.35888100142642476, 0.03989860924630883
-0.05545224864981342, 0.3551091518073019, 0.03994165362580347
-0.02682273093047859, 0.340944772171776, 0.040103396030806954
-0.01239584389944972, 0.35509909209143486, 0.03994179208325509
-0.015884002636824802, 0.34421053591443357, 0.040066114036201396
-0.05675669290559844, 0.34156948361623674, 0.04009624676596075
-0.057835553629162484, 0.2646361979309728, 0.04015921249845536
-0.11045714696991879, 0.2952514298950667, 0.04015957136537356
-0.08657470518426691, 0.288965041000125, 0.04015949767731489
-0.054858445455147425, 0.2671854867191578, 0.04015924238081628
-0.10459533074792773, 0.29738559039714185, 0.04015959638166621
-0.10677831771946535, 0.2659571799662097, 0.040159227982798334
-0.09878984897083734, 0.30029859527755415, 0.04015963052744977
-0.11332297639501009, 0.28222253389054053, 0.04015941864271047
-0.0856080331727893, 0.27135721164926896, 0.040159291281117636
-0.08315334310440059, 0.2658554496147434, 0.04015922679033121
-0.09198100277896429, 0.2799029603319223, 0.04015939145303524
-0.13373927097854052, 0.2895498238009861, 0.04015950453204661
-0.0941267514143663, 0.2710370667887301, 0.04015928752843009
-0.11977978212932829, 0.32496737525478897, 0.040159919690996096
-0.11247843740266114, 0.3033730709205418, 0.04015966656596812
-0.013701703744416802, 0.2627787918943738, 0.04015919072623488
-0.31449880910329786, 0.3647020708251864, 0.03982868549201735
-0.35660780643133094, 0.3648756985610182, 0.03982586155183833
-0.39098374403249564, 0.34464326093418096, 0.040059616570996506
-0.3800459258503626, 0.35224481303716243, 0.03997175406120081
-0.39720963855653774, 0.3627381791580201, 0.039849844214423696
-0.3704222000586232, 0.34643143356773964, 0.04003929496817799
-0.3918057339257943, 0.3500817482709478, 0.03999658903614017
-0.3795355395229365, 0.36025149162459674, 0.03987899651824518
-0.2156779930818157, 0.3719422946282812, 0.03973957986367452
-0.20515563462008615, 0.3487419700014369, 0.04001382474374052
-0.14042470011897412, 0.36033962895895033, 0.03988108120998968
-0.2165819940125662, 0.3446843964940904, 0.040060276854089395
-0.15683593261172288, 0.3410105714248807, 0.04010239986031577
-0.1546497978126098, 0.3507564379657896, 0.03999080364184436
-0.1917532267618407, 0.35678744028232906, 0.03992170973086902
-0.16605097079011014, 0.35893610164366, 0.03989712930515465
-0.15246003539338665, 0.3460495942723396, 0.04004470289251447
-0.2582385539637079, 0.3522040079046367, 0.039973234079989275
-0.24092972183413705, 0.3460652883753965, 0.04004427157925558
-0.2112601909578223, 0.3705942781046502, 0.03976231046674443
-0.2633160631038215, 0.3421038696934269, 0.04008947180092639
-0.2552510752205748, 0.3601214761038934, 0.03988209669942629
-0.2294230794467722, 0.3614161023971316, 0.03986767875195367
-0.16526938178489672, 0.3655046739949639, 0.039821812404292216
-0.18595249275496256, 0.35954405515899784, 0.039890072248466746
-0.11104192908792201, 0.06003593091060401, 0.0401591882109642
-0.11584755856163556, 0.022417592224501084, 0.0401591882109642
-0.0347753009210456, 0.0737995211170002, 0.0401591882109642
-0.12689136159156228, 0.043676721137073715, 0.0401591882109642
-0.12492795428168224, 0.07181394947029208, 0.0401591882109642
-0.1287767119713079, 0.05040368063553835, 0.0401591882109642
-0.11493398676908381, 0.0710001711803621, 0.0401591882109642
-0.07603740319233226, 0.05092194698763601, 0.0401591882109642
-0.13410323033251056, 0.024850070816616582, 0.0401591882109642
-0.10372001710262274, 0.05123738170330652, 0.0401591882109642
-0.091067570276898, 0.07418087368510425, 0.0401591882109642
-0.11689902816711112, 0.03337214765800362, 0.0401591882109642
-0.10042886966750693, 0.06534991617462443, 0.0401591882109642
-0.0928201743716551, 0.05036424608821394, 0.0401591882109642
-0.05913945148155109, 0.06994251995735762, 0.0401591882109642
-0.12090209947860278, 0.033099699068375454, 0.0401591882109642
-0.09590941536848185, 0.07269054005753461, 0.0401591882109642
-0.11704093283175132, 0.042838783420444546, 0.0401591882109642
-0.11135977486881514, 0.0703525746263117, 0.0401591882109642
0.0961766613892294, 0.14206577388546104, 0.04015920602651867
0.09994032406251505, 0.10751707964024798, 0.04015920670183927
0.10335231211994428, 0.12953173212737024, 0.04015920731405828
0.053915813530290915, 0.11124834937519071, 0.040159198443580554
0.05884785313589709, 0.09630681912030176, 0.04015919932854507
0.06803627133460637, 0.09442556645909772, 0.04015920097723909
0.08980932155878643, 0.10151228363647483, 0.04015920488401571
0.13254818830684592, 0.15167672227042944, 0.040159212552725594
0.12192903009971903, 0.1082090341690027, 0.0401592106473114
0.09584580575283064, 0.12390875153282231, 0.04015920596715266
0.08899859281902536, 0.09084423639502373, 0.04015920473854523
0.12292961959636732, 0.1583315825257938, 0.04015921082684893
0.12462784748420667, 0.15830706348385576, 0.04015921113156494
0.044441663960792764, 0.09093662434885119, 0.040159196743617266
0.010979733350548984, 0.08775441332735494, 0.04015919073948431
0.11980801274476444, 0.1506747271984088, 0.04015921026673353
0.11243834466589656, 0.13059083546978373, 0.040159208944381054
0.1015307229196286, 0.14783265040269702, 0.04015920698720733
0.0533737812907115, 0.09719980859213068, 0.040159198346322755
0.0883937246082244, 0.10051043130857222, 0.04015920463001266
0.10827698468803362, 0.11160300934559092, 0.04015920819770093
-0.13259764919194175, 0.17625553985072212, 0.0401591882109642
-0.04633952815384463, 0.19900940342360607, 0.0401591882109642
-0.03304249916605821, 0.20549728330682898, 0.0401591882109642
-0.013136588828177627, 0.20581894396219827, 0.0401591882109642
-0.0032467219960616777, 0.2161897832236812, 0.0401591882109642
-0.0698307430638943, 0.19592509775434433, 0.0401591882109642
-0.053552820831729575, 0.1815124814596545, 0.0401591882109642
-0.05175346119187869, 0.21070360708437122, 0.0401591882109642
-0.04685812419634928, 0.21246196003914575, 0.0401591882109642
-0.05664688012365795, 0.22064882761248023, 0.0401591882109642
-0.008631581469484272, 0.18544511377454742, 0.0401591882109642
-0.05145758676989392, 0.17885589897729276, 0.0401591882109642
-0.05483587089116386, 0.2012792671267009, 0.0401591882109642
-0.01292736293950639, 0.23231109456494403, 0.0401591882109642
-0.0369132660075084, 0.1775290595603514, 0.0401591882109642
-0.01325285308467117, 0.20357374450650734, 0.0401591882109642
-0.12444874013303325, 0.18029954982496915, 0.0401591882109642
-0.026191725297570426, 0.21890662830629196, 0.0401591882109642
-0.046009839398051096, 0.2062393633587632, 0.0401591882109642
-0.10121025834002126, 0.18814648459080907, 0.0401591882109642
-0.2513046411398978, 0.10896266546562025, 0.04015917851174409
-0.26396430817004285, 0.11237817318736057, 0.04015917744695878
-0.1821314796130759, 0.14974522528855938, 0.04015918432979336
-0.17968622475004664, 0.15079734916334245, 0.040159184535460024
-0.25282289335169517, 0.17349710349403363, 0.040159178384046215
-0.2650773128020947, 0.09197105274923194, 0.04015917735334565
-0.26678849114122444, 0.09802369110150327, 0.04015917720942105
-0.20182083903767312, 0.15293388197739116, 0.04015918267375132
-0.23458488951179368, 0.15940502522971997, 0.040159179918016936
-0.23207757087503744, 0.14551968670471754, 0.040159180128903696
-0.19838428260985408, 0.1558087311950585, 0.04015918296279485
-0.22703432714124222, 0.16199274829566107, 0.04015918055308324
-0.2665907937187024, 0.11432747704932374, 0.04015917722604907
-0.2636771076786141, 0.1189842378913171, 0.04015917747111477
-0.24704356620705398, 0.12156065138479735, 0.04015917887013662
-0.2588775652756712, 0.12831749198893033, 0.040159177874796975
-0.22805674383161564, 0.14588673255850768, 0.04015918046708933
-0.2356786467378965, 0.15756606507308696, 0.040159179826022684
-0.23977928706498464, 0.12294899524128015, 0.04015917948112407
-0.2502921828839518, 0.07076615529825636, 0.04015917859690041
-0.2286097068825012, 0.05328927795173276, 0.04015918042058045
-0.20752746787949367, 0.07403312463219111, 0.04015918219377546
-0.24941259074190078, 0.03684490393283283, 0.04015917867088157
-0.18046454305356208, 0.06623847924759452, 0.040159184469996854
-0.24093980139316307, 0.032544032802487716, 0.04015917938351498
-0.2671053429226062, 0.028575834557327883, 0.04015917718277113
-0.24977748306465591, 0.08524685669686824, 0.04015917864019103
-0.1989197881361996, 0.07027602850861896, 0.0401591829177543
-0.24389308370734125, 0.07662331869990766, 0.0401591791351189
-0.26804259985018286, 0.05505911642857624, 0.040159177103939875
-0.26721054227737817, 0.08515173696611916, 0.04015917717392297
-0.2673282584133197, 0.05180584197842249, 0.04015917716402204
-0.16067174176689994, 0.08568827345199546, 0.04015918613473922
-0.25303588073892347, 0.034148822707900414, 0.04015917836613217
-0.21944865702822414, 0.07193187517465593, 0.0401591811911024
-0.23607084057570854, 0.04948644925599706, 0.04015917979303586
-0.22877759176840545, 0.07427737173153279, 0.0401591804064599
-0.23807637723480873, 0.07714432064541907, 0.04015917962435322
-0.028860650525259383, 0.08931827771777387, 0.0401591882109642
-0.01875303975287499, 0.13121436093655992, 0.0401591882109642
-0.08319085018139798, 0.1119532515043592, 0.0401591882109642
-0.11792064184777938, 0.09569237421391269, 0.04015918821096421
-0.019638574417077035, 0.15777148635050925, 0.0401591882109642
-0.023160052257614517, 0.15047406056883925, 0.0401591882109642
-0.07725131081889071, 0.10888246960005347, 0.0401591882109642
-0.027344094540036553, 0.10890722598239713, 0.0401591882109642
-0.009730216879050327, 0.16781626340315983, 0.040159188210964196
-0.012059582705668028, 0.09324960678167994, 0.0401591882109642
-0.028134583697944, 0.1356395826171189, 0.0401591882109642
-0.018528529464847628, 0.13766468042203006, 0.0401591882109642
-0.02409096032920958, 0.12001180825430266, 0.0401591882109642
-0.06437026194593691, 0.1215401394800305, 0.0401591882109642
-0.01210440793691056, 0.12876478848696893, 0.0401591882109642
-0.05083033184520191, 0.10415526376945133, 0.0401591882109642
-0.04970300080972974, 0.10453189479540459, 0.0401591882109642
-0.00854453354553588, 0.10224673848484825, 0.0401591882109642
-0.01824610857059822, 0.1588340142621863, 0.0401591882109642
0.051368534547044466, 0.19824340610370084, 0.04015919798651781
0.10882000499339889, 0.21990730366741104, 0.040159208295136015
0.09174526747880013, 0.18154405043645078, 0.040159205231385886
0.12718344091831418, 0.25024935874951365, 0.04015921159011956
0.11037718075387937, 0.19813718273813008, 0.04015920857454279
0.1396262162790753, 0.20481234613817573, 0.040159213822748584
0.12111313321268098, 0.24846138334082493, 0.04015921050091359
0.12279988312019469, 0.2350144265129493, 0.040159210803570086
0.13713992785486143, 0.2430306592596255, 0.040159213376629484
0.12326462623674436, 0.1847601891172226, 0.040159210886959756
0.03805127579749053, 0.19217643183879032, 0.0401591955969787
0.0678080853872558, 0.20993574469576415, 0.04015920093629528
0.042493903896219765, 0.18754658036442703, 0.04015919639412726
0.13671750980695122, 0.21096445815618167, 0.04015921330083427
0.1069058313749641, 0.17595154432199178, 0.04015920795167248
0.08698444896411413, 0.17856064602622906, 0.04015920437714386
0.10476288402094261, 0.20289668684163262, 0.04015920756715967
0.09305069120111674, 0.1970084875415993, 0.04015920546562035
0.04213855837346099, 0.19613111343514575, 0.040159196330366985
0.09018777804125569, 0.20570394519854718, 0.04015920495192282
0.13883540747691203, 0.20041179978478293, 0.040159213680852374
0.07629907479157677, 0.20377367452468303, 0.04015920245984842
-0.077145002885932, 0.16208145511915845, 0.0401591882109642
-0.0867545362437386, 0.13122461177950442, 0.0401591882109642
-0.09358956773354152, 0.14564571419175637, 0.0401591882109642
-0.09549275987087788, 0.15729324342978085, 0.0401591882109642
-0.1126480370796926, 0.16741913577350945, 0.0401591882109642
-0.044945514353480924, 0.15266557602252198, 0.0401591882109642
-0.10672723140449414, 0.1655462501225132, 0.0401591882109642
-0.11281635416174525, 0.11517469036840594, 0.0401591882109642
-0.05553577184549187, 0.16561253229571227, 0.0401591882109642
-0.12866952856904573, 0.11418883858474009, 0.0401591882109642
-0.09306876678998129, 0.11775969858828288, 0.0401591882109642
-0.06556706080671801, 0.16752462620094624, 0.0401591882109642
-0.0928366187121352, 0.15825183726808797, 0.0401591882109642
-0.09964283397432168, 0.1245534445018279, 0.0401591882109642
-0.08249401717550736, 0.13920971110198582, 0.040159188210964196
-0.0981391884681329, 0.11162251477928989, 0.0401591882109642
-0.13143151405920703, 0.1269296367813687, 0.0401591882109642
-0.03209431661400726, 0.1566692318244101, 0.0401591882109642
-0.09144241083386905, 0.13435532541723055, 0.0401591882109642
-0.5446763794404565, 0.10925377176214046, 0.040162450519423985
-0.5447391028975355, 0.11314105653103723, 0.040162434896801186
-0.5421203956956941, 0.13714609819779036, 0.04016203066898019
-0.5525055982064744, 0.24184517972478795, 0.040043313867805845
-0.5463833087189799, 0.18198588952939532, 0.040152322356791156
-0.5430390659653159, 0.0013841297284161271, 0.04016264271858949
-0.544860472065318, 0.06190386336806081, 0.04016266355206931
-0.5453355159785682, 0.06499635476302948, 0.040162707119923535
-0.5405396703642333, 0.024401508712331346, 0.040162295443572256
-0.5475283419096705, 0.17241562583705522, 0.04013234576227549
-0.552167968635641, 0.11908058273129978, 0.04005157059641595
-0.556177909847545, 0.2459171688889291, 0.0399555961538837
-0.5589718133978617, 0.004128126606571029, 0.039797235326349524
-0.5564749258631235, 0.1251427628065564, 0.03994200387164471
-0.5551349560139713, 0.026689045939594733, 0.040001434468672825
-0.5588878916031491, 0.12091406336773236, 0.03979905205439572
-0.5624259942043236, 0.13002966887485878, 0.03467085109836529
-0.5623849046789828, 0.11092259956717293, 0.03925246286671947
-0.5626197359761242, 0.17324851203615743, 0.014165308007817262
-0.562533257010544, 0.11220376338803652, 0.02440992568457928
-0.5625103180911295, 0.03518952215460751, 0.027988032716747102
-0.5624288954438247, -0.00011997114824242237, 0.036473127508880224
-0.5594327635894596, 0.06459614044901879, 0.009148107675259075
-0.5574472819217008, 0.12096429934440919, 0.008583133397640219
-0.5620005765748667, 0.21711346215179475, 0.009920065729196589
-0.5502041275736097, 0.257656718130704, 0.007691218432597073
-0.5530356922119021, 0.1531417502869935, 0.00789473464147882
-0.5597954866938041, 0.10153609265757926, 0.009257674142880576
-0.5406056722285569, 0.03326420421876043, 0.007214427659277404
-0.5455146356204742, 0.006558977806506422, 0.007402228730573937
-0.5335340265418209, 0.16176375866206946, 0.007214593829070567
-0.5106666302893939, 0.14880958362152755, 0.006833478641565316
-0.5350655803912596, 0.1399418028817352, 0.00719546796660944
-0.5255811271703269, 0.12337046774544101, 0.007015359408435827
-0.5430122891815036, 0.24314083150253438, 0.007408544128130662
-0.5466306329036928, 0.2491484198339294, 0.007518189679920358
-0.5500775868374838, 0.12588382556446298, 0.007658252710153198
-0.5420050001569293, 0.117136383797626, 0.007346057188633395
-0.5349647696371757, 0.194442008989212, 0.007249983285907076
-0.5148048048393103, 0.2219069720451018, 0.0069873493816149995
-0.5377615377934803, 0.20938444125866046, 0.00727818624374364
-0.5321915786531576, 0.21953355105625189, 0.00720449945428803
-0.5313784930648191, 0.2455497429071527, 0.007182972774736098
-0.5503323933762405, -0.0007092090414558273, 0.007654914197395551
-0.5470456812644989, 0.11847866425031493, 0.007509402093441774
-0.5406686466100015, 0.35265272371747447, 0.006885845319564264
-0.5415957063558018, 0.3391464773806546, 0.007082714509159629
-0.5624574084156602, 0.2633526478038981, 0.028237604905489846
-0.5623955377259334, 0.2698744539650319, 0.034392647805171705
-0.513742365296995, 0.3211166788608168, 0.006754572134902578
-0.43632876692335953, 0.36042857863628486, 0.007419798906559663
-0.5044525042319621, 0.35413491355807225, 0.007060559076733555
-0.4962898609938565, 0.3242524812592994, 0.006673448870782414
-0.5068932511677319, 0.3388224596575866, 0.006838983172071668
-0.4155905268853804, 0.3675982516432348, 0.00804475368345414
-0.5343789630336313, 0.3609399622686003, 0.007103960308611294
-0.5574604085918113, 0.2749713344990248, 0.039878189613164715
-0.5253733302911695, 0.3699303645751643, 0.008670376116660255
-0.5386779271545356, 0.37246853700966137, 0.03964709421363646
-0.5508131487142807, 0.27111839358845374, 0.04007305894510283
-0.5226829170575439, 0.3410993757968417, 0.0401007665319431
-0.5473012813813596, 0.3599907377191609, 0.03986727868171115
-0.547874429097879, 0.34355120565964015, 0.04005298527262997
-0.5624416530692253, 0.33743082417797876, 0.026482461437647077
-0.5620232010242932, 0.3726665756373755, 0.021631363482699475
0.18968318050494448, -0.32482067099547174, 0.0035282572838927035
0.20370501264312788, -0.32241491995249916, 0.003598652032701782
0.28916121205092554, -0.321470966608102, 0.0037029619120597275
0.09232245713147162, -0.3193456692214281, 0.004173153468104946
0.3699271533376217, -0.3187047780969273, 0.005409869086480572
0.5185491775157165, -0.06762830296752463, 0.0035889863255133313
0.5073450076325847, -0.0397849690490758, 0.005540634916893404
0.5083389167247904, 0.06490063057477616, 0.004144066828111549
0.5133343118388406, -0.30798112890637264, 0.0038028662168638353
0.48986610680722886, -0.32454043753339895, 0.0036201316302261403
0.08176819965026569, -0.33314516433624075, 0.0034293660059987684
0.042767221525549334, -0.333690738563568, 0.0034377299666190266
0.19368241248692708, -0.32752124027760116, 0.003449377549791451
0.25835047754219675, -0.32450186930671193, 0.003535744967754463
0.10573059439700873, -0.3227435984465378, 0.003594192778216404
0.04043576245301202, -0.32290847256209926, 0.0035912637432438744
0.16474336554615365, -0.37850427554462707, 0.006003217874503375
0.37448363935837814, -0.37626472484758755, 0.004981459885745795
0.41377156476910243, -0.3768179633395261, 0.005112579074510533
0.006341196654860463, -0.359340352582308, 0.0038375076184217413
0.1373020082614248, -0.3657332648974653, 0.003937615481068938
0.025527297930675936, -0.3593926691042932, 0.0038383287336123603
0.1493329074718375, -0.3717576630619658, 0.004031940302708781
0.23130158771216267, -0.3645172241179577, 0.003918573577208579
0.19625497017923632, -0.36925144438810587, 0.003992699338640147
0.0037188748744059253, -0.3741704929372939, 0.004485110895896928
0.25555064952566603, -0.375006408328732, 0.004683241057382608
0.07877692796518443, -0.3782652106433079, 0.005871901725325401
0.2527588307144257, -0.37274874337997216, 0.004148137780251302
0.35098038595725334, -0.3670675164029178, 0.003958517095480998
0.3619266644243764, -0.3671138517342377, 0.003959239221417395
0.3432189426211704, -0.37023920275269917, 0.004008159908487746
0.1884782415539485, -0.3799789249897003, 0.01835451083356489
0.2641731325685027, -0.3799789249897003, 0.00888321073017841
0.1767899926375075, -0.3799789249897003, 0.009322874919721344
0.2868590230769905, -0.3799789249897003, 0.018521931963307803
0.33563466344936893, -0.3799789249897003, 0.020406294216260154
0.3534474179094229, -0.3799789249897004, 0.021658048979012683
0.332077168263036, -0.3799789249897003, 0.015128200244627653
0.07221650232000743, -0.3799788904989963, 0.007567835287235225
0.1954097588353092, -0.3799788718883703, 0.007008619546115417
0.215480131075757, -0.3784824533733957, 0.04159866995570715
0.2330120881469094, -0.3726285070268416, 0.0421990574931741
0.2528626024765893, -0.3782067366459636, 0.04162694678112641
0.06698561146139678, -0.3779176875492223, 0.04165658726689225
0.12433144025733286, -0.3794898294720871, 0.041495352279380525
0.018716610352215488, -0.3705945382049337, 0.04227151950917356
0.06657907658862956, -0.36727919634570494, 0.04234595609505086
0.030211618215680018, -0.3653877648044591, 0.042388421196583995
0.37329407316161034, -0.37621460158347125, 0.04183124729840876
0.16848958885942777, -0.3722311171420035, 0.04223477785253743
0.18827479123604712, -0.36774297784486365, 0.042335544081004574
0.16925261902635108, -0.37098881724003774, 0.042262669690901165
0.39896468918051886, -0.34733875436366335, 0.042464216423140924
0.357401772703339, -0.33739834286638126, 0.0424642095849155
0.39657155774722885, -0.34383389724449176, 0.042464216029405984
0.370148523155154, -0.3498908750444477, 0.042464211682101176
0.3878013154756449, -0.3372726245330369, 0.0424642145864636
0.19703240969136315, -0.3242504280887913, 0.04246421241117672
0.20545937175303203, -0.32944059599215497, 0.04246421079363509
0.23084824714688443, -0.3300692690815016, 0.04246420592028186
0.19231910537167116, -0.3250616867351782, 0.042464213315887796
0.20728745186665598, -0.32970427601814123, 0.0424642104427381
0.1925381941993104, -0.3347119131952122, 0.04246421327383405
0.1747873096592724, -0.31788704894815334, 0.042464216681087394
0.1653748978408078, -0.28518219053038574, 0.042464218487784484
0.18065273927575998, -0.32709495971432123, 0.04246421555522774
0.1997092427892322, -0.3046668999606533, 0.04246421189736296
0.2668673487273112, -0.3348792458833846, 0.04246419900647406
0.18957675371370794, -0.321906070223518, 0.04246421384227772
0.1888933854612946, -0.31529983702001363, 0.04246421397344915
0.23810358290858766, -0.31723813357363384, 0.042464204527632
0.24318277573544372, -0.3315891401708565, 0.04246420355268921
0.24814390278591666, -0.3357569169034105, 0.04246420260040897
0.25428954949237886, -0.3653300760182784, 0.042389705164862304
0.2567357529447406, -0.36376485910726997, 0.04242484321772141
0.06771901073583025, -0.35091537191183536, 0.04246422083811737
0.10098283897907752, -0.35816192493239596, 0.0424642216855026
0.060620549022990966, -0.3516069710853742, 0.04246422065728637
0.04452379879535574, -0.35229511534765257, 0.04246422024722688
0.06566643257012388, -0.349859462152066, 0.04246422078582861
0.031511694054136195, -0.36075014332374167, 0.04246421991574773
0.24036289462888005, -0.33943544122768904, 0.042464204093960796
0.23037836390591201, -0.34588659890322904, 0.042464206010475194
0.15794894109748722, -0.33845452236330814, 0.042464219913184775
0.19713393268095306, -0.3444013437698095, 0.04246421239168954
0.21725846331496065, -0.33627586544405785, 0.04246420852881871
0.20336046983511227, -0.3470391206997293, 0.042464211196515896
0.043952961366290254, -0.3356083851774867, 0.04246422023268498
0.0840549782445786, -0.33003538901225304, 0.042464221254270844
0.00606722577555439, -0.3122205362482199, 0.04246421926755816
0.04172915963788415, -0.3045182103020657, 0.04246422017603435
0.0541079143233512, -0.33247398870131606, 0.04246422049137911
0.07878090451324532, -0.33521962279206124, 0.042464221119915525
0.014007265478534144, -0.2818506254309321, 0.0424642194698281
0.026318031203028988, -0.3229033709053195, 0.04246421978344085
0.022861301638850185, -0.29333273308256974, 0.04246421969538179
0.04873263490059099, -0.3035864781381794, 0.04246422035444561
0.05714979178489705, -0.3254706361289551, 0.04246422056886995
0.02322801118868014, -0.3340723475226996, 0.042464219704723596
0.10359749169545884, -0.32728573531483973, 0.042464221752110023
0.011082821224137526, -0.29723960429367857, 0.04246421939532882
0.034923544319076294, -0.3229601741884708, 0.042464220002663505
0.10431442953295952, -0.33552206642049376, 0.04246422177037379
0.3704575312167546, -0.3642861051140691, 0.04241313656912824
0.40539836785285843, -0.37060508310188606, 0.04227124017511485
0.16690566204415025, -0.352952035866693, 0.04246421819395679
0.17013458821511132, -0.3462424564632877, 0.04246421757416968
0.1711846757662127, -0.3541798737148145, 0.042464217372607097
0.2724038621452381, -0.3618100558107755, 0.04246419794374934
0.17590051639591545, -0.3438373439762134, 0.04246421646740917
0.19630310963561529, -0.3483868578864547, 0.04246421255116468
0.3634299851513494, -0.12949779309675416, 0.04246421057671971
0.34563108009448634, -0.13112090980832355, 0.04246420764831778
0.38211346569508653, -0.09221800925064508, 0.04246421365065827
0.37082583331049057, -0.09626071589802732, 0.04246421179353703
0.3277522390569812, -0.10396641312690233, 0.0424642047067642
0.3760428702735838, -0.13967199136292835, 0.04246421265188091
0.3722163794711999, -0.12960331122410615, 0.042464212022319536
0.3504470406409218, -0.11136326532105474, 0.04246420844067371
0.3247108832260047, -0.11920103734829128, 0.042464204206378794
0.3407345027157229, -0.11313157416928805, 0.04246420684269818
0.3454490292971977, -0.09265676235195226, 0.04246420761836549
0.35818333865177465, -0.09409494369609275, 0.04246420971350426
0.32625104716170983, -0.11132871060827185, 0.04246420445977748
0.3431199372101247, -0.09941159527182905, 0.04246420723516675
0.30838951093583883, -0.10607667661915396, 0.04246420152107102
0.3936863714298169, -0.10194282971678263, 0.0424642155547147
0.4107947727500917, -0.1203092144750427, 0.042464218369510066
0.37651170394011646, -0.13499392140713654, 0.042464212729016744
0.37116694974432607, -0.11203324569736606, 0.04246421184965993
0.37289695629941316, -0.14189464587534187, 0.04246421213429286
0.22929982103421626, -0.08320546626095171, 0.04246420621749974
0.19599960986478507, -0.04525347676184299, 0.04246421260942096
0.2135515378438086, -0.05180353450454905, 0.042464209240357
0.205429420547305, -0.06016774179073206, 0.04246421079938418
0.16197292324563994, -0.08892824946190617, 0.04246421914078796
0.1592048957353453, -0.06607724090585738, 0.042464219672106326
0.23456182779796114, -0.07061350911552393, 0.04246420520746612
0.15677515370832074, -0.043978156550038644, 0.042464220138491354
0.17110931542775043, -0.04056413115976511, 0.04246421738707239
0.2223983214956376, -0.07422785312837685, 0.04246420754223132
0.1587692779252257, -0.03391779590799569, 0.04246421975572246
0.2524718964280336, -0.07919467003030445, 0.04246420176965765
0.15166193995596006, -0.06830698995739548, 0.04246422111996439
0.19501575074305658, -0.08870175881350603, 0.04246421279827112
0.18292264439634462, -0.05477194987805783, 0.042464215119523155
0.17190589437055662, -0.06341581767410351, 0.042464217234170355
0.26425801882333877, -0.08077098409238442, 0.04246419950733068
0.2712366568977213, -0.09037077024475462, 0.04246419816779248
0.20088782913096812, -0.04906321742464036, 0.04246421167113524
0.1456123598040927, -0.05052805264215931, 0.04246422228117144
0.041853871408224004, -0.17479189602978285, 0.04246422017921134
0.01522328899284034, -0.1090640119126253, 0.042464219500805894
0.013607385650597173, -0.15215570433063513, 0.04246421945964129
0.02604874279610015, -0.12539231210850768, 0.042464219776580825
0.023116202676625366, -0.13540355781852803, 0.04246421970187531
0.07093471047857126, -0.17813913228343853, 0.04246422092003628
0.07743408661733908, -0.17381570472524638, 0.042464221085605776
0.11572669555455366, -0.16605565770235364, 0.04246422206109756
0.12676744183398694, -0.17568215503380985, 0.042464222342356986
0.012563799029391969, -0.12976263929410542, 0.042464219433056255
0.008870796595961957, -0.10214697599171461, 0.04246421933897822
0.09456247504330388, -0.16331804328013555, 0.042464221521945913
0.019917114140802397, -0.13655693625431764, 0.04246421962037957
0.0036918897410601285, -0.1571811685105861, 0.04246421920704725
0.056280933612990344, -0.15511305352557403, 0.04246422054673607
0.041253068682848136, -0.16011192433802549, 0.04246422016390609
0.019095912959097495, -0.1662665414022499, 0.04246421959945974
0.0810494323004046, -0.15049091963948738, 0.042464221177705534
0.12801459065551823, -0.17558917151207637, 0.042464222374127704
0.07439975550186947, -0.1590296997095315, 0.04246422100830717
-0.0013755963954518577, -0.11320644913442404, 0.04246421907795468
0.27502389111850034, -0.1845594155626702, 0.04246419744083904
0.17205337215243588, -0.18602051837548667, 0.04246421720586224
0.23702106762951192, -0.21160613802493677, 0.042464204735419044
0.21524301452051614, -0.2216084429848808, 0.04246420891568082
0.2543420681871806, -0.24430083909581057, 0.04246420141068123
0.25455018168664506, -0.23408737703626262, 0.042464201370734186
0.27829465249819585, -0.2289955164821941, 0.04246419681302174
0.25229808207437576, -0.2115616563131035, 0.04246420180302103
0.26442942547004805, -0.17949027805176787, 0.042464199474429455
0.2430028010409649, -0.24016523705081916, 0.042464203587235065
0.2563293448414191, -0.1977613843509557, 0.04246420102922672
0.24154910518480946, -0.19496835513200622, 0.04246420386626962
0.25164892159418806, -0.21551198681743539, 0.04246420192762633
0.22506752307252803, -0.22673601116550468, 0.04246420702988242
0.16351082235875025, -0.19067252650872413, 0.04246421884559074
0.24294408595985634, -0.18933812658276727, 0.042464203598505335
0.26206947079685455, -0.21891987677618807, 0.04246419992741891
0.2457199179529772, -0.2326605674228102, 0.04246420306568891
0.2651933917091839, -0.2547840298248113, 0.042464199327787375
0.2648581145212608, -0.2545862606583892, 0.042464199392143284
0.09423962084732464, -0.08282067128520584, 0.042464221513721305
0.10363574428097605, -0.06939873477535563, 0.042464221753084494
0.03946877416168687, -0.04647417054573031, 0.042464220118451766
0.07077890711772455, -0.05504320745565871, 0.04246422091606723
0.0615498992447842, -0.05957790918116492, 0.04246422068096126
0.06610713448920788, -0.0640997726064155, 0.04246422079705535
0.008915287630331779, -0.04739530491337616, 0.04246421934011161
0.09956117060897667, -0.08759044778501879, 0.04246422164928606
0.03394801093398641, -0.031162261439986245, 0.042464219977812113
0.0480903182041595, -0.04530593365220674, 0.0424642203380828
0.0006769884151300505, -0.060053561481509296, 0.04246421913024361
0.12352040275264832, -0.08231240506813059, 0.04246422225963972
0.040194684957403824, -0.029952934747320296, 0.042464220136944106
0.018001965566922084, -0.04554671344140457, 0.04246421957159178
0.0022150593299762366, -0.04464754649480142, 0.04246421916942547
0.0479434044232085, -0.0693670637293842, 0.04246422033434022
0.06454537589168373, -0.05685094787574931, 0.042464220757270056
0.015095035260733383, -0.08573059982535067, 0.042464219497538674
0.02557803371660673, -0.056496002615608956, 0.04246421976458966
0.0019313929837444532, -0.0586334241215038, 0.04246421916219916
0.06539646703223563, -0.0834467502784378, 0.042464220778951324
0.09397703648983104, -0.08976223803123337, 0.04246422150703205
0.20529974694085526, -0.11545959834570689, 0.04246421082427482
0.2344465239149094, -0.10786589495368777, 0.04246420522959851
0.1957021839211371, -0.10627616819304045, 0.04246421266651138
0.23654473028967196, -0.09076685464826968, 0.04246420482685122
0.20616558206071153, -0.12545432032805978, 0.04246421065807918
0.2528443216792099, -0.0928880344412255, 0.042464201698171236
0.19394860955232068, -0.09259580973665278, 0.042464213003107126
0.26813064941960446, -0.1649712360880151, 0.04246419876398555
0.17749012985211252, -0.10713294269435093, 0.04246421616228546
0.27010410986240646, -0.16938629671660085, 0.04246419838518304
0.17002448600808423, -0.10652927811362992, 0.042464217595303624
0.2782998201823127, -0.10576470496516656, 0.04246419681202981
0.19759907461481144, -0.12584402240999695, 0.04246421230240631
0.2502075053505637, -0.0956889865386881, 0.04246420220430383
0.20877268363104212, -0.10365997996115767, 0.042464210157650284
0.2704833008854391, -0.13910401737108338, 0.042464198312397936
0.23859563446364623, -0.11279718181969414, 0.04246420443318351
0.23718109450942818, -0.1154150051771935, 0.04246420470470215
0.224552284373143, -0.12134143488328011, 0.042464207128781656
0.2065230520288771, -0.12110684603098086, 0.042464210589463404
0.15901817100161844, -0.14880019063485225, 0.04246421970794784
0.21166468098194743, -0.1423668904736682, 0.042464209602536114
0.19119255369666477, -0.12563810122211203, 0.04246421353212755
0.21645587180922068, -0.14976448202391301, 0.04246420868287484
0.2317825138882516, -0.17347435381389456, 0.04246420574095089
0.1678251190878623, -0.14823962097467086, 0.04246421801746852
0.14775228891936282, -0.15899291839572427, 0.04246422187041553
0.20742570260741833, -0.14245577932191736, 0.04246421041620109
0.20217140758493501, -0.17094982575296086, 0.042464211424754456
0.1588331494335627, -0.10081521878640609, 0.04246421974346242
0.23693826338583618, -0.17347441346218587, 0.042464204751313184
0.19531779858581738, -0.1390518677533751, 0.04246421274029352
0.14979048731008898, -0.17592418574866409, 0.04246422147918667
0.1556668338318784, -0.16620240428320895, 0.04246422035123154
0.15547543412649262, -0.17254263480454876, 0.0424642203879704
0.14764260994603767, -0.13170681380248872, 0.042464221891468236
0.1905226754744644, -0.16759090799601928, 0.042464213660709585
0.18460767011471305, -0.14130893160135408, 0.04246421479608522
0.1738109444600055, -0.12586568740620344, 0.0424642168684991
0.3911803144368329, -0.2187614301940021, 0.042464215142400445
0.39815311619178084, -0.25586538842232287, 0.042464216289615185
0.3002652262546572, -0.1880238365757232, 0.04246420018440616
0.369890062853706, -0.18190619165919544, 0.04246421163957745
0.36088673122683557, -0.22083065268539154, 0.04246421015828556
0.40748277725769444, -0.24508168462076158, 0.04246421782459711
0.34019891045620754, -0.19823221971990732, 0.04246420675457874
0.4051676301030628, -0.183829467909377, 0.0424642174436927
0.4041439544619342, -0.2335882486308204, 0.04246421727527033
0.3365967148343506, -0.19936356055625834, 0.04246420616192001
0.37479935313371016, -0.1929874491874402, 0.04246421244728866
0.3094509981197153, -0.1962113177653783, 0.04246420169571442
0.3697218710183055, -0.20119230772058738, 0.042464211611905334
0.41382950035561994, -0.2167649913448849, 0.04246421886880495
0.37191210573846395, -0.23802086958974883, 0.04246421197225827
0.3032175996494277, -0.18357402033752845, 0.04246420067015154
0.34564723450947377, -0.18077050317830046, 0.04246420765097561
0.41046337333309096, -0.19962025486030183, 0.04246421831498588
0.31750292379589906, -0.1943379816844019, 0.04246420302047425
0.3834860696018143, -0.18353951125663084, 0.042464213876488785
0.5587973933599284, -0.24905904689037486, 0.0422683797342637
0.5568297997579249, -0.20057785876326772, 0.042310843407414894
0.5268146973444513, -0.1105668186717404, 0.04246420152019009
0.5407976261112833, -0.1605689682844516, 0.04246422358039452
0.5325531396802059, -0.15876193270678216, 0.04246421057345877
0.524960930720458, -0.17672557637912314, 0.04246419859559029
0.5238044620537734, -0.08673964400658682, 0.04246419677108444
0.5298763333615868, -0.02605188343584401, 0.042464206350388216
0.5242528502838949, -0.021417705751227107, 0.04246419747848532
0.5391182210693519, -0.08990293424385246, 0.042464220930876734
0.5587470726472998, -0.10366520389641931, 0.042269465732048817
0.5605927100102552, -0.08908852300390947, 0.0422156833229976
0.5553703929223945, -0.14713851792045043, 0.04234233963447899
0.5551885206045475, -0.16373110734154322, 0.04234626471669742
0.5645843352387911, -0.1947559087011089, 0.041806263487388806
0.5615546405810659, -0.0913359630077174, 0.04211701838487844
0.5584356810303859, -0.0806406023321009, 0.04227618603843179
0.5537279966084254, -0.05187159225537848, 0.042377785053792257
0.5604228216376104, -0.1341825728032387, 0.04223310872383505
0.5681052134471218, -0.17177198421918483, 0.014807038568877093
0.5681053069771802, -0.13357562968157272, 0.010203383093375566
0.5681053042820371, -0.267169762810547, 0.007172019316058467
0.568105268116456, -0.20922887120566835, 0.010369213083797256
0.5681052744054201, -0.24253284480086915, 0.018723320083591788
0.568105276374274, -0.10510900311110905, 0.0069341475331191164
0.5674879750902508, -0.02577168301865604, 0.006479717144248897
0.5644895132769986, -0.14128966972536758, 0.005058482072745078
0.5659096786301883, -0.09968549528437798, 0.00562997226023813
0.5311133059557278, -0.10577488368436777, 0.0037539842754439044
0.5343580255501723, -0.021252202463733928, 0.0036903413003277225
0.5429230750859402, -0.0768536995527761, 0.0038795109565586783
0.5447451262334881, -0.07122322251760152, 0.003902105126205397
0.5398034856252696, -0.11172620227177477, 0.003885889805013771
0.5122644525014205, -0.1820670264874436, 0.003842140051394878
0.5333562752854986, -0.1430240103215056, 0.0038644577227748543
0.5244588169196025, -0.1898276407626974, 0.0038108408348801327
0.5207679215425401, -0.23656074291817147, 0.0038033975224301573
0.5310561973909436, -0.2440511826935652, 0.00402235341836408
0.5296842276473079, -0.11854435505098437, 0.0037620758393269063
0.5286326712872268, -0.02443145176959801, 0.0036111073127125717
0.5258105699132358, -0.06302691635964833, 0.0036197127251367286
0.5248310105634513, -0.15152623413158034, 0.0037679042744836275
0.5131659757434969, -0.1181507863167439, 0.0037715985987302825
0.5288286526021143, -0.3149135121177664, 0.004061750721068396
0.5617774347793333, -0.3419937744244172, 0.042045759148482666
0.5090072488673718, -0.3002066066328498, 0.003951253412074271
0.5076319800428921, -0.3443075786467308, 0.00372164155797488
0.4105586427806611, -0.3368431215459227, 0.003504463742602572
0.4544224433385097, -0.3391993107847149, 0.0035637272172491545
0.4124292673647393, -0.34712765979470966, 0.003654889176322862
0.5148312325341816, -0.33228699877492196, 0.0037580630858602857
0.5442961043527823, -0.3769146125532281, 0.005440421615148232
0.5595170038736411, -0.37145773350348366, 0.004483728889859385
0.5329425762740608, -0.3496217093902146, 0.04246421118785443
0.5552160341450307, -0.35590001220031603, 0.04234567093249873
0.568091551362487, -0.34462711918405353, 0.022380385989406594
0.5501225260409118, -0.3746253158673317, 0.0049351584438139
0.1548459476964283, -0.3393186500527531, 0.0069547364181423215
0.21135878222467247, -0.32365265851461894, 0.006706799517065836
0.19534499513841644, -0.33483787019791494, 0.006875998385261659
0.13982510978271104, -0.3451290978824076, 0.00704478571044296
0.2198681580572558, -0.32652256297019094, 0.006746156144522685
0.18959360736579223, -0.32040650423539874, 0.006666185959604629
0.1436917387034803, -0.3207208522137845, 0.006685552823882469
0.03862287755577826, -0.33118649033377817, 0.006855573475142568
0.011758056270731643, -0.3355403479127347, 0.006920723998596575
0.07567881063765625, -0.3372267946122735, 0.006939002080521447
0.047909596037104714, -0.34088078333557437, 0.006994168768502817
0.021350438279302317, -0.32651681554786155, 0.006790011182222085
0.044903848056637, -0.34727588807570975, 0.007086451772136109
0.011174214113562625, -0.346409179168426, 0.007077140480763928
0.30926334219658547, -0.36784383779444774, 0.008176592689630089
0.29888646393912205, -0.3723175024282688, 0.009471857284937345
0.14209094607122566, -0.3614549348795712, 0.007581039362933051
0.31145657076649724, -0.3631626192789035, 0.007725995117513521
0.3014638407265673, -0.3647068727448967, 0.007857758446853472
0.2573323306096233, -0.36875553075055606, 0.008434906830451087
0.20005292310729988, -0.36813134737202574, 0.008249589367693991
0.18719858886801372, -0.3716454793794062, 0.009262296336070786
0.008021826545480691, -0.3682555045469228, 0.008274740299953743
0.04709042129391053, -0.37263546311457846, 0.009538401253812941
0.2971327037410699, -0.37428081656007994, 0.03152530586289366
0.2853398699133187, -0.3743081203679408, 0.028978463635363175
0.330547996944484, -0.3743247022508148, 0.026574985924408344
0.13780076733732016, -0.3743362811585281, 0.028501994110578143
0.04417005838621063, -0.3742761137269341, 0.035141485449361284
0.1333887280931017, -0.3742879123431132, 0.03333564151041637
0.2661913055554233, -0.37449932120198076, 0.010114994538633279
0.2047675297985138, -0.3744468442196347, 0.016398194105796886
0.14335378219028222, -0.3744563775310793, 0.016520150934000763
0.25880633719746626, -0.3742402532752043, 0.036203561569786304
0.19345822761578063, -0.37424579347210424, 0.03664900582468432
0.25652904413503597, -0.37430113202774007, 0.03012965109904594
0.34970482064195085, -0.3744694802180373, 0.011639856029638242
0.3029114455446822, -0.3744087564834371, 0.01855871674499846
0.31351500259936393, -0.37444980527248195, 0.014251927649269167
0.321106591026721, -0.3744317126302968, 0.015934196293537334
0.1778036343087668, -0.3742623039774813, 0.035239387069158364
0.19450342492113443, -0.37433729886218625, 0.027523250764000976
0.20971483318615836, -0.3743357930396612, 0.027426541830355988
0.3535140212444985, -0.3706235301968588, 0.03980112610754105
0.23113459817926843, -0.3732371783716451, 0.03950912403751541
0.27163634396622927, -0.3704701555030211, 0.03981227147025057
0.2278972393134473, -0.37328159353324863, 0.03950285153480376
0.3924226037316609, -0.360671452792332, 0.04011399061124245
0.3901767609840306, -0.36019345271647946, 0.04012288451748315
0.1654673678146332, -0.36988465809454135, 0.03984979068698058
0.10075947252222771, -0.358784202070269, 0.04014995924031841
0.09087572644648195, -0.359008326611606, 0.04014590359697598
0.029036461495034104, -0.36756136019280183, 0.03998900670215625
0.22683547894605438, -0.36226648831116776, 0.04008615882938665
0.19586980082042954, -0.36685216542259247, 0.04000253316611483
0.38708346594962123, -0.3176229639345701, 0.04015970313525753
0.3451570076494891, -0.3183583265821279, 0.04015975144948647
0.38838664699511855, -0.2796883132719, 0.04015935881229668
0.4027761997237342, -0.32023141172358127, 0.04015971112767419
0.39856010515690393, -0.29485951511570435, 0.04015948588949739
0.3911789445092221, -0.31222957519850747, 0.04015965029509075
0.349980588985795, -0.30264623873209845, 0.04015960457788267
