-0.0666329990641612, 0.13192749391133637, -0.015195532475423488
-0.06894417677733933, 0.12840922910160582, -0.01737973730019797
-0.06449153029385604, 0.13114694822779444, -0.024450103960010273
-0.07375681515781637, 0.11947306348000789, -0.02107030005208322
-0.06826914962065116, 0.11895208428155585, -0.03531964367368515
-0.0645711906361515, 0.12374357746889172, -0.036598395908957
-0.06070756137254828, 0.1332619309948762, -0.02922571638724908
-0.056741542906977686, 0.13316994550328534, -0.036556247167988686
-0.048435084577862594, 0.1292915543249079, -0.051349933640251456
-0.05715595026938274, 0.11834770822582817, -0.05196209668871537
-0.05860034285822639, 0.1267742476653783, -0.042157468590177875
-0.051677831808148306, 0.12028038165992216, -0.05617747443252594
-0.05579049393275662, 0.1269571078777728, -0.04587573364116713
-0.04120453896449031, 0.13262130564462737, -0.054010595158787575
-0.042588781247693254, 0.1276946731865849, -0.05767466079371615
-0.04151811711926372, 0.12075096171335443, -0.0636435450811742
-0.0292416161062243, 0.1196723086617136, -0.07076708093359367
-0.03030444576239425, 0.12566495114559062, -0.06641349855303835
-0.023796217729247594, 0.1243674301934366, -0.0700377911290482
-0.02517252391076662, 0.13007444943747107, -0.06526992524110636
-0.02969882875209789, 0.12712707549290894, -0.06562185374037832
-0.012713817805983157, 0.13312007632317457, -0.0664537955450787
-0.015085098678387242, 0.12191750669750083, -0.07397606635918477
-0.006270760961210421, 0.12389495381041146, -0.07401804955527017
-0.018926600703346997, 0.13119383893472616, -0.0663990808000496
0.0013417480879719897, 0.11920639611641158, -0.07684147085162006
0.003951063785156174, 0.13211111292771344, -0.06835029804326996
0.0016549932391674543, 0.1258938554944284, -0.0728645667773489
0.012789485329015644, 0.1257300513424457, -0.07190612320430642
0.02267388995792353, 0.1285079257430501, -0.06751881708315814
0.01004788616398064, 0.12211264043870498, -0.07457145558849448
0.02991383803405349, 0.13159944341862617, -0.06196029627471108
0.02303942942285196, 0.12214146074787624, -0.07167061474990616
0.028363330830843015, 0.12350025758877929, -0.06884982224809777
0.03830935923623778, 0.1295408217493751, -0.059014936672432086
0.03726442818599717, 0.12461478173529575, -0.06360536104761051
0.045897994968840075, 0.12905624478803646, -0.05379471831156679
0.03557818568377097, 0.12782855620436992, -0.06214231562551539
0.038584350011283165, 0.1199810117843987, -0.06596731817963364
0.042834815421456375, 0.12469633992163215, -0.06008791089551824
0.047299100480670424, 0.12020497030487323, -0.0598536766644727
0.05559675184563426, 0.12490469314011768, -0.04814692681372423
0.053611549226562194, 0.130449737679443, -0.04457715791767752
0.0576235366499953, 0.13067820080007142, -0.03874404064544627
0.0610024579125605, 0.11937695938020729, -0.0465984513285963
0.06702475886312945, 0.12419666403416554, -0.031351000871054566
0.06710532597619778, 0.1183129166334829, -0.0384720040756751
0.07050472301293216, 0.12126526402360766, -0.02748016728656811
0.06942407958534734, 0.12539607696920313, -0.023018153160917897
0.0749118930381511, 0.1189159880998249, -0.01753026141825819
0.06274112698171724, 0.12738935226198828, -0.035030099866678294
0.061240081733397095, 0.13332029261145062, -0.028237441204345737
0.0753626709083644, 0.1170695907565212, -0.020082352814732474
0.0751587688971288, 0.12214726339410194, -0.0018873083734234507
0.0784004439594604, 0.11017078765247842, -0.020120509467658153
0.07836662773529349, 0.1148235112497437, -0.009815017297258158
0.07988971552627006, 0.11256216794701801, 0.002080479881501558
0.08097315536560083, 0.10963606421200227, -0.0036001289715264025
0.08152088061012983, 0.10816642955063535, 0.0032417997726124467
0.07519974444341833, 0.12194895641949806, 0.0025672244086459373
0.07980147551560575, 0.11279901067191218, 0.0018194935122809364
0.07703209194972911, 0.1153356396355361, 0.015536352036137754
0.07368148681527512, 0.11528499818515003, 0.027337853814884554
0.07977824111593479, 0.10930462064196422, 0.014739196868249909
0.06918948461473988, 0.11170416720226803, 0.04071445079529676
0.07533101070098301, 0.11566437402834635, 0.02219507426814305
0.06854320591538003, 0.1182104992752204, 0.03550105219744768
0.06776252619484403, 0.11437619852028921, 0.04087132395590323
0.07243501329708919, 0.10997960063745676, 0.035867545779700485
0.06371765804199858, 0.11173755253951789, 0.04867482074622309
0.061047740538327844, 0.105285509849319, 0.055519315825346756
0.051527704688516515, 0.12208312887618418, 0.05473776836926092
0.05637811642486955, 0.11249322782488261, 0.056502856095869546
0.0609942906444265, 0.12108170116402603, 0.04466666474440547
0.0523993447085479, 0.11227172121584908, 0.06030768347163758
0.05326429962245706, 0.10703711135739405, 0.06217650332957493
0.038719788450381924, 0.10533717385401681, 0.07296235110936433
0.047119025832225256, 0.11670240946574137, 0.06204685902859284
0.04411470923078756, 0.11563119062950517, 0.06484831924346163
0.03572275505214492, 0.12187765053937472, 0.06616981203928601
0.034184520430212265, 0.1143768002585803, 0.07114904557276008
0.03929712242088795, 0.11590966793076697, 0.06763428347461863
0.032829617256893005, 0.11613155609515521, 0.07088152094599356
0.020839881561526954, 0.10597212581014981, 0.0795227846648112
0.03262645183163387, 0.1226800518046571, 0.06720687834078798
0.013722297043545979, 0.11182301194052352, 0.07886495247822384
0.02087839865928541, 0.1226576972952372, 0.07166516708594864
0.021571364256156567, 0.1164354127737027, 0.07490188282009053
-0.0023043470712298337, 0.12147871176634863, 0.0752750418501785
0.00574255076563631, 0.12166568823899436, 0.07509375968765943
-0.0023235220265351362, 0.11172362658295933, 0.08003687066896398
0.0033877077548151594, 0.11568326418779615, 0.07826407843602695
-0.014005386354939961, 0.12111290565927779, 0.07425560171903628
-0.014894864093954583, 0.11696334382974097, 0.07637094013943942
-0.021764075009498313, 0.1179111026311241, 0.07411148427739558
-0.013214356727490988, 0.11616671018186196, 0.076962133476979
-0.008736711888159991, 0.11031812610921427, 0.08012707617427674
-0.03263357983751054, 0.1192344684371015, 0.06923889612442215
-0.01794681538575029, 0.11742457062785473, 0.07543691881447749
-0.019489921334915585, 0.10816535956867834, 0.07903721622623851
-0.04065346589015195, 0.12102020749884278, 0.0636789942599035
-0.02917899548220483, 0.11341631849116868, 0.07376024014445695
-0.029156836379559688, 0.1097534350117066, 0.07540868805926555
-0.03731054139955278, 0.11544695501068791, 0.06903855486061045
-0.04977977514631847, 0.12154787764550384, 0.0565061724053968
-0.03931314498091156, 0.10888928281227893, 0.07101705955733294
-0.04720241009343147, 0.10934500113115342, 0.06595051494851747
-0.05754447573176631, 0.12079842340524519, 0.0492534669842737
-0.05982404664179332, 0.11180945121527049, 0.053183677712971535
-0.06076745171539016, 0.11444617530068484, 0.05044698547538255
-0.06472142087098934, 0.10658070791438076, 0.05049417325615893
-0.06636308214161787, 0.11564531100729548, 0.04179398433198561
-0.06301580443095275, 0.12229710943844141, 0.04053907713295213
-0.061191119186666164, 0.1169474626193151, 0.04811552891110406
-0.07194979767640602, 0.1126948453267909, 0.03428402960203567
-0.07423281971903277, 0.11385179705226682, 0.02750036699085989
-0.0772175208344196, 0.10647455427917654, 0.02779326324791475
-0.07052576458756926, 0.10954508736604254, 0.03976160905809165
-0.0799918154053702, 0.10640423680617747, 0.01863987159308613
-0.07459425011549149, 0.11757007198469681, 0.021511730101035777
-0.07521572909418522, 0.11928878008522067, 0.014394261246357192
-0.07814549240877504, 0.11202581221126778, 0.017106667914118065
-0.07528917422894385, 0.11716321639491124, 0.019553548531075854
-0.08251779286716321, 0.10499700779824506, 0.004785686027149395
-0.08127070522244242, 0.10913886309819469, -0.0008683609772788211
-0.07504004174521622, 0.12239789937568617, 0.0001883935957269401
-0.07667561916251683, 0.11831679088008887, -0.009565220182883381
-0.07771410031864442, 0.11634406656808773, 0.008045992155040219
-0.07829273076668099, 0.11294636662662563, -0.014696739248654427
-0.08079046329571987, 0.10646607134658204, -0.014996630220438244
-0.07712687345662807, 0.11303275567487497, -0.020110466916733995
-0.07681506775511958, 0.1076167306458528, -0.027973165742611175
-0.07377122578591958, 0.12210651513173039, -0.01403651050695104
-0.07476056669180392, 0.11470005035575505, -0.02519789439489168
-0.07362452317023234, 0.10994722617760894, -0.03377848846567228
-0.07209249205552597, 0.11651455545357005, -0.030286058588069775
-0.07219712248151838, 0.11429392769816196, -0.032571201383094356
-0.062300555376248325, 0.12009612083292569, -0.04397204921655382
-0.06750527974173337, 0.11218935126976591, -0.043174647537131836
-0.06203647459595055, 0.11313786595834274, -0.05019116613143021
-0.05855230759622411, 0.11317544366593474, -0.05396749655673746
-0.05775852790242803, 0.10566920360961739, -0.05906514009126335
-0.049152314577800525, 0.10601509508952735, -0.06626265940531825
-0.05958438965556623, 0.11491525396372822, -0.051722944436434284
-0.05457520433562009, 0.1214656340284954, -0.052209186270685895
-0.04946923014900633, 0.1221240394163446, -0.05666643365233118
-0.05074829826872097, 0.11657260803643892, -0.05942745343276576
-0.04616437864493296, 0.10635974383413319, -0.0682607987218464
-0.03759864186456125, 0.11376207802833083, -0.07006262608019242
-0.032271173927627655, 0.10696561712868727, -0.07549220975373208
-0.035266330810459594, 0.11619533683006933, -0.07007521057694839
-0.017466652636516776, 0.1119503873202556, -0.07843126301712015
-0.026748193330829888, 0.10929001798581725, -0.07688969001610707
-0.028501035804880188, 0.11676855543256266, -0.07273667858283667
-0.009888434646626946, 0.12074918120744552, -0.07534140109204505
-0.016098835732237193, 0.10885352392831132, -0.07997471182544483
-0.011672243839580952, 0.11719186866290698, -0.07702825811497588
-0.0160187920584717, 0.12152280601126994, -0.07397059975605028
-0.0030130502488816785, 0.11592995370495167, -0.0784725601173567
0.0019758580202819736, 0.10694790432398033, -0.08213223366024548
0.015219865199018651, 0.12172977791115688, -0.07407505118084026
0.011519777369279796, 0.11168168475107419, -0.07954839150054131
0.002315933889362177, 0.1167384085723473, -0.07810911332679782
0.006683047825202034, 0.11623609301768183, -0.07815468187798943
0.00925738755691314, 0.10715643471024433, -0.08155782076538576
0.024257351068108005, 0.1146730054239366, -0.07528408750247573
0.016402697733651384, 0.11267066000116416, -0.07841808397650973
0.01687807894800738, 0.10545807297567086, -0.08114344168056345
0.03133417021909909, 0.11326764026696041, -0.0732441942906886
0.028555018993866664, 0.11736880559597526, -0.07244992301351988
0.02813073176481242, 0.10834148396277446, -0.07676657816196575
0.04042811363750594, 0.11233276527558042, -0.06913635092131372
0.051891601631305136, 0.11848227326834741, -0.05734223497854861
0.053788644640676786, 0.113111155729515, -0.05901184182429973
0.04205778109179503, 0.109496245730748, -0.06944598497397028
0.05791556489219528, 0.1071437633265269, -0.05817998462816205
0.05847130160817644, 0.11374670209109308, -0.053756086732318464
0.04668564180560701, 0.11076020781572149, -0.06606747668749216
0.06161038789479681, 0.11652030432448401, -0.04826735185738595
0.06347786520307629, 0.11854615561393314, -0.043886833309270845
0.05412129210505842, 0.12254430590926149, -0.05190323509944657
0.07214167799587298, 0.1151864480003622, -0.0319426744641749
0.07406042163302826, 0.10505313065051045, -0.03699648795479399
0.06454235647116648, 0.11754033990765239, -0.043325446140199605
0.06845053022870382, 0.1149232392099154, -0.03932797175924885
0.07736032337887619, 0.11575034511970678, -0.01335916819878213
0.07720786398643345, 0.11070506498896769, -0.023670085628447843
0.07323589029073584, 0.11432225732646238, -0.030193278692707215
0.07526108012402369, 0.1136484070724608, -0.025400109807634356
0.0810556164174372, 0.10947235627316167, -0.0032826215592570286
0.08078445524266317, 0.10459116985967941, -0.018636026981038122
0.08336938048637788, 0.09650087091179127, -0.017631449720872078
0.08240355928675484, 0.10573834642038002, 0.003488653662540888
0.08306396717677564, 0.10257620529254899, -0.008791316203133469
0.08358542814973259, 0.1008601470114345, 0.008526676171942903
0.08491835284861055, 0.09578135514898917, -0.00956257042035539
0.08380020932598446, 0.10101867553617988, 0.004666260101134562
0.08560096560692, 0.09434498690127129, 0.004620962252563942
0.0835787597251321, 0.09885174089123588, 0.013408970947543905
0.08255270267660497, 0.10244187992351753, 0.013015867574316956
0.0769467632232552, 0.10763196644987026, 0.02747813505004084
0.08319469605947133, 0.09592622492266671, 0.01901103517866501
0.07616658914151728, 0.09195713190110302, 0.04048741602103645
0.08178577496651497, 0.09392395710765733, 0.026069771903317388
0.07590261481375421, 0.1033490886978457, 0.034268196439365115
0.07958889041821995, 0.10444200090531958, 0.023466541906684773
0.06962874723483405, 0.1102656605010075, 0.04105749198088546
0.07425773891559273, 0.10258138887238098, 0.03795045837281605
0.06946359927186259, 0.09285737374583436, 0.050740691773587046
0.0605805084405601, 0.0915946309745699, 0.06157148220868863
0.0653408363492759, 0.10699246500176086, 0.04945066050849332
0.06922179301200088, 0.10438524464410005, 0.045560355783516304
0.06400079218908625, 0.10170422084895245, 0.05397487096682051
0.057557329201248494, 0.10905414129078295, 0.05721618007970834
0.05803756742979639, 0.09545067930344292, 0.06279717800030904
0.05776689243531016, 0.10313923348799339, 0.0600178543351535
0.04936994479853659, 0.09569653230083616, 0.06976295964687709
0.05160932310097478, 0.10155717417791292, 0.0658382744757312
0.047511210752221214, 0.09939603894428253, 0.06974502805935198
0.047735124439451285, 0.10809779046274387, 0.06616629260714146
0.03939475917911309, 0.10738963473767385, 0.07166299696017414
0.04140063631423975, 0.10227017410790062, 0.07244614487984016
0.034072918873023966, 0.09114049827805011, 0.07935272589064067
0.03491182657090414, 0.10465759972114158, 0.07497192852958781
0.02660483896002027, 0.09271117326751174, 0.08181720206517325
0.030703873606825097, 0.10948636390106649, 0.07487386309828155
0.01727332413455814, 0.10978260963825215, 0.07905971405275017
0.016953414060999077, 0.10407954594848136, 0.08127727239286013
0.01723358668974263, 0.10101662451516658, 0.08216128651148202
0.009188901059790543, 0.09227508454596511, 0.08560429886125066
-0.001172768521414091, 0.105738322500183, 0.08226718208196676
-0.005402135892404892, 0.1040241504667196, 0.0828390598973773
0.0083848319270057, 0.10465303538167725, 0.08227719694583327
-0.012543187426147547, 0.10516640967844965, 0.08152584307396228
9.859799159149096e-06, 0.10317954364557569, 0.08309266188960399
0.00550413160811721, 0.09189288743243315, 0.08614394986150047
-0.015422467652899768, 0.1034768086852552, 0.08165859491203578
-0.021006941278521894, 0.10570388596837804, 0.0795579666571623
-0.00989116319719835, 0.09743992919597662, 0.08422690008622832
-0.027823124314435572, 0.1028224998965681, 0.07860697954340232
-0.029965320656710537, 0.1065280241340448, 0.0763578951071009
-0.019193615195099854, 0.10123265140437036, 0.08152100766422987
-0.03809278482688192, 0.09849015085588676, 0.07558959250065339
-0.04732983064324905, 0.10689314107673976, 0.06700933258459042
-0.028576497001660126, 0.10468906789942718, 0.07768304675274638
-0.03127270303370175, 0.0948375338119225, 0.07955438229713832
-0.047862145269859456, 0.09873983990873594, 0.06972301186822305
-0.054688084650420764, 0.10597651664135427, 0.06146295864368701
-0.052132410552928096, 0.09915373200490613, 0.06629205915797379
-0.04418987517860186, 0.09737594824161785, 0.07239096920174867
-0.051539468663253006, 0.09307023713772872, 0.06877274656783418
-0.05882472323921907, 0.09394722095357365, 0.06252583283011433
-0.051434891551602364, 0.10099255663634882, 0.06614287469765379
-0.06105745143438893, 0.10795914672766546, 0.05398450148747086
-0.06434358295908973, 0.09987589572654679, 0.054344368420865645
-0.06683990855441846, 0.09546047755745081, 0.05325373645582526
-0.070789545368429, 0.09942730694941568, 0.04583459940258651
-0.07919506537191212, 0.0910635713141204, 0.03497735515631624
-0.07225913620215024, 0.10109421455386264, 0.04264300359273364
-0.06697122014476153, 0.10378510636329431, 0.04896082318566499
-0.0638492489890774, 0.1103747582208058, 0.049296050300058014
-0.07946430077252736, 0.09419127610431216, 0.032207863402911784
-0.08011482420471175, 0.10248499059825873, 0.023544836257946622
-0.07556420385295505, 0.10077825271371044, 0.036477140263291456
-0.08516692760819983, 0.09170474106715693, 0.014263537713754423
-0.07737289144253934, 0.10213269063784755, 0.03158636002176492
-0.07628039067652792, 0.11124969737316807, 0.025153538307124506
-0.08264769471313788, 0.10322895760189812, 0.010792756637644216
-0.07814176133494659, 0.11092193182664696, 0.019327557337142455
-0.08105850832085731, 0.1038954661650638, 0.017715344037866364
-0.08515926948762562, 0.09466221358162447, 0.009123666859619697
-0.0862864153674392, 0.0923447203045268, -0.0010961780035869497
-0.08372100245961989, 0.10074790684890794, -0.006288487352215765
-0.08134854995672992, 0.10846496173884093, 0.003076612290883811
-0.08313849753477548, 0.10043344537381818, -0.013129342037397275
-0.08016012306500972, 0.11067785056387391, -0.008803738998911025
-0.08486379706932605, 0.09107665706315922, -0.01660453114030973
-0.08262315308467846, 0.09434628920566684, -0.023395392175266767
-0.08120931868080179, 0.10230604753699407, -0.01961634870640748
-0.08082114746834651, 0.09819508698605818, -0.02567992234842016
-0.07910490095599965, 0.10794185742128137, -0.02041795123189279
-0.07546513105160786, 0.10349998396580264, -0.035171977338387714
-0.0778714135363498, 0.10391218116976406, -0.02886356914449534
-0.07609725395495726, 0.09276489451526479, -0.04021861367468614
-0.07448878086153342, 0.1023081968721767, -0.03782725579906837
-0.07178082585782292, 0.09333820192072999, -0.04735404647673107
-0.07119696371047578, 0.09938768110838411, -0.04554688163174694
-0.07094058810158746, 0.11100795003247035, -0.03810407675403041
-0.06231766174460015, 0.1017277046828916, -0.05598227429125993
-0.06631591574166774, 0.10324799972481111, -0.05046684896651437
-0.06386911851713815, 0.09391011271293659, -0.05737093820056319
-0.063492607149916, 0.10488138926806306, -0.0533458892594804
-0.052369176342380856, 0.09209752115266624, -0.06863025570039824
-0.05574242796990093, 0.09871955555008513, -0.06380153887047388
-0.046662890262873596, 0.1032227923393142, -0.0691683226182386
-0.04801732153734142, 0.10879118093161155, -0.06586601167832362
-0.04939664879203861, 0.10271837166796052, -0.06742786326569192
-0.04329047906129878, 0.09234156961586464, -0.07461343970713
-0.038066239762637344, 0.09112270074870064, -0.07782568456256998
-0.039401991144665374, 0.10174072653088234, -0.07409844490906146
-0.0411363343856264, 0.11069930553342608, -0.06944279843206075
-0.02199298123487339, 0.10078540288180297, -0.08117307761496134
-0.034402151029310775, 0.11080355287167179, -0.073021840225545
-0.03165275639451632, 0.1014034260943517, -0.07772521823502965
-0.025469364539103787, 0.09319368604644854, -0.08224769025299607
-0.01851882450998576, 0.1048708366327179, -0.08087835828370964
-0.011580186591688753, 0.09091871073694717, -0.08584232287493926
-0.012140485389667381, 0.1036516017189158, -0.0823637286945866
-0.019460624607258427, 0.10882011124616645, -0.07910907642576481
-0.01638833375463552, 0.10136975623414071, -0.08246644191930781
-0.005703254101270442, 0.09183707898627266, -0.08640917817244541
-0.0013373802507895426, 0.10922453673388634, -0.08129346565075805
0.013032046760440605, 0.10939805588921322, -0.08020559086138407
0.0014560439116665398, 0.10451923830989107, -0.08299664375486504
0.010202784863280003, 0.10020415917863966, -0.08367905221311953
0.006802649935950221, 0.10120352176637668, -0.08384399616305871
0.011162431065108183, 0.09796205946704808, -0.08421651330615035
0.025672513494423094, 0.09820348097340917, -0.0809623540481403
0.022164166417607472, 0.103563701468822, -0.08028375769193506
0.03774332379790961, 0.10700844048787268, -0.07313113440586656
0.020824574545591303, 0.09593825592141156, -0.08289069056542629
0.03348281843736402, 0.10314173924277922, -0.07639502437270226
0.0421031240739516, 0.10618459015750734, -0.07084858475298081
0.04388865301093339, 0.10069714624586498, -0.07178024635168925
0.03093940708170475, 0.09247105412292309, -0.08060303721514112
0.03866650083625391, 0.10336906834990206, -0.07402412709234578
0.0395941266265636, 0.09648681010681856, -0.0757530283924816
0.05586490921546143, 0.1038855838473155, -0.061774864329321805
0.05252470029047959, 0.1028410400079345, -0.06489255834153372
0.060375482748516306, 0.09896154050763042, -0.05934920264399087
0.05169115100309926, 0.09798843623430556, -0.06743112581017935
0.06190126563843613, 0.09461033677106305, -0.05931108448566587
0.07257734827149052, 0.0909684723604278, -0.047309705343294796
0.068538602012061, 0.10638534358468893, -0.04562260503286253
0.06959644792035283, 0.09849122626420201, -0.048383038076776325
0.06104344768258899, 0.1097748713238783, -0.05340608428699817
0.07305080551362267, 0.10001809906184997, -0.04222890499116952
0.0739177677235963, 0.09656559464888331, -0.0425973778578292
0.06706745162443284, 0.10426032956020943, -0.04897760668086289
0.07698543613612786, 0.10893354176871965, -0.026245099373749876
0.08092273640139792, 0.09659516860639342, -0.026738389008247283
0.08214967151135757, 0.10293723942491519, -0.01449336630806563
0.07911874863756063, 0.10341861102012827, -0.025993830179098315
0.08056850643071586, 0.10086053424320932, -0.024201166416934067
0.07509640703421819, 0.10491633962583474, -0.03509704514529326
0.08461531183294865, 0.08943813105329121, -0.019532627799354454
0.0856662597916858, 0.09408957773159186, -0.0047066634372494726
0.08597423394989887, 0.08349565358052982, -0.018378746150382437
0.0869630638254721, 0.08965667850739914, -0.0006594291215457849
0.08686472943843114, 0.08847840815848183, -0.005090836166389936
0.08556141952131777, 0.09292076036733624, 0.010377736033256663
0.08805005711597806, 0.07995732148452332, -0.00804359845725074
0.08711090444324213, 0.08690563841769738, 0.005905007734312449
0.08283309686116998, 0.0961542851409, 0.020485697329934653
0.08470042061960226, 0.08604688651028916, 0.02239450347033594
0.08805985312319511, 0.0829194288110684, 0.0025551267396562794
0.08532810661061702, 0.08873306034323282, 0.016803456281075754
0.07961030335845576, 0.0929667344145216, 0.03288971059688357
0.08378263914880672, 0.08418282827500055, 0.02650036041550435
0.08630388770791693, 0.08145537152172935, 0.018404555182437596
0.08061355770266791, 0.09066248789581521, 0.031720640987018656
0.0763936058429419, 0.08560272680014289, 0.042819480600255436
0.08291035940393793, 0.08059189181494225, 0.03054419260124515
0.07769013588005587, 0.08705287394028337, 0.03971244251908857
0.07034333897921957, 0.08377179018925215, 0.052688386553873756
0.0814906052048475, 0.07841719260399943, 0.0353684405941851
0.06851442264968172, 0.0951898385555308, 0.05109598825320552
0.06635990169884509, 0.08444940821673402, 0.05743522255392953
0.06975114574475556, 0.08859445379810466, 0.05193074171780088
0.07474063830644481, 0.08235836006409601, 0.04682853755984123
0.0655436875463172, 0.08858081331284814, 0.05715483654462232
0.05719995680443117, 0.08519041173617228, 0.06631658440970856
0.05936147345995247, 0.09331540685465631, 0.062261241171945966
0.06465346903926948, 0.08027346939120102, 0.06017774343851465
0.05651603479855169, 0.07818683659358033, 0.06822302643138348
0.05530096182895548, 0.0878204629102042, 0.06721461566881577
0.04827152394445403, 0.07725923951328381, 0.07445061146220233
0.04890586326801253, 0.08638854259422103, 0.0724252066921699
0.04238581015239107, 0.09698294996553439, 0.07364543398070225
0.03811728044076115, 0.08443936669575239, 0.07900442574016227
0.04077353880729439, 0.08062510688175471, 0.0784748288336533
0.047091993542164735, 0.09033094236396151, 0.07265034453500473
0.03320848141630888, 0.08630688106933944, 0.08074740449463486
0.02948388928686634, 0.08337782525457464, 0.08295329396283228
0.021206036547289055, 0.0836500875936491, 0.08522542140105405
0.029345606240167726, 0.09775345840538324, 0.0796443461726759
0.02053087331328272, 0.09540753813518366, 0.08283758860974164
0.017338819414456065, 0.08357700662362458, 0.08623310451671215
0.02468976789559381, 0.0879703674376037, 0.08339493201484133
-0.0008226951578855461, 0.09424332429931137, 0.08557244428733986
0.010266804752831642, 0.09655553769093139, 0.08440211659787168
0.007356940105592613, 0.088777214775701, 0.08660418263472935
0.0015400289010318007, 0.08575797085698639, 0.08736730912368561
-0.0038093237238820436, 0.09009580171408303, 0.08654472482175887
-0.008666017321496574, 0.09247790484707394, 0.08561789550842819
-0.015591714057795036, 0.08628185928158369, 0.08594092202651803
0.0012613923397565754, 0.08004046214282695, 0.0882676077353312
-0.020975118612721205, 0.09238250839352563, 0.08345757570764589
-0.014640533805655331, 0.09012389205493712, 0.08533501750258692
-0.008356343680368888, 0.07754032303458992, 0.08828824462228112
-0.022125526246119385, 0.08620749372470839, 0.0844401081778668
-0.027185888631386986, 0.09023501000669179, 0.08222923439954655
-0.03479737712412366, 0.08376821115158095, 0.08055106318488345
-0.01842722440385299, 0.0788823744962356, 0.08666129850659332
-0.032096422473153835, 0.08843280078988289, 0.08075843548709855
-0.046385260344701154, 0.09089558119571489, 0.07290790083495335
-0.03210859031449597, 0.08288754647989134, 0.08186937354584939
-0.05010811798411547, 0.08562573102030979, 0.0718211614923087
-0.04337266877402862, 0.08828074599797542, 0.0753233268102867
-0.054345873279644366, 0.09096414314189705, 0.06715109154391267
-0.053868777917781566, 0.08381337969097474, 0.0693020019062939
-0.04657353822205722, 0.08185119177079925, 0.07470710246118925
-0.05079843854188465, 0.0839645875490884, 0.07176445643864843
-0.06073402986322719, 0.07950661955174775, 0.06443948166083698
-0.05771075905884098, 0.08254353196810613, 0.06642244149837709
-0.06285370488004405, 0.08634689574118953, 0.06057836847421373
-0.06843018799894038, 0.08524618243669856, 0.054806344462491816
-0.06441674576657322, 0.09692734934527555, 0.05547612608718942
-0.0729423773401792, 0.07602648847634152, 0.050756442303828975
-0.07263841688489295, 0.09590805199331778, 0.04484385839316035
-0.07375329421892365, 0.08682062613396695, 0.04673954582510862
-0.0778656324642077, 0.0772509926249523, 0.04255740628683927
-0.07660659570685592, 0.08512671817152269, 0.04245416340356029
-0.07539740510329479, 0.08715827423678343, 0.04394403302251986
-0.08112758378738094, 0.08365324526392845, 0.034073169619725195
-0.07385119862173366, 0.09683964863346657, 0.04221565118978426
-0.08317497003075151, 0.08967507861793486, 0.024869183990800525
-0.08613972508080324, 0.07608719174108934, 0.022515914497779985
-0.08495575831031231, 0.0847639707068037, 0.022024779306311162
-0.0824259114551683, 0.0927588947677127, 0.024913165075776914
-0.08718868020006709, 0.08487127114187996, 0.009834337949619762
-0.08321583367784235, 0.09580694151285506, 0.018720275548576786
-0.08540052808474245, 0.08965754058467851, 0.01528515505566825
-0.08824626560447457, 0.07745185961711332, 0.010367348343210448
-0.0860723348336629, 0.09069183125060683, 0.00988377905377907
-0.08830132697449403, 0.08186641384499994, -0.0007020396725647562
-0.08765171975140168, 0.08400765731282972, -0.005338564407987966
-0.08575250589281737, 0.09382922749391985, 0.003331107970727395
-0.08523747421053504, 0.09367055209168235, -0.011563566270892937
-0.08760544709919434, 0.07935688373903253, -0.013220405707756025
-0.087011477149953, 0.0864762816496049, -0.007742790509528702
-0.08495713494599363, 0.07724848541592202, -0.025796091468671796
-0.08445929997864215, 0.08998384567237744, -0.019565411563244227
-0.084624268437667, 0.08398129271867939, -0.024062417034802677
-0.08323599077883795, 0.09244446245228127, -0.022744671387309137
-0.07783033399914062, 0.08713319035858054, -0.03933285136636281
-0.07906435313801548, 0.0936188209694234, -0.03389325779621661
-0.08018502298643419, 0.08781563814211112, -0.03435849800156385
-0.08042233329940186, 0.082585493610674, -0.03603468432802225
-0.07512163728581246, 0.07643659977682646, -0.04750396137364726
-0.07000421994243772, 0.0838385700341474, -0.05310597009778037
-0.07401662519506463, 0.09578937158391809, -0.04266474969447545
-0.06504594111537575, 0.08579684716619597, -0.05852043032845432
-0.06953497896417782, 0.09531150280889017, -0.0497234394678839
-0.06991037214293261, 0.09053042818935109, -0.05112894528522951
-0.06879699248739667, 0.07697427400625469, -0.05632587108727564
-0.06042910186795988, 0.08463880309360829, -0.06376912787944435
-0.05647593324977761, 0.07704356233226327, -0.06844452468476059
-0.05906039899344692, 0.09770513776016541, -0.06119396989793783
-0.054409892872751706, 0.08558694880822154, -0.06858357760365406
-0.05093825494362121, 0.09418168137244397, -0.06915555555385436
-0.042741665070137394, 0.0764775462901089, -0.0779662655542343
-0.05532461497590723, 0.08861498388998515, -0.06712834274671171
-0.04077952979329076, 0.07653577423264218, -0.07913685657160281
-0.041904997846862926, 0.08897993204401282, -0.07626632175007805
-0.043813023962355674, 0.0949233325870028, -0.07357677444736604
-0.037144877050579166, 0.08460661457164613, -0.07953442810575226
-0.0353554134218046, 0.09725772956002564, -0.07741152615704351
-0.024019679423067784, 0.08753753733102891, -0.08385706350054314
-0.02943166820714995, 0.08969310933213769, -0.08187733535229803
-0.018997966802210896, 0.07650608945726729, -0.08694789208458337
-0.01848390358725864, 0.08586047096888214, -0.08572354903593371
-0.011894045088402926, 0.07867013563520865, -0.08778412342991682
-0.0059883089934949715, 0.08498091223545914, -0.08770661791028539
-0.0141568128733361, 0.08694424563883088, -0.08621996738725368
-0.018378866928637855, 0.09697113928769549, -0.08329791406716475
-0.0032229246032783815, 0.08438924433886999, -0.08781875699652418
-0.0030755536625487363, 0.07919466404851891, -0.08852722031723474
0.017115004174255165, 0.09288510054678233, -0.08462064549099761
0.003228304009259641, 0.0945134185020028, -0.08576898756612471
0.013089902220032305, 0.08524388114557523, -0.0866907940633494
0.02867331702266665, 0.09498269555577393, -0.0809252186873193
0.0070232465654673365, 0.08498635878096075, -0.08757004069009093
0.022952578170027667, 0.0839850772693159, -0.08484931547714208
0.012731832677257726, 0.0824650234238947, -0.08719265055681352
0.03679855208722205, 0.09238835084887106, -0.07808176598387528
0.023771039595073946, 0.0897326350129253, -0.08353153329492496
0.021510158424117708, 0.08348407454804264, -0.08534691712141311
0.03729752633076737, 0.08373383901898039, -0.07967566731320382
0.031098024301390904, 0.08464926078524262, -0.08218424148000253
0.04523405203673428, 0.09111637274156811, -0.07381772757435098
0.036652594768008966, 0.08104859900893095, -0.0803405401685923
0.0501187684716783, 0.08464375172556321, -0.07224020050917386
0.055825314727674956, 0.09496521481462522, -0.0649975336820369
0.05944191116744968, 0.08537327056665568, -0.06460217828663282
0.044508698277744375, 0.08047702773410789, -0.0763464470309379
0.06135475226240511, 0.08730037986152138, -0.062151879208982734
0.05465421177302143, 0.08881067678489332, -0.06768780197506674
0.06303588042844423, 0.07991085710033909, -0.062030062006540924
0.058767095873712205, 0.08280389285774518, -0.06570318219898037
0.06582592071974527, 0.0881852479193512, -0.05712520772733211
0.07094332148274295, 0.08664365413635024, -0.05099416153300547
0.06079474923287587, 0.09651687936850051, -0.059831540004816296
0.07942200738545346, 0.0837219509946352, -0.03773773745136465
0.0703937926654169, 0.08982951606444774, -0.05076737194525882
0.06961268610077516, 0.08235825395714498, -0.05411833710224837
0.0777347677753184, 0.0931786850294272, -0.03697775920344641
0.08139464711142758, 0.09664435736271314, -0.025378159022855656
0.08520272262899889, 0.0853845620232295, -0.020341022936366457
0.08105595946637453, 0.08346647857575683, -0.0344250973530576
0.08398738962208922, 0.09219842398736666, -0.01970452287635293
0.08079595206052316, 0.08676287845434011, -0.0333773646864437
0.07887319089713528, 0.08113620902156228, -0.03953344235961942
0.07501440558762365, 0.08991578231050104, -0.04380105306596021
0.08263865216932202, 0.08717718021443957, -0.027986143852047313
0.08630629950572903, 0.0694717438405267, -0.0236737567926901
0.08924426557713594, 0.07463438165889921, -0.0005682912885358433
0.08663341906206075, 0.06817245525908162, -0.022471208975081078
0.08851337485107025, 0.07674843705128612, 0.008384134351539143
0.08886864664742788, 0.070661279815078, -0.009464226929690539
0.08897590478687664, 0.0706569260712826, 0.009455473707501487
0.08892368291810882, 0.06788472162210704, -0.010967968401616554
0.08639180616620928, 0.07696481398639513, 0.021033545817600422
0.08946836562791416, 0.07050737874069532, 0.0018236752425548498
0.0891602991100025, 0.06798235306524422, 0.009399106758503535
0.08825457382791975, 0.06924047875798038, 0.015320045055210799
0.08253786136910454, 0.07950087241272612, 0.03204126971760885
0.08830083234992947, 0.07032285818872333, 0.014650853530697448
0.08453149601126013, 0.07102693893919991, 0.029076611842264417
0.08461197610946763, 0.07532694218854499, 0.02780228899538583
0.0763777108974548, 0.07837240752510434, 0.04525694430812069
0.08452953251770154, 0.0680958468397089, 0.029722741445212683
0.07725518676478939, 0.07296348629763832, 0.04481138768627639
0.06914828010497251, 0.0815368293905497, 0.05494008571741
0.07878378385026792, 0.07374885254992493, 0.04171994782215388
0.08025464305688088, 0.06741910382203048, 0.039856548657481845
0.07317081061063407, 0.06915313057108072, 0.05152171944566994
0.062331002234659746, 0.07775607332552262, 0.06316877352144903
0.07260819153231164, 0.07272174861401744, 0.0518169473634829
0.061618911686287206, 0.07397100396497706, 0.06452609566463849
0.07243247446968856, 0.06728765370570947, 0.05270094514919118
0.06807114944148862, 0.07366181328583438, 0.057649579763236154
0.05972203600690135, 0.06653656677926746, 0.06682984751625243
0.06605910966226357, 0.06825102847598925, 0.060421588116946416
0.05030752120627051, 0.06269192970794289, 0.07425245925513735
0.057906735485307954, 0.07424020769483972, 0.06766124438368837
0.05439729446872538, 0.08305803255731126, 0.06909183449915722
0.047219396687156426, 0.07114889298370733, 0.07574891309855329
0.04203080337515205, 0.07802644324751963, 0.0781264807752036
0.035622442979076234, 0.06980179485188541, 0.08193637365974399
0.033634515845934326, 0.06239167197255281, 0.08304231918057327
0.04704207031721369, 0.07587098441810233, 0.07541404407432983
0.028476681198759256, 0.06695190653526027, 0.08492720056142211
0.03246472386592576, 0.07589757065854524, 0.08277602853476426
0.03367509124826999, 0.08252762062739444, 0.08127418559547107
0.006928250957979869, 0.06870070530351963, 0.08929183367565903
0.020045309511844606, 0.07808436731564058, 0.08634575009207626
0.018549637618120684, 0.06889204782895511, 0.0876495005443266
0.007794827799030412, 0.06220181057667726, 0.08931084981314219
0.008500542150871846, 0.07918966692991385, 0.08805176989595956
-0.0021689540372562934, 0.0760838365110667, 0.08880398766678646
0.0077209372355513655, 0.0741079949960478, 0.08874893162274183
-0.005100023035656755, 0.06899327253606145, 0.089375741445162
-0.008003597612178647, 0.07708958477874632, 0.08839838909721598
0.00043370120300414343, 0.07265373907228606, 0.08908301385560936
0.00556117832430111, 0.06638710415479035, 0.08945096301225894
-0.016162294926432317, 0.07080668981120922, 0.08784227199025661
-0.02664599913811281, 0.07954940470923177, 0.08426763541136773
-0.014092358912121133, 0.07406805918625595, 0.08786586463060937
-0.02650327142940362, 0.0689002770845823, 0.08539495576515563
-0.03849065370897125, 0.0769458675988763, 0.0799718296780652
-0.025908011523609616, 0.0745181588291872, 0.0850978010861813
-0.022006918009894506, 0.06649688196712547, 0.08672508151029207
-0.03358448570405989, 0.07073042903203336, 0.0827044476729572
-0.045267418341828077, 0.07731056236145925, 0.07622063379278804
-0.03678954338697575, 0.0739195954211174, 0.08103432038215519
-0.03649975109039405, 0.06768075574259244, 0.0816466036931267
-0.044947953206906456, 0.07009771511089775, 0.07717617783566685
-0.05628161686915771, 0.0781497035437674, 0.06835436641945632
-0.04994924237667208, 0.07549167792105455, 0.07363378261673013
-0.043944219013726464, 0.06390539238472212, 0.07803882600923634
-0.05874131920721867, 0.0701712542719522, 0.0673319424004451
-0.06402521130432048, 0.06421481097070839, 0.06262381294106635
-0.06511168776430798, 0.06901822426340881, 0.061276227461214916
-0.05920439808298052, 0.07503604539971179, 0.066453566460871
-0.0679506652219548, 0.08230301891141584, 0.056161000876409864
-0.07109103625691274, 0.07124131063964453, 0.054055880169750076
-0.07139893288174885, 0.06530348779040988, 0.05411307952974631
-0.06848015463000498, 0.0703242598423453, 0.05751843241604331
-0.07899864912204915, 0.06314225497541709, 0.04230376936537978
-0.07324381782476527, 0.07283061276682036, 0.0507821913390409
-0.07791814070073834, 0.07363907017752454, 0.043246392376889195
-0.0707755759969132, 0.08224443814307665, 0.05236054716985907
-0.07656884640892897, 0.08290132596690662, 0.04338508555277897
-0.08348218188123879, 0.06948646530933862, 0.03218693910037938
-0.08482401084375336, 0.06351871749600671, 0.02895885324142909
-0.08134095226300155, 0.07235755518699416, 0.0368707541654662
-0.08681304395545207, 0.061953886291308324, 0.023040478261924013
-0.08727090578525078, 0.07196279766141125, 0.018743685090931612
-0.0848802812502795, 0.07979642403668913, 0.02511201914242127
-0.08914598134668307, 0.06945228727620145, 0.007802354914975834
-0.08661698257039546, 0.0816287181686661, 0.01648139888822778
-0.08818630096700256, 0.07502389784469424, 0.013102198743031026
-0.08918416487891745, 0.06149337138922735, 0.01072797162807643
-0.08933801504014233, 0.07238562766608814, 0.0011827203692799412
-0.08937138362503767, 0.06387815266466136, -0.006326787693247951
-0.08918307450579366, 0.06996833152936897, -0.006144652690723701
-0.0877759625490874, 0.08204156385856184, 0.007963600018533239
-0.08800290750560615, 0.08082448699673085, -0.006820965548347933
-0.08793653907509641, 0.06931481049895574, -0.01626150667370215
-0.08690043802580913, 0.06200063132542347, -0.02177362607460578
-0.08567538100401889, 0.06644195789039241, -0.025981953960417054
-0.08589990670066651, 0.07440888869761336, -0.023857159177646352
-0.08562004930217104, 0.07314256066429257, -0.025058008933752894
-0.08560244779354528, 0.08233360344977647, -0.020727796313255636
-0.08290932322785077, 0.0823980868602975, -0.029516622642055998
-0.0813774795702242, 0.07284032353002713, -0.03649548517101435
-0.08322876725734105, 0.07464021116528732, -0.031337125731474375
-0.08170442945994102, 0.0638782841370455, -0.03664297750039067
-0.07666604867838067, 0.07118587610275079, -0.045787485760991974
-0.07231001321872572, 0.06438544450220958, -0.05256747960499938
-0.07541838635858733, 0.07422305304317318, -0.04739166182799983
-0.07801596062326932, 0.08177765910804316, -0.04088178586372653
-0.07063306858883128, 0.07856528816570271, -0.05340075552220246
-0.06477774585563632, 0.06234968551808576, -0.06167610548834728
-0.07318792599559433, 0.07337751482091903, -0.050657653578050334
-0.06243338742297145, 0.07255765622856591, -0.06366951522116661
-0.054322647959546395, 0.0623719219804586, -0.07113717244948042
-0.0613068998592131, 0.07944752653205275, -0.06388247505727634
-0.05246848268366431, 0.06937504429736858, -0.07248285774016713
-0.054592726805999844, 0.07911163046236755, -0.06963988580775757
-0.05131826699203992, 0.06991569901872258, -0.07333111472364068
-0.04987178837012403, 0.06706812911105292, -0.0743382704400676
-0.05694254329458782, 0.07485560224194734, -0.06833610863142275
-0.04082414219767158, 0.06501911523186443, -0.0798120740185449
-0.04062758888614537, 0.07384620406118997, -0.07944193407318667
-0.04272583441816514, 0.08317336742159634, -0.07698244324386445
-0.028824613140906098, 0.07082720924390423, -0.08464739826134848
-0.03029803176849296, 0.07690852676406422, -0.08364202393073669
-0.029889761386526287, 0.07385656521413984, -0.08410930616216176
-0.027333393181705887, 0.06637771228309576, -0.08525661355223846
-0.012471813975635309, 0.0829200561468491, -0.08715929223349278
-0.020263367935427913, 0.07227663054210706, -0.08693501008521745
-0.017319755511915072, 0.06600751275137579, -0.0879435130465826
-0.00926286535408841, 0.0759303604935741, -0.08849087953847286
-0.017145223404890962, 0.06891417493294918, -0.08791474025394207
-0.026628851438189258, 0.08294391135707474, -0.08396330618864628
-0.004267013056181161, 0.06981432966697962, -0.08937605251068728
0.003453642340199834, 0.08288279849765608, -0.08805623618281855
0.01502149512422651, 0.08035039770671837, -0.08715005601891551
0.0023829968929734444, 0.07304146997239178, -0.08914140016415627
0.012964763697161263, 0.07162471495521859, -0.08830520907140063
0.020430364661351105, 0.07638684929182087, -0.08658683387034642
0.00934829020430012, 0.07580280131525835, -0.0884972288787731
0.02935358440086322, 0.07506718074162652, -0.08420098148432408
0.00823989749450969, 0.06349547830430423, -0.08923608981768076
0.024976041170775936, 0.07454768729291586, -0.08546788661917665
0.04034465622134845, 0.08296103987935137, -0.07847336164485982
0.03427523914824426, 0.06924105538855303, -0.08259820801232265
0.019641205498291264, 0.06795102227165785, -0.08741446783993814
0.04800140143541081, 0.0793463793605633, -0.07438903868101276
0.04884266224127577, 0.07080602008251753, -0.074807553977571
0.04027894678641197, 0.06811706817837203, -0.08004591492489346
0.0468577697193608, 0.07573161601026235, -0.07560112414232995
0.059982009686585826, 0.07980439371590209, -0.06520592745137593
0.0591345865449125, 0.06956563960838827, -0.06710741630252764
0.04320836488645094, 0.06511206553647904, -0.07846949287087256
0.05157928186720455, 0.07482464219263751, -0.07276405710722551
0.06366007460526858, 0.0701447662173293, -0.06269672857056094
0.0615787151792156, 0.06379940597821533, -0.06516978611148766
0.05243639831284704, 0.06279009952498134, -0.07273147409927173
0.07524616804123398, 0.08093317169650256, -0.046455582462660655
0.06834053137119078, 0.07671373374170382, -0.05694041672162447
0.07477973751278273, 0.07095457907721785, -0.04881636568901972
0.07903243300003812, 0.07622355213273453, -0.0405767424717631
0.07498201841160562, 0.07499072790535947, -0.04803103779523833
0.07831298199503586, 0.06882832567450775, -0.04312923687679908
0.07414703575227753, 0.06680065057498097, -0.050034448646503075
0.0775716330585013, 0.07082194851243145, -0.04425288405556559
0.08459768740287549, 0.0804199700362648, -0.025656288725470027
0.08356163609943013, 0.06783153120350391, -0.031792646743781836
0.08794175300209868, 0.07275929063624717, -0.014906852235838599
0.08623396554033554, 0.0780024714651764, -0.02053281661996719
0.08218702411427978, 0.07370240182019962, -0.03453705451122043
0.08544036960692802, 0.07307587734117757, -0.025583522636774894
0.08953440643759902, 0.06606035148552744, -0.003495249423153551
0.08718583643840379, 0.06102742488918868, -0.02022683214009382
0.08661871213294375, 0.0511196983698116, -0.01921454746737291
0.08929460709960474, 0.05684002440456008, -0.004825748097048429
0.08938675923502373, 0.0618348493603553, 0.007771957645885264
0.08926721821755498, 0.0598397788957753, -0.006953840091691186
0.08901588064388757, 0.05543102327935049, 0.009630141928850127
0.08968043253123037, 0.05884640508284355, 0.0011721007955959324
0.08788213845082164, 0.062053781585045646, 0.0181257254382309
0.086968615585219, 0.05817400394570112, 0.02200848387931472
0.08883502397849793, 0.05329289442474894, 0.009442939435169233
0.08369845149746455, 0.0629371707066319, 0.0324048854632749
0.08846302343493018, 0.06120226356567207, 0.015308137426457761
0.08675039121702632, 0.05447470737541106, 0.022247335651561985
0.07985751284013182, 0.06187501801093015, 0.040883178576264924
0.08612841039785654, 0.06010384045476909, 0.025487935224458285
0.08028059233151492, 0.05682074514359513, 0.039657913532330384
0.08022083968311389, 0.0487600332721598, 0.03807565314378435
0.07159309568327221, 0.06366258746701664, 0.05402175064775053
0.08212641806240388, 0.05530105003714056, 0.03594629133079231
0.07010433963604736, 0.05512627265470979, 0.055733429502660005
0.07185950422930713, 0.050132104132582386, 0.05230078922016976
0.06394802675987567, 0.06182079616510733, 0.06287832862237813
0.0749685781970607, 0.061318410806376455, 0.049328379192131115
0.0682094723247568, 0.05189873325175351, 0.0574184268322865
0.06837408802742632, 0.058039615534463546, 0.05793333302037908
0.05381466853082847, 0.05909124508877558, 0.0716377425305962
0.053779837623334076, 0.06588203678773039, 0.07167813842663803
0.060884893678404245, 0.05789732812176303, 0.06581908591775619
0.05606545204523117, 0.05282620815451304, 0.06927689463711316
0.04472391437408105, 0.05999611641140829, 0.07761091674697934
0.044709732266475406, 0.06684049095882028, 0.07756196158615164
0.03492205527820006, 0.056273952022957714, 0.08225118514199212
0.05009438325200224, 0.04978325337247871, 0.07338284694180498
0.0328120498223299, 0.06347441309439152, 0.08337599591869595
0.037930405494650946, 0.05715418496091691, 0.08099015812871904
0.039591185487287454, 0.04939578687430829, 0.07946508674304778
0.019332884095552682, 0.06642766221942728, 0.0875029308604004
0.027817909209621943, 0.05840836437032569, 0.08508485250972175
0.02439632436923003, 0.053281275733313725, 0.08570067016934987
0.013006894219152224, 0.057335398210181854, 0.08842494565049605
0.011631445965582604, 0.053954762799966055, 0.08841081808883863
0.004565043491629652, 0.0563203144365887, 0.08931406683860504
0.009844768066704203, 0.060703436831538095, 0.08901777078762518
0.009389298955101716, 0.06455777417551282, 0.08904622413016228
0.0006076239585063679, 0.06209218600489008, 0.0895352350309288
-0.010733891661465343, 0.05721965241096537, 0.08871878535486138
-0.01631297388317186, 0.06339081443132863, 0.08810444625777754
-0.0034746615001824033, 0.0569629473382201, 0.08934681569847634
-0.014314601659916205, 0.06124926035323025, 0.08841654445756573
-0.02184728462135943, 0.0496043145426913, 0.08592576015680162
-0.023393213968085472, 0.054905316268599944, 0.08612803396845056
-0.0297973038685188, 0.0656148666624097, 0.08456264575085581
-0.035873652755145986, 0.06363691129374267, 0.08200419911032049
-0.032055711933509035, 0.04924461664468764, 0.08267242507667408
-0.028806856796466357, 0.05731814902156116, 0.08473064873595544
-0.0468005221286482, 0.05082439328968577, 0.07547065951682629
-0.033231330415604464, 0.06092265994868441, 0.08318153016144257
-0.05054494478198575, 0.0628282090973552, 0.07405236527447354
-0.0424675055338671, 0.056168889683562796, 0.07871432401074063
-0.06001656342303498, 0.06221843370775433, 0.0666246377437965
-0.05314343227865696, 0.04861733029901209, 0.07092303550239773
-0.04488881905011699, 0.06088885500426532, 0.07750036350216327
-0.06059661071314173, 0.058375043124969106, 0.06599928910016015
-0.06663297777270918, 0.049752959245609185, 0.05862428713372791
-0.06604009327509766, 0.06734969285046288, 0.06037567009142774
-0.0712068984584939, 0.05653467511203519, 0.05414740474306415
-0.07193825492840163, 0.04835356953364278, 0.05167557981745206
-0.06773976700593738, 0.058810473424388485, 0.05856487204412844
-0.07443973631908342, 0.05795419710047425, 0.049676761847934604
-0.07800570714512864, 0.056133845129367824, 0.0437915122227335
-0.07462056914012812, 0.06517470363632152, 0.049550532141941515
-0.07943343583586288, 0.06586301053131033, 0.041342513216297484
-0.0798015860495887, 0.05894709122873464, 0.040604521616821904
