-0.3608456352928126, 0.03231304364671454, 4.3984854511478425e-17
-0.3709586683956837, 0.027845093103284264, 4.521756967686345e-17
-0.40299412320135136, 0.018712947869078594, 4.912249736510998e-17
-0.4060154126687511, 0.00856144768651353, 4.9490774609957216e-17
-0.3594904256691419, 0.0533887485799335, 4.381966297711073e-17
-0.37416182882056825, 0.049647579594210886, 4.5608014797803015e-17
-0.3929105479368342, 0.042528466983034655, 4.7893369419345086e-17
-0.40251494650803915, 0.06848697308180787, 4.90640885716752e-17
-0.3948291292856334, 0.06632626456605392, 4.8127233092712057e-17
-0.3686101064246183, 0.08331771301327337, 4.493129473549527e-17
-0.3621365045271637, 0.09073175581707468, 4.414220335682747e-17
-0.36334119591190545, 0.10220727462202897, 4.42890476640174e-17
-0.3687737633742705, 0.10902622433111192, 4.495124348892115e-17
-0.39834333496716645, 0.09120042577094387, 4.85555938969932e-17
-0.39477346336720287, 0.11226651020815646, 4.812044774781455e-17
-0.3941620710504114, 0.11503913149323038, 4.804592265500956e-17
-0.3735287627564814, 0.13089193062205148, 4.55308480240021e-17
-0.3661451270655884, 0.12559813354134877, 4.4630829246326194e-17
-0.4037569166389916, 0.12979442284599413, 4.9215477355485904e-17
-0.3970874442735134, 0.1465359112251327, 4.840250827925334e-17
-0.3974677572973382, 0.14789856970310214, 0.008388592125502739
-0.36934242323125327, 0.1478985697031021, 0.0034488817909311795
-0.36998690749913465, 0.13615124976768062, 0.012777366675436497
-0.36360632496664336, 0.13567326233839216, 0.012777366675436497
-0.3625532602595919, 0.10663203750673644, 0.012777366675436497
-0.39437165013346015, 0.1284072773859486, 0.012777366675436497
-0.4066170295780228, 0.14573389396828204, 0.012777366675436497
-0.3729694263783899, 0.09012174931613486, 0.012777366675436498
-0.3624896796715251, 0.08735434660503855, 0.012777366675436497
-0.4050223818277314, 0.1098152412665194, 0.012777366675436498
-0.4062296758526291, 0.11674099351065534, 0.012777366675436497
-0.397695094404382, 0.07953634087448232, 0.012777366675436497
-0.3661676752355137, 0.06489936894888046, 0.012777366675436498
-0.35929157367534514, 0.056398822455096, 0.012777366675436497
-0.3962346772137887, 0.05376124434670282, 0.012777366675436497
-0.4050191023265358, 0.05969254329767408, 0.012777366675436497
-0.35832334697959667, 0.035507892629494955, 0.012777366675436497
-0.3593123183508501, 0.03995001717137269, 0.012777366675436497
-0.36485436581217495, 0.010766151375380117, 0.012777366675436495
-0.3946997339892642, 0.032030894307158345, 0.012777366675436498
-0.4070558152481942, 0.04753698655057925, 0.012777366675436497
-0.37784624685711343, -0.004406106860013404, 0.012777366675436497
-0.3582556115812775, -0.014737856739387864, 0.012777366675436497
-0.40551874911033586, 0.0014334005729229797, 0.012777366675436497
-0.39453382921135666, 0.009407282066085473, 0.012777366675436497
-0.3654544818839691, -0.03096142888962795, 0.012777366675436497
-0.39595154024958135, -0.019785895991156814, 0.012777366675436497
-0.38949821582586125, -0.01873595989111468, 0.012777366675436495
-0.366741464114984, -0.06388703187860173, 0.012777366675436497
-0.3584894017645189, -0.059075893373501664, 0.012777366675436497
-0.38886455051929275, -0.05012826372159402, 0.012777366675436498
-0.4053165999411389, -0.027805694909096717, 0.012777366675436495
-0.3615068626548985, -0.09000033282876008, 0.012777366675436495
-0.3915563952606589, -0.07489425951142097, 0.012777366675436497
-0.4052385229741026, -0.06647504334865546, 0.012777366675436497
-0.3610295775220772, -0.11418012695509175, 0.012777366675436498
-0.35905767475642025, -0.11939380321720397, 0.012777366675436498
-0.3878902441072957, -0.09714306037901498, 0.012777366675436497
-0.3997906659831056, -0.08288807831385839, 0.012777366675436497
-0.3755022276229472, -0.13052136224851144, 0.012777366675436497
-0.4009801807105865, -0.10871733730380158, 0.012777366675436497
-0.39997989306275356, -0.11916732141548077, 0.012777366675436497
-0.40190908410451337, -0.1307815965609149, 0.012777366675436498
-0.4006151216869698, -0.14734234515159186, 0.012777366675436497
-0.3749307080102478, -0.14997217059135437, 0.001821498103967587
-0.34795244470731995, -0.1499721705913544, 0.005866810485056788
-0.3360163364542238, -0.13643852203485457, 4.095832436038481e-17
-0.33873910009363833, -0.13841488357848325, 4.129021147289564e-17
-0.34656202753623505, -0.11285561683700461, 4.224377525739785e-17
-0.3523708136840604, -0.12052790374760668, 4.295182836707183e-17
-0.373983795088664, -0.13042881653392593, 4.558631360499211e-17
-0.3794595251399629, -0.11999305929923963, 4.625377067816973e-17
-0.36900773552111343, -0.10436606343748715, 4.497976322288792e-17
-0.34256828930458333, -0.0983931452759019, 4.1756964639450856e-17
-0.35360526153525285, -0.09790539962253603, 4.3102299501233706e-17
-0.33985707579702873, -0.06599466622277342, 4.1426485412610535e-17
-0.3449318207860599, -0.0710783143427755, 4.204506369709964e-17
-0.3772436974669885, -0.09344222355591505, 4.598367521337985e-17
-0.3568934843198805, -0.04990047998546099, 4.350311239203501e-17
-0.3432944354660692, -0.03979313434822194, 4.1845477116005085e-17
-0.3707477195590765, -0.05339964116666363, 4.5191856339691426e-17
-0.3721541627757408, -0.05629382497868843, 4.536329292699408e-17
-0.3815851957654835, -0.04227862713512058, 4.65128765655962e-17
-0.36940840990481233, -0.037010258694999555, 4.5028602911648224e-17
-0.334904225810537, -0.018808319104060108, 4.082276533315866e-17
-0.34345280998369626, 0.0060465281745077405, 4.1864781935780715e-17
-0.34781220018240977, 0.0017330969372238581, 4.2396163141411243e-17
-0.37711468794119674, -0.016082357273638277, 4.5967949763131155e-17
-0.38079083114586265, -0.005225725434915396, 4.641604851178771e-17
-0.3425246258399321, 0.03823682019264791, 4.1751642348159924e-17
-0.3363571035675941, 0.03634087272346814, 4.099986164686019e-17
-0.3730233318440368, 0.01904310585259332, 4.5469239172880275e-17
-0.3711603005594911, 0.04349118496016617, 4.5242147370185165e-17
-0.3619888609330082, 0.047012174155262126, 4.412420653077776e-17
-0.3391665750695329, 0.05314389764845358, 4.13423178817541e-17
-0.3364625983809906, 0.06272512838387356, 4.101272077590694e-17
-0.3749028049011097, 0.06114335998012008, 4.569833512429455e-17
-0.3728216124234115, 0.06670368680589767, 4.544465084350094e-17
-0.3482886744285075, 0.07617943252410884, 4.2454242241423436e-17
-0.37524977497914347, 0.08984732859944441, 4.574062859577598e-17
-0.36927756155752445, 0.09193444551824945, 4.5012653320617863e-17
-0.3342788410604167, 0.11423344558562074, 4.074653501484488e-17
-0.3384111364382563, 0.11249084078355441, 4.1250234844363665e-17
-0.336782701845216, 0.1430457481580723, 4.105173929845095e-17
-0.34106181066866786, 0.12581749822750093, 4.1573334728541395e-17
-0.36996499702631624, 0.11908906735366434, 4.5096447383089847e-17
-0.3620932949306242, 0.14372433174268334, 4.413693637862196e-17
-0.37988593103399715, 0.13199534808293145, 4.6305746876293346e-17
-0.358837397929778, 0.1478985697031021, 0.005966597123819925
-0.3499362724177779, 0.1478985697031021, 0.0036503727841813785
-0.34918190826497963, 0.13977294671977367, 0.012777366675436497
-0.3456838258383994, 0.13458912961968453, 0.012777366675436497
-0.3371032488848482, 0.10964822105620303, 0.012777366675436497
-0.34256157852997915, 0.11632704163071993, 0.012777366675436497
-0.3740335936365434, 0.13803738423488895, 0.012777366675436497
-0.3688260446373989, 0.10615894407339013, 0.012777366675436495
-0.3822474218789311, 0.10947520078852518, 0.012777366675436497
-0.3427674349194762, 0.09373132317229685, 0.012777366675436497
-0.3381543731897293, 0.08608072454465057, 0.012777366675436497
-0.33422104483820364, 0.059351904520826074, 0.012777366675436497
-0.3400315574671546, 0.056418058723303605, 0.012777366675436495
-0.3736344664521629, 0.07807124252747216, 0.012777366675436497
-0.37243148588195096, 0.06009375284215735, 0.012777366675436497
-0.369092228076999, 0.0556837413695932, 0.012777366675436497
-0.3368806228995036, 0.040107301115840294, 0.012777366675436497
-0.3358263720568324, 0.04404926108233981, 0.012777366675436497
-0.343162245314412, 0.015378359685614584, 0.012777366675436497
-0.3459047835198649, 0.023071455617717885, 0.012777366675436497
-0.3779517346653156, 0.026000723716021627, 0.012777366675436497
-0.34123433484500665, -0.017325480110566602, 0.012777366675436497
-0.3403145585338866, -0.012722770026969357, 0.012777366675436497
-0.37956012856296045, 0.014545433859531673, 0.012777366675436497
-0.37337666116348256, -0.0003744215266782854, 0.012777366675436497
-0.33460806991642983, -0.028310531267969476, 0.012777366675436497
-0.3347283209462939, -0.03663075891465674, 0.012777366675436497
-0.37640977049635715, -0.02514770272106262, 0.012777366675436497
-0.3434159961291194, -0.061379082162340705, 0.012777366675436497
-0.34172977338759924, -0.05362825070683701, 0.012777366675436497
-0.3702733874768104, -0.039795504535039376, 0.012777366675436497
-0.3744489924952664, -0.03433711918463524, 0.012777366675436495
-0.37849391778925867, -0.058686416996316666, 0.012777366675436497
-0.37960341089788413, -0.07384018549377978, 0.012777366675436495
-0.34460716788343143, -0.08257884208779072, 0.012777366675436497
-0.33708317100014784, -0.07989200737472194, 0.012777366675436497
-0.34184739550230414, -0.10087943420366649, 0.012777366675436497
-0.3788008476173372, -0.08994939945840782, 0.012777366675436497
-0.37769690849885806, -0.09112037562319288, 0.012777366675436497
-0.33875914256950224, -0.1281796766647081, 0.012777366675436497
-0.3382806765294412, -0.14032591087955087, 0.012777366675436497
-0.360434279500514, -0.12269979073770076, 0.012777366675436498
-0.3712660979187509, -0.11457170339668254, 0.012777366675436497
-0.3794084128864184, -0.14833371717404656, 0.012777366675436497
-0.3548133498479153, -0.1499721705913544, 0.0006040406822436621
-0.32557745036355146, -0.14997217059135437, 0.011923106336412265
-0.31697048666034244, -0.1423505581268593, 3.863675523019914e-17
-0.3106922427883936, -0.1426427952486262, 3.787147660162991e-17
-0.34859613920109583, -0.12797533049299628, 4.249172018996659e-17
-0.35706389378083414, -0.12919252149697805, 4.3523884192833916e-17
-0.3218488995518368, -0.12340715194530524, 3.923140322466107e-17
-0.3236816989495303, -0.12171357929408153, 3.9454809998612013e-17
-0.30879038618302296, -0.08432408421977322, 3.7639652186335e-17
-0.3500651506166464, -0.09981337506462908, 4.267078309131243e-17
-0.34971922210504636, -0.1003289845349658, 4.262861666408822e-17
-0.3284473890500494, -0.07491072011929588, 4.003571779045589e-17
-0.3095958771001628, -0.07173292871501107, 3.773783648706724e-17
-0.3481775520239773, -0.0866402040021085, 4.244069714575633e-17
-0.35055743938838135, -0.07499488256840624, 4.2730789878757175e-17
-0.3172795986847094, -0.03875116761900077, 3.8674434051045645e-17
-0.34887340546780493, -0.0512694156498882, 4.2525517137789256e-17
-0.3526930380876491, -0.054356290572142536, 4.299110541827799e-17
-0.3458278242610028, -0.02604845862496561, 4.215428067127755e-17
-0.34941940934458365, -0.03723965159925389, 4.2592071445868224e-17
-0.31759314222601925, -0.012729854569061914, 3.871265304606787e-17
-0.31127568344874273, -0.018424078017474962, 3.7942594366009606e-17
-0.3202295282537426, 0.0002873764623843592, 3.903401200007246e-17
-0.3576541043153977, -0.014298881273959115, 4.3595827003900644e-17
-0.34637745030711087, -0.002430471637269356, 4.2221276498151004e-17
-0.31373434189887484, 0.03486874042078021, 3.824228944081293e-17
-0.30972163083502985, 0.045723951774228416, 3.775316508017693e-17
-0.34850630628992824, 0.012107044403884557, 4.2480770144555284e-17
-0.343254450672593, 0.01991588265279013, 4.184060323071477e-17
-0.3130954987225453, 0.04866262885572042, 3.8164418456533925e-17
-0.34914071586146966, 0.037797877756972145, 4.255810052968316e-17
-0.3551881712244557, 0.030020770162410663, 4.32952458585708e-17
-0.3182339778164336, 0.07679041451074672, 3.8790766893152054e-17
-0.31992647851985345, 0.07685266927168735, 3.8997072134487563e-17
-0.34218648155523346, 0.06952538307623296, 4.17104247673769e-17
-0.35622246738748964, 0.06739705509207425, 4.342131980860497e-17
-0.31003918182621243, 0.1138692671997778, 3.7791872558253534e-17
-0.34548483573687216, 0.09448526418384318, 4.21124726093326e-17
-0.3460686590378258, 0.09549844674966337, 4.218363685832034e-17
-0.31960920315453656, 0.12664173771397597, 3.895839825347868e-17
-0.3261486781808651, 0.12778715606347904, 3.9755519324559023e-17
-0.3545424076343309, 0.10815050247709813, 4.321653149270055e-17
-0.34272965576631687, 0.12180854625883619, 4.1776634157680635e-17
-0.356841090511482, 0.1370969517508391, 4.3496725928835955e-17
-0.34705898847630606, 0.14088146054182038, 4.230435155166126e-17
-0.3542815613125394, 0.14774383446770184, 0.012599298210614545
-0.34201367292993773, 0.14694369237538937, 0.01275663263469464
-0.3125710847607057, 0.1351030493238309, 0.012777366675436497
-0.35282938361680927, 0.13598862037025136, 0.012777366675436497
-0.35522715128605153, 0.1265553940856462, 0.012777366675436497
-0.31558253634286476, 0.11694027322505175, 0.012777366675436497
-0.31057447282258566, 0.11093596129835692, 0.012777366675436497
-0.35702998102426986, 0.10200715423641793, 0.012777366675436497
-0.3456325136467949, 0.10088759818787585, 0.012777366675436497
-0.32026588314221205, 0.0847510177119976, 0.012777366675436497
-0.3505523595745301, 0.08920226294935277, 0.012777366675436497
-0.3385295374317071, 0.07650581300227248, 0.012777366675436497
-0.3173742750246601, 0.06362300001247152, 0.012777366675436498
-0.3158301729274125, 0.06916385578167311, 0.012777366675436497
-0.3509959769705044, 0.05780799074604483, 0.012777366675436497
-0.344671484996134, 0.05176756562359913, 0.012777366675436497
-0.31787781662013986, 0.04053756808821114, 0.012777366675436497
-0.35619174183189123, 0.024871520580244232, 0.012777366675436497
-0.35527516085893357, 0.04139672940400473, 0.012777366675436497
-0.3187274705849079, 0.01578165778018289, 0.012777366675436497
-0.31259709213032927, 0.00405791585994459, 0.012777366675436497
-0.35706435879595916, 0.008656348210806927, 0.012777366675436497
-0.35328877248930435, 0.002225265307237584, 0.012777366675436497
-0.30927921836940475, -0.02397921680129898, 0.012777366675436495
-0.3555446222851682, -0.004181742156273095, 0.012777366675436497
-0.3548794739564327, -0.02380263978623709, 0.012777366675436497
-0.3181278816933454, -0.028211352356678817, 0.012777366675436497
-0.31469157051366836, -0.031464811577850874, 0.012777366675436497
-0.34950003240374805, -0.040158034422000756, 0.012777366675436497
-0.3393629972761224, -0.04598539614910514, 0.012777366675436495
-0.3120956702001808, -0.055717382748125495, 0.012777366675436497
-0.3427383575662709, -0.06812244007644383, 0.012777366675436497
-0.35602527791448907, -0.07201575362198817, 0.012777366675436497
-0.3282145679722181, -0.07657463763384423, 0.012777366675436497
-0.3095732344280332, -0.09071112112726898, 0.012777366675436497
-0.35762338748284794, -0.09281434936698663, 0.012777366675436497
-0.3478447238363765, -0.09337106781955921, 0.012777366675436497
-0.3137224499646245, -0.11091306208875121, 0.012777366675436498
-0.35651023347474475, -0.10865444410529032, 0.012777366675436497
-0.35522772302011635, -0.10260212393819905, 0.012777366675436495
-0.3262750793841737, -0.12599678988892837, 0.012777366675436497
-0.3254534803062712, -0.1261243901883055, 0.012777366675436497
-0.3561898030275859, -0.14526168054441344, 0.012777366675436497
-0.341810498103975, -0.1442253680548917, 0.012777366675436497
-0.3090804199442663, -0.14997217059135437, 0.005131021074268342
-0.3075301707537994, -0.14997217059135437, 0.010161428552870132
-0.2947820282078898, -0.13959000520683, 3.593212103616498e-17
-0.33152330674102937, -0.1286284053500714, 4.041065290291025e-17
-0.3269452297391776, -0.1294596634868098, 3.9852613973407196e-17
-0.2889326726028859, -0.1120380087609382, 3.521912120265874e-17
-0.30147122796628417, -0.119959870715279, 3.67474926148642e-17
-0.3281496333581937, -0.11595666968751336, 3.9999423235456195e-17
-0.32638610622807196, -0.10793703580180694, 3.9784460317304176e-17
-0.29673049779034033, -0.0884653289734668, 3.6169627281586396e-17
-0.3291663249461524, -0.08499854940218009, 4.012335157592529e-17
-0.3241000748560524, -0.08616389095683023, 3.9505807402742846e-17
-0.28567153782510335, -0.06298609861031375, 3.4821609286711745e-17
-0.2936116441096001, -0.06028246936919727, 3.578945854074326e-17
-0.3291516557225774, -0.06371467153262143, 4.012156348939526e-17
-0.3139801195365095, -0.054470646698804095, 3.8272248196365965e-17
-0.2902987308295576, -0.04339129479688082, 3.538563514948452e-17
-0.2987829574289437, -0.04181284305316539, 3.6419809263914603e-17
-0.3207250006638714, -0.034433570681267484, 3.909440698539811e-17
-0.29855480737178147, -0.020416857599688643, 3.6391999200079205e-17
-0.2885675689276892, -0.01740941472979509, 3.517461735006256e-17
-0.3301348740445604, -0.008292022536291344, 4.0241411648271854e-17
-0.3274830565427258, -0.0015912233137696224, 3.991817169416827e-17
-0.30415155036623565, 0.001193839067976619, 3.7074207137618407e-17
-0.2864739351550587, 0.014837981473373289, 3.491941649853087e-17
-0.32968144748537415, 0.004455141930776115, 4.0186141788985027e-17
-0.2971502600569541, 0.03185004706059958, 3.622079367433431e-17
-0.28789630428212654, 0.03842223423939717, 3.50927943916301e-17
-0.33221314554510734, 0.029231076482129685, 4.0494739934998536e-17
-0.33009143463571466, 0.028456276856360485, 4.023611665624776e-17
-0.29249333686076806, 0.053695410380616156, 3.565314388728913e-17
-0.28591978450772904, 0.0630636625793051, 3.4851869003393904e-17
-0.33005406068730253, 0.05221839121147543, 4.0231561005883035e-17
-0.29010560389649426, 0.08742477406685392, 3.536209418524533e-17
-0.28713643930556176, 0.07773167210271408, 3.5000171607452926e-17
-0.28557734753407543, 0.11622296692118962, 3.481012807983088e-17
-0.28737392761212277, 0.10975515750937961, 3.502911994543614e-17
-0.31765739167263296, 0.09126035819940431, 3.8720484651432955e-17
-0.31866853507068976, 0.09161643479373702, 3.8843736702282577e-17
-0.3259756061821374, 0.11570840939352743, 3.973442293127907e-17
-0.2870900355489219, 0.12517285069573844, 3.4994515279988395e-17
-0.295778656939526, 0.12429332858834022, 3.605360384003422e-17
-0.33121475331951034, 0.14652292556858404, 4.037304217225427e-17
-0.33187366855459033, 0.13457958711285983, 4.045335981485148e-17
-0.3299410837790483, 0.1478985697031021, 0.011825746498001964
-0.28861494457187314, 0.1478985697031021, 0.002533673345462152
-0.29201666174077556, 0.1399772023532111, 0.012777366675436497
-0.2866757563496426, 0.13772383488240253, 0.012777366675436497
-0.29141934912435674, 0.10639793497182576, 0.012777366675436497
-0.33234538658241786, 0.13195470351047606, 0.012777366675436497
-0.3304291041983791, 0.1291734182693765, 0.012777366675436497
-0.28550593785771916, 0.07917550078081419, 0.012777366675436497
-0.29226021432433785, 0.0860176798647367, 0.012777366675436497
-0.3312805298245759, 0.11310321442115082, 0.012777366675436497
-0.31739526344244373, 0.09983288459614006, 0.012777366675436497
-0.3279951456436409, 0.08435145468170184, 0.012777366675436497
-0.301817488664508, 0.07234207601142637, 0.012777366675436497
-0.29777437680805807, 0.0686984178035559, 0.012777366675436497
-0.33065913644134504, 0.06146541071965425, 0.012777366675436497
-0.3249052443146784, 0.04950645048536559, 0.012777366675436497
-0.2888909934295849, 0.03462228092894763, 0.012777366675436498
-0.28913093251696337, 0.03567044652587595, 0.012777366675436497
-0.328164363877566, 0.02442793212006941, 0.012777366675436497
-0.29370590856946466, 0.021946425166094134, 0.012777366675436498
-0.2980237409582093, 0.019333024567183596, 0.012777366675436498
-0.3227462743777506, 0.006436968494942113, 0.012777366675436497
-0.32612709066794493, 0.0038154539732067685, 0.012777366675436497
-0.2883984123266472, -0.002354229820660467, 0.012777366675436497
-0.29324840215410997, -0.01248507113852084, 0.012777366675436497
-0.2919807702116564, -0.03447871303617896, 0.012777366675436497
-0.33209650622865805, -0.011920858581511365, 0.012777366675436497
-0.3284696024248012, -0.024540334907118842, 0.012777366675436498
-0.29029219869871276, -0.06605961757350444, 0.012777366675436497
-0.29111668633572874, -0.061938154874339076, 0.012777366675436497
-0.31888741951649013, -0.04527581145052323, 0.012777366675436498
-0.332423969126729, -0.0298180368377842, 0.012777366675436497
-0.29314976686342914, -0.08295199343065007, 0.012777366675436497
-0.3325339985279754, -0.06569519270381054, 0.012777366675436497
-0.3291061592951723, -0.06973577750895318, 0.012777366675436495
-0.33143321786511176, -0.07744590344311186, 0.012777366675436497
-0.3303267257550524, -0.09428536697933537, 0.012777366675436497
-0.28905778556459927, -0.10831618776360741, 0.012777366675436497
-0.2843652517378482, -0.10492956398231452, 0.012777366675436497
-0.3010236500457259, -0.13149881388274298, 0.012777366675436497
-0.32799656225842483, -0.12368031991590284, 0.012777366675436497
-0.3270534903570924, -0.1198928443350695, 0.012777366675436497
-0.33222153458809595, -0.14553313255356262, 0.012777366675436497
-0.3285269562272871, -0.13587241784679763, 0.012777366675436497
-0.2919423833900576, -0.14997217059135437, 0.0054937086271803605
-0.274051903686083, -0.14997217059135437, 0.007985458710536604
-0.2596283980977069, -0.13528985724243858, 3.164710278309401e-17
-0.2599956677688869, -0.13844299714837716, 3.169187081957958e-17
-0.2632962965587053, -0.10916315742329666, 3.2094198269088726e-17
-0.2825768131611027, -0.12359791494129167, 3.444438108691722e-17
-0.2911423825873827, -0.13110855661859439, 3.548847101782393e-17
-0.267199998987087, -0.09821601172843271, 3.2570036887020636e-17
-0.25968223403006596, -0.0791241980675666, 3.165366507008151e-17
-0.30116536122822146, -0.10701541167671672, 3.6710209374103924e-17
-0.30409582538035024, -0.11623767610940065, 3.706741461065621e-17
-0.28080326837489755, -0.07211685622462036, 3.4228196294302757e-17
-0.26110544311507905, -0.0634533939364213, 3.1827145978645925e-17
-0.2989716319263024, -0.08556876834833593, 3.6442807504111956e-17
-0.2897980602854185, -0.05312980089041646, 3.5324606544161353e-17
-0.3008914954891063, -0.054717296682604874, 3.667682685480127e-17
-0.2697270990855056, -0.04137231604036792, 3.2878075688714236e-17
-0.2727771704070906, -0.04576935895582926, 3.3249861640354616e-17
-0.29277743754961183, -0.02910402011026129, 3.568777398289681e-17
-0.3019875992415432, -0.02625941922699565, 3.6810435041030285e-17
-0.2649207281285233, -0.010898092822457598, 3.229220702802674e-17
-0.30335803265212136, -0.010246646647490894, 3.697748229538729e-17
-0.2921015917503717, -0.0044553477844686065, 3.560539261050737e-17
-0.2678308880560574, 0.014160516175026894, 3.264693859460589e-17
-0.26084029915087587, 0.004868759271035722, 3.179482647176903e-17
-0.2669047501286119, 0.04043286051142349, 3.253404776865411e-17
-0.26654967334192575, 0.02423972898898683, 3.2490765973861535e-17
-0.30164091501070206, 0.01251205057099257, 3.6768176403402316e-17
-0.2595964395379616, 0.06668205188990069, 3.164320722056605e-17
-0.2596529386584052, 0.06391739888746703, 3.165009413468912e-17
-0.2958371327738637, 0.04175695807531482, 3.606073167820348e-17
-0.30720198864538173, 0.04412243265775459, 3.744603646926164e-17
-0.2651443300751275, 0.0905449871833809, 3.2319462804610897e-17
-0.27222230744444276, 0.08092398749420934, 3.318222707288134e-17
-0.293494439761489, 0.06770792843495473, 3.57751720643632e-17
-0.27687168347994445, 0.10403393202106889, 3.374895896588991e-17
-0.26447509625126303, 0.10586531102276225, 3.223788709445798e-17
-0.3068837162424424, 0.0828856099382061, 3.7407241055607655e-17
-0.30081632326080004, 0.08815571014708333, 3.666766383072032e-17
-0.2654866094068568, 0.12590099976972827, 3.2361184664087847e-17
-0.26519057023867215, 0.13977557945840297, 3.2325099211564994e-17
-0.3017013045145374, 0.10448062458773044, 3.6775537505904494e-17
-0.2710968095659297, 0.14682381785786333, 9.79913162427682e-06
-0.3024923290171932, 0.13885416930369165, 3.687195844126538e-17
-0.286138214727889, 0.1478985697031021, 0.005477023129262182
-0.27528816330384315, 0.1478985697031021, 0.006156873056802471
-0.2780832799316219, 0.14472547190697443, 0.012777366675436497
-0.2721268070219687, 0.1383948240485265, 0.012777366675436498
-0.29993223412373893, 0.13575426324714635, 0.012777366675436497
-0.3072530721640257, 0.13108324333307095, 0.012777366675436497
-0.2701893188359271, 0.11978938142330492, 0.012777366675436497
-0.2710124859302732, 0.11387275769319696, 0.012777366675436497
-0.26872702000850796, 0.09168710575368491, 0.012777366675436497
-0.2948671179739451, 0.10165147992518997, 0.012777366675436497
-0.297298340967299, 0.10774655610974253, 0.012777366675436495
-0.29302881673831577, 0.08021535282902481, 0.012777366675436497
-0.3002849225940436, 0.08193616707487202, 0.012777366675436495
-0.26035895417567273, 0.051896681789321775, 0.012777366675436497
-0.2642435647084299, 0.0652833339380985, 0.012777366675436497
-0.2624531398456387, 0.04383344619062512, 0.012777366675436497
-0.29568944466824665, 0.0522925750175604, 0.012777366675436497
-0.2937616983295532, 0.0561572028109085, 0.012777366675436498
-0.2654799994770482, 0.019223102900911008, 0.012777366675436497
-0.2654811445839762, 0.009362781021593259, 0.012777366675436497
-0.2882649457666044, 0.023737568052795158, 0.012777366675436497
-0.3041143612595537, 0.032611161093583446, 0.012777366675436497
-0.2617629082477594, -0.004028417897707849, 0.012777366675436497
-0.2888544825824337, 0.0026600250414611864, 0.012777366675436497
-0.29120906385480166, 0.003214870062176565, 0.012777366675436498
-0.261293895107427, -0.04512514412107698, 0.012777366675436495
-0.2651097592305866, -0.03567014998709546, 0.012777366675436498
-0.3069897985586278, -0.018073636289390006, 0.012777366675436497
-0.3041893163973787, -0.01426220019482597, 0.012777366675436497
-0.28271401863724677, -0.05079177494137381, 0.012777366675436497
-0.293044687032646, -0.04351679939194438, 0.012777366675436497
-0.30250636937596376, -0.04852233196551043, 0.012777366675436497
-0.25953334805005057, -0.09021741587193295, 0.012777366675436497
-0.27323794849824035, -0.0785637157991007, 0.012777366675436498
-0.3079702294716833, -0.0689317712681041, 0.012777366675436497
-0.3035967922285673, -0.06877065597427671, 0.012777366675436497
-0.2598494118692721, -0.10728497865549268, 0.012777366675436497
-0.29668849321278545, -0.0899530226877341, 0.012777366675436497
-0.2943736898545084, -0.09112163967923784, 0.012777366675436497
-0.26506017989543257, -0.1401345570581909, 0.012777366675436497
-0.2798462626154419, -0.12605741242561963, 0.012777366675436497
-0.3046974061088337, -0.10365344824955598, 0.012777366675436497
-0.29755031683059285, -0.11827384952576647, 0.012777366675436498
-0.3041769868047848, -0.14118568834595466, 0.012777366675436497
-0.27863501911033206, -0.14977603479795404, 0.0126213065957269
-0.23892809802334902, -0.14997217059135437, 0.011305481134632901
-0.2516989146901835, -0.14630975992447895, 3.068054555019446e-17
-0.24345769238605636, -0.13701050409324655, 2.967598920734175e-17
-0.24378085984396222, -0.12403163956215787, 2.971538141248592e-17
-0.2386321027287173, -0.12114005224494534, 2.9087778318302046e-17
-0.27801726343436406, -0.1351916772571979, 3.388859849842146e-17
-0.2631836437512422, -0.1271801931572264, 3.208046654716759e-17
-0.24748457606263843, -0.09738691524780135, 3.0166842552872145e-17
-0.28069535058064504, -0.11607110229180102, 3.4215041742948127e-17
-0.27267405395913574, -0.10544629449509381, 3.3237292345183927e-17
-0.2715896229186395, -0.08085579791811165, 3.310510650955246e-17
-0.28325936693196807, -0.07744323494079372, 3.452758042112656e-17
-0.2358688575585876, -0.05274173714017888, 2.875095504621038e-17
-0.2355884192754131, -0.06926086493427201, 2.8716771275193725e-17
-0.28304259329804043, -0.07296364961044509, 3.450115697613695e-17
-0.2508158833681846, -0.043261221400786566, 3.0572909245442985e-17
-0.2410904510495335, -0.04896164300656371, 2.938743646456762e-17
-0.241941610265297, -0.0208136497020439, 2.9491187747741306e-17
-0.2381116990236223, -0.018710049780341236, 2.902434417910459e-17
-0.2767616149067821, -0.03392395574227323, 3.3735542247097365e-17
-0.2654382647658817, -0.028916774087570384, 3.235529173357686e-17
-0.26863127725477354, -0.0015408593772254877, 3.274450138201399e-17
-0.24498591303978323, 0.0061061597589688685, 2.986227028244526e-17
-0.2503831503609335, 0.002613043687043397, 3.052016164670656e-17
-0.274298145594653, 0.023207112300522144, 3.343525966810809e-17
-0.2651027679360608, 0.0209063372994541, 3.231439662162831e-17
-0.24596564602836685, 0.025799245036931984, 2.9981693949428597e-17
-0.24092324448025976, 0.03462806005522264, 2.9367054970957565e-17
-0.23669973573801267, 0.06978609988024444, 2.8852234190793264e-17
-0.28352900263588, 0.02832769593151166, 3.4560447444945207e-17
-0.2751440762757775, 0.048182918884895704, 3.353837369730405e-17
-0.24151589430945103, 0.08997699922796064, 2.943929548614262e-17
-0.23510577718825756, 0.08232723511122622, 2.865794005427921e-17
-0.2740144212440582, 0.05902205403125078, 3.340067532021336e-17
-0.28395794755766207, 0.05162182672999127, 3.461273333571028e-17
-0.24013599628998733, 0.09970351177169551, 2.927109406446177e-17
-0.2782295812282016, 0.08278909145450855, 3.391447880242401e-17
-0.2758699211329985, 0.08904748441886542, 3.3626849963113127e-17
-0.2728772363144408, 0.10953182896598897, 3.3262059092370794e-17
-0.2735786704685018, 0.1140074601387066, 3.334755983546329e-17
-0.24009590800017086, 0.12887111944384466, 2.926620753861364e-17
-0.24458207145106003, 0.1281151212497512, 2.981304437705299e-17
-0.27314991378707754, 0.1347275848501751, 3.3295296890102837e-17
-0.27636969804432926, 0.130582990864511, 3.368776986136994e-17
-0.26254707219626694, 0.1478985697031021, 0.0051029287843
-0.23494409270760222, 0.1467714902084963, 0.012772340280339712
-0.2381857379556259, 0.12755098355063596, 0.012777366675436497
-0.24354267124058807, 0.11676036947482224, 0.012777366675436497
-0.23885386777247586, 0.10547121837952989, 0.012777366675436497
-0.27409531860687864, 0.1250027183588434, 0.012777366675436497
-0.2839130551849514, 0.13008348261543146, 0.012777366675436497
-0.2753752927649294, 0.10342628392531646, 0.012777366675436497
-0.28159687798542343, 0.106748539318583, 0.012777366675436497
-0.23548702928859858, 0.09437857246801712, 0.012777366675436497
-0.279492706691192, 0.07414721832580558, 0.012777366675436497
-0.2829592044999589, 0.07753420399061375, 0.012777366675436498
-0.25619340191181544, 0.0725662306527317, 0.012777366675436498
-0.23686298975400566, 0.0625979158306684, 0.012777366675436497
-0.27233124352100724, 0.05762897469421358, 0.012777366675436497
-0.2829791569418204, 0.06419331286232888, 0.012777366675436497
-0.23919550275026433, 0.04228634491557555, 0.012777366675436497
-0.24649252888182133, 0.017467836922221563, 0.012777366675436497
-0.2380222540326576, 0.01890061420343616, 0.012777366675436497
-0.2787924360797569, 0.0354791670649536, 0.012777366675436497
-0.2774206946582655, 0.03625599707097021, 0.012777366675436495
-0.24549874990548476, -0.004795998191414832, 0.012777366675436497
-0.24238320304835445, -0.01748548183757987, 0.012777366675436495
-0.26449868710506125, 0.0017108203165968347, 0.012777366675436495
-0.25222907689759316, -0.02997891871779481, 0.012777366675436497
-0.2431724394925573, -0.03259601911643685, 0.012777366675436497
-0.281291862985217, -0.020600178050391958, 0.012777366675436497
-0.2836074028827198, -0.003405118070507867, 0.012777366675436497
-0.2495738045200639, -0.057557659590791004, 0.012777366675436497
-0.23649857282412182, -0.05125230965810638, 0.012777366675436497
-0.27084945902384033, -0.040689594215919875, 0.012777366675436498
-0.2838119530973194, -0.05573556152871251, 0.012777366675436497
-0.26178932429627805, -0.07266078937269427, 0.012777366675436497
-0.24382488103644234, -0.07602797167295035, 0.012777366675436497
-0.2519795016259632, -0.07868852420963757, 0.012777366675436497
-0.2449782503294165, -0.11183620687018817, 0.012777366675436497
-0.2520058627386495, -0.10675177121722572, 0.012777366675436497
-0.2700970325446503, -0.09359811422255238, 0.012777366675436497
-0.23893091491037205, -0.14124621183797795, 0.012777366675436497
-0.23860160416578768, -0.12503814390621765, 0.012777366675436497
-0.2676548347672475, -0.12386996871187414, 0.012777366675436497
-0.27766639749942895, -0.11356182601637355, 0.012777366675436497
-0.27519709214930466, -0.13602927389503536, 0.012777366675436497
-0.2620905963536049, -0.14675360029440127, 0.012777366675436497
-0.24533193277183304, -0.14997217059135437, 0.0035040145169236364
-0.22322915701613644, -0.14997217059135437, 0.011173981869999943
-0.22581117238742257, -0.14079283529971764, 2.7524988839611634e-17
-0.2108356591972294, -0.14087787618935654, 2.5699572630638928e-17
-0.2176904808165231, -0.11325924577272845, 2.653513013939057e-17
-0.2509368869531887, -0.13377945835249455, 3.058765886805212e-17
-0.25409133201925643, -0.13035442288412796, 3.0972167097821854e-17
-0.2541575282580931, -0.1087191164971901, 3.09802360285147e-17
-0.2468974239447679, -0.1080400382139218, 3.009527217623871e-17
-0.2315303595646065, -0.09813879209729535, 2.822212000585555e-17
-0.2272090930304501, -0.09796233540410733, 2.7695386138737983e-17
-0.258345747903287, -0.08474303695530115, 3.1490755276094384e-17
-0.21070456285406405, -0.054133615132603466, 2.5683592851735066e-17
-0.22323138140522922, -0.06821250776129426, 2.7210529347315823e-17
-0.21293884518942854, -0.044821601788010014, 2.5955937120582333e-17
-0.21355509435783915, -0.04115825505938474, 2.603105382653398e-17
-0.24337464137405945, -0.05839921890789879, 2.9665865779310926e-17
-0.2522112179343118, -0.05233849247882666, 3.0742992291025044e-17
-0.21426802437557774, -0.00568833903410934, 2.6117955289857148e-17
-0.24576712629091726, -0.031953035003296035, 2.995749556549026e-17
-0.24743204377937908, -0.030004823980238734, 3.016043917769244e-17
-0.25062316483215347, -0.004808332553339554, 3.054941799370738e-17
-0.25829319512425414, -0.017863053298230933, 3.148434940260088e-17
-0.2132696918059262, -0.0009491116011462402, 2.5996265139313207e-17
-0.21668385714050314, 0.005221139651004463, 2.6412429357707458e-17
-0.2185835971707212, 0.03884312431997486, 2.6643995127771704e-17
-0.24750904240589924, 0.018182331869865398, 3.0169824855666816e-17
-0.25156588842233407, 0.021058012504594804, 3.066433043352817e-17
-0.2179047646289642, 0.06264234223001587, 2.656124992170338e-17
-0.22432808851572067, 0.058536866739232564, 2.734421070504704e-17
-0.23826958611954244, 0.045521848917591375, 2.904358968393483e-17
-0.2549244550301246, 0.029165391457658014, 3.1073719874104204e-17
-0.24581874849980168, 0.06667460855837867, 2.9963788007976725e-17
-0.21103110684948787, 0.0965381215117989, 2.5723396409357367e-17
-0.21336546114901966, 0.07808462257385661, 2.6007938790091336e-17
-0.25695641853995344, 0.08858586150677017, 3.1321404229278264e-17
-0.248794838570646, 0.09089732656315919, 3.032655581683323e-17
-0.21392730614673164, 0.11251426800419506, 2.6076423986740572e-17
-0.2143049867748203, 0.11041478965539805, 2.6122460762347e-17
-0.2410557312415825, 0.12171885863480554, 2.938320432496349e-17
-0.2244063956012723, 0.13116622184292828, 2.7353755821893977e-17
-0.2151777933188822, 0.12585815023405994, 2.622885011893155e-17
-0.24959014738433777, 0.1338028898765683, 3.042349926573409e-17
-0.2552134252676044, 0.13411564586825897, 3.1108943639978174e-17
-0.252908241600359, 0.1478985697031021, 0.012247532929390062
-0.21597157852497068, 0.1478985697031021, 0.00309864697566293
-0.22467371171689468, 0.13936195768089138, 0.012777366675436497
-0.21801820098078079, 0.14161367751506188, 0.012777366675436497
-0.24296166655869372, 0.12310577722084368, 0.012777366675436497
-0.21395326062986889, 0.11663472855329689, 0.012777366675436497
-0.2109481622446597, 0.1173358183631376, 0.012777366675436495
-0.25196389190467644, 0.11402518859283775, 0.012777366675436495
-0.25595919393183986, 0.1162796155794008, 0.012777366675436497
-0.21134399249602426, 0.07486916153534255, 0.012777366675436498
-0.21278926487175626, 0.09730391819569904, 0.012777366675436497
-0.24903269245771414, 0.08047074076934307, 0.012777366675436497
-0.21130120226667423, 0.0526920327145919, 0.012777366675436498
-0.22691227239117442, 0.07042588678311197, 0.012777366675436497
-0.21657583629535587, 0.03615695527779014, 0.012777366675436497
-0.2124296750030466, 0.04038028332822169, 0.012777366675436497
-0.2547072312688828, 0.055172664537917485, 0.012777366675436497
-0.25538767765355985, 0.06118796518792431, 0.012777366675436497
-0.2588438051367971, 0.028244028947059248, 0.012777366675436497
-0.22200032492081456, 0.022115892525827102, 0.012777366675436497
-0.2196523746322199, 0.020180137405073684, 0.012777366675436497
-0.24863483645301596, 0.004106729801280717, 0.012777366675436497
-0.257307065847716, 0.013801406626300024, 0.012777366675436497
-0.21360526768635815, -0.01807629938950203, 0.012777366675436497
-0.2154956245323651, -0.008345089159711319, 0.012777366675436497
-0.22154637936770225, -0.025775808413138722, 0.012777366675436497
-0.21570854716826565, -0.039049933254689195, 0.012777366675436497
-0.2353876171743357, -0.025592360970497788, 0.012777366675436498
-0.2108352727799197, -0.06596326836713325, 0.012777366675436497
-0.21380659431769597, -0.050507290697442885, 0.012777366675436497
-0.2575362599211502, -0.03386992088148425, 0.012777366675436497
-0.24893545188334185, -0.048113130259841375, 0.012777366675436497
-0.241255668303162, -0.07015676986321456, 0.012777366675436497
-0.24211462104354553, -0.07291901308741079, 0.012777366675436498
-0.22751244606938714, -0.07848478467659596, 0.012777366675436495
-0.2435822346192732, -0.098179237114375, 0.012777366675436498
-0.2541027208087714, -0.09796709816486907, 0.012777366675436497
-0.21390614792973311, -0.11586268628187707, 0.012777366675436497
-0.21130380654317782, -0.11097425938259128, 0.012777366675436497
-0.2499380704566861, -0.11889909431966109, 0.012777366675436497
-0.2525512211846705, -0.11190151630135042, 0.012777366675436497
-0.21788329644638288, -0.12638843308157158, 0.012777366675436497
-0.25157206255553805, -0.1408559891076882, 0.012777366675436497
-0.2498356603565951, -0.14228564741935412, 0.012777366675436497
-0.2234695435651124, -0.14997217059135437, 0.0012122270024279526
-0.20190130350285546, -0.14997217059135437, 0.0049325140932219855
-0.18595143578868306, -0.13530142790832506, 2.266633775708935e-17
-0.19366500943855136, -0.14250007541629056, 2.3606575391092403e-17
-0.18724911088828794, -0.10356863730749044, 2.2824516445819184e-17
-0.1932819405203805, -0.11186268356900854, 2.355988162376353e-17
-0.22537690052242684, -0.1360494228495783, 2.7472053965768174e-17
-0.19375399343954774, -0.09379437334282527, 2.3617421998690735e-17
-0.18598391866714425, -0.08279338005734627, 2.267029722207617e-17
-0.2141976488215135, -0.1021286584828569, 2.610937697434483e-17
-0.22012055861545282, -0.1080763504880995, 2.6831340582858778e-17
-0.18746703631550357, -0.07334592213270935, 2.2851080227715246e-17
-0.2012473529381743, -0.06988062298802251, 2.4530816869282686e-17
-0.2307960880860415, -0.08484514204347886, 2.8132617159326274e-17
-0.19988050614711214, -0.04935207906811094, 2.4364206572783483e-17
-0.2008941508902327, -0.04466913171594383, 2.448776369147484e-17
-0.23288832717812966, -0.0709509922210209, 2.838764729440339e-17
-0.22569690825017502, -0.06323753016693132, 2.7511060795504765e-17
-0.1864547916830345, -0.007537830646347831, 2.2727693773982315e-17
-0.18914522817360496, -0.010335403187994956, 2.3055641591058344e-17
-0.226658830732312, -0.02635344755092084, 2.7628312796712844e-17
-0.19043976212742159, 0.012504454330114271, 2.32134373932536e-17
-0.19203451751272432, 0.002254717397771141, 2.3407828358888092e-17
-0.2241417335676406, -0.01156197914597749, 2.7321495266949706e-17
-0.22782480134886374, -0.007885611574059011, 2.777043691864499e-17
-0.18621231283408946, 0.032844410215987135, 2.2698137079565876e-17
-0.19066924576898014, 0.0325604292373531, 2.3241410051061193e-17
-0.2289318758273658, 0.008291698626185812, 2.790538199010478e-17
-0.19632649154874732, 0.05441552185974073, 2.3930993845601463e-17
-0.1910423073148798, 0.06289813286246237, 2.3286883980678785e-17
-0.23009994298861577, 0.040392126530248186, 2.804776166699697e-17
-0.23308415489170942, 0.044574909165936226, 2.841151740008822e-17
-0.188486756824195, 0.08779537603744368, 2.2975377945213903e-17
-0.18711254202311584, 0.076579259012924, 2.2807869533182246e-17
-0.21058639509521526, 0.07280495403398635, 2.5669188981921656e-17
-0.19435042909293035, 0.10843245440925277, 2.369012387113362e-17
-0.1859000789087261, 0.10269371225464875, 2.2660077666307517e-17
-0.22708293289691212, 0.08281296224770712, 2.7680008051205254e-17
-0.22994908008020437, 0.08225412681070417, 2.8029372474262844e-17
-0.20296757738678048, 0.1278465575013454, 2.474050174933038e-17
-0.19754711145243986, 0.12656596737425982, 2.4079779975398064e-17
-0.23435580878105705, 0.103720895570381, 2.8566523615390314e-17
-0.22034571041843942, 0.14739585572884603, 6.197619219468159e-05
-0.22545544942130952, 0.13980900431925608, 2.7481628558064032e-17
-0.21107812300206846, 0.1478985697031021, 0.008331713139135617
-0.20234506272653563, 0.1478985697031021, 0.0039289284328364515
-0.19857826803011788, 0.14541917014370032, 0.012777366675436497
-0.19559193078901793, 0.1433158927925272, 0.012777366675436497
-0.22261575169740497, 0.12323287493447067, 0.012777366675436497
-0.22727507775962205, 0.12877658017872368, 0.012777366675436497
-0.19559990200503405, 0.12126496417033553, 0.012777366675436497
-0.20483406684838465, 0.11890422517717619, 0.012777366675436495
-0.21700234844978689, 0.09899465920134982, 0.012777366675436497
-0.20034239567603618, 0.089398461214248, 0.012777366675436498
-0.19794622385994334, 0.08638204644667892, 0.012777366675436497
-0.23328227357227577, 0.08487972486221215, 0.012777366675436497
-0.22944492132257044, 0.0791323144005095, 0.012777366675436497
-0.18689959012455543, 0.05582934813063629, 0.012777366675436498
-0.18933117487890935, 0.06615548222360486, 0.012777366675436497
-0.23179908027583096, 0.06212004020562201, 0.012777366675436497
-0.19776753014313458, 0.04744932150998852, 0.012777366675436497
-0.18871679469684513, 0.0311450408257608, 0.012777366675436497
-0.22212072792419846, 0.025092330675142736, 0.012777366675436497
-0.21756021119614002, 0.026363791495483013, 0.012777366675436497
-0.1865168335015233, 0.014545043122976147, 0.012777366675436497
-0.194613777859193, 0.02009922175451736, 0.012777366675436497
-0.21881207953319015, 0.0016190267437750888, 0.012777366675436497
-0.19351885233714758, -0.012842739288028277, 0.012777366675436497
-0.18627340382219548, -0.02179325888417117, 0.012777366675436498
-0.19977379840498494, -0.035162104726211375, 0.012777366675436497
-0.19384323487814398, -0.02654596419824127, 0.012777366675436497
-0.23214093762801485, -0.012794143248045552, 0.012777366675436497
-0.22553281083380844, -0.021999600167180125, 0.012777366675436497
-0.2072349122036488, -0.05206236937625367, 0.012777366675436497
-0.23452071570689503, -0.0501816830793356, 0.012777366675436497
-0.23133036871094123, -0.03421569672647002, 0.012777366675436495
-0.1920835588726997, -0.08752116021502174, 0.012777366675436498
-0.18659735980361494, -0.08606591724247345, 0.012777366675436497
-0.22709373840582803, -0.05870020320224369, 0.012777366675436497
-0.21189632857618299, -0.07348517991769096, 0.012777366675436497
-0.19259464555612132, -0.10731896818437574, 0.012777366675436497
-0.23276699511569654, -0.07742683164992673, 0.012777366675436497
-0.23370794116436266, -0.09404196848065804, 0.012777366675436497
-0.2033344393678072, -0.13031442492898457, 0.012777366675436497
-0.1996700078574604, -0.13162407990787642, 0.012777366675436495
-0.22951844644631453, -0.1135454476153967, 0.012777366675436497
-0.23299805172430743, -0.11084722169155789, 0.012777366675436495
-0.2213936111800433, -0.14098460895403897, 0.012777366675436497
-0.23302968963149343, -0.12626389438977184, 0.012777366675436497
-0.16185257526670632, -0.1497545413338817, 0.00014463300832190037
-0.17962207797031068, -0.14333579248198033, 2.1894828507037047e-17
-0.16524951891656942, -0.14362080279407835, 2.0142903336047718e-17
-0.17276853467244466, -0.11275613697459028, 2.1059424389433424e-17
-0.17430868042869752, -0.12193060880516884, 2.1247158536656796e-17
-0.20056394710866063, -0.13085309405136505, 2.4447513862223586e-17
-0.20977603354763397, -0.12460161932582446, 2.5570411075729784e-17
-0.16788355954685347, -0.0957746862352769, 2.0463976435441387e-17
-0.17710804271596114, -0.0934860121505431, 2.1588383313360625e-17
-0.20522364811278027, -0.11271750007174462, 2.501550302602057e-17
-0.16752870896756353, -0.06617353803527104, 2.0420722366387042e-17
-0.1627187066778698, -0.06840293854892288, 1.983441313277584e-17
-0.18957645235598025, -0.07711250687838093, 2.3108205191714232e-17
-0.21007110257998549, -0.09456476742489713, 2.5606378193104812e-17
-0.20663623113529067, -0.058846038534290476, 2.5187688290491434e-17
-0.2012737243435163, -0.060124116256186924, 2.4534031382929616e-17
-0.16122863623975514, -0.035218915481399625, 1.9652782854039875e-17
-0.20805801997864162, -0.04799770634936544, 2.5360995688437526e-17
-0.20543725018039122, -0.040805159695207205, 2.5041539816720312e-17
-0.18012321487342073, -0.023660855494637444, 2.1955913965192913e-17
-0.16302466571470198, -0.006892757191047291, 1.987170762820381e-17
-0.20001775432574512, -0.011458042880723522, 2.4380936289592675e-17
-0.20627542593051904, -0.0058145747523805635, 2.514370833418723e-17
-0.16312343620916844, 0.014395542571040266, 1.9883747134513007e-17
-0.19205039688933664, 0.020271922864565632, 2.3409763958154154e-17
-0.18798348093420336, 0.0231154037086021, 2.2914031680364978e-17
-0.16205964675534487, 0.03759224426301327, 1.9754077845013632e-17
-0.17150506216561417, 0.037015326034673605, 2.0905414983085346e-17
-0.19532632510146694, 0.04382268877539293, 2.3809079649058307e-17
-0.20919338740540644, 0.044312059631661016, 2.5499390060685948e-17
-0.16562376185409308, 0.0503650080787571, 2.0188521212437102e-17
-0.20741973156602128, 0.059938718048849676, 2.52831922196259e-17
-0.20312424630661727, 0.0632133846266834, 2.4759598736174038e-17
-0.1711870613516946, 0.07332122186718916, 2.086665267024894e-17
-0.17241974187736314, 0.08137647444551008, 2.1016908726434355e-17
-0.20221009965540201, 0.08995492734105742, 2.464816982870712e-17
-0.19092395477337323, 0.09690585441521882, 2.327245752691616e-17
-0.17284860975809296, 0.10006273275294193, 2.106918504218787e-17
-0.20144417612320933, 0.10727357205962433, 2.455480841641952e-17
-0.20127952051217973, 0.10660355187569698, 2.4534737900577305e-17
-0.1812796124670327, 0.12311352070899007, 2.209687160845916e-17
-0.16505818024683352, 0.13917498317019575, 2.0119580347396882e-17
-0.20429259153146714, 0.14170128498455306, 2.490201290109621e-17
-0.19632231259428806, 0.1444184117958972, 2.39304844565126e-17
-0.18761535631581822, 0.1478985697031021, 0.0033143206185392146
-0.16561627633467219, 0.1478985697031021, 0.0003820023025994645
-0.17496451580475186, 0.13718127739884325, 0.012777366675436497
-0.18343581689257196, 0.12008942136806736, 0.012777366675436495
-0.17376550661076284, 0.11934688443511193, 0.012777366675436497
-0.19076482784458196, 0.12665540630668634, 0.012777366675436497
-0.19023333152819785, 0.12315745078103321, 0.012777366675436497
-0.16482806967443786, 0.09719189189809938, 0.012777366675436497
-0.16853080534564174, 0.08368304561587, 0.012777366675436497
-0.19468114830103816, 0.09801573854700125, 0.012777366675436497
-0.20710081271060848, 0.07526223178928416, 0.012777366675436497
-0.2067334553805658, 0.07504595952158737, 0.012777366675436497
-0.16897357834916157, 0.07266028577180508, 0.012777366675436497
-0.16995071462159989, 0.06182213347551505, 0.012777366675436497
