-0.6513827460119372, -0.3753861127192529, 0.014212570153176785
-0.6936833755045468, -0.3478703909372595, 0.014212570153176785
-0.7107599890770289, -0.3432862621096069, 0.014212570153176785
-0.6492228568061345, -0.41396856848594854, 0.014212570153176785
-0.6788066418491349, -0.3909874035906244, 0.014212570153176783
-0.7105241246177941, -0.3675175387514768, 0.014212570153176785
-0.7113593467387835, -0.4212377682114294, 0.014212570153176785
-0.6908588405845095, -0.42594214454760215, 0.014212570153176785
-0.6409298746902289, -0.4352381131664903, 0.014212570153176785
-0.6659598251681356, -0.4339072984405311, 0.014212570153176785
-0.7017924818585752, -0.458017141611451, 0.014212570153176783
-0.7151595942642013, -0.46264546471626977, 0.014212570153176785
-0.645229743294617, -0.4858601072452716, 0.014212570153176785
-0.6499947756914537, -0.48166647379403565, 0.014212570153176785
-0.6929593314970975, -0.5023862506861178, 0.014212570153176785
-0.638857923368646, -0.5485322715952993, 0.014212570153176785
-0.6635195080758036, -0.5293743332400116, 0.014212570153176785
-0.7062001183364652, -0.5409830405724068, 0.014212570153176785
-0.7177768784096334, -0.5434860036810836, 0.014212570153176785
-0.665167369237274, -0.5634229966949843, 0.014212570153176785
-0.6682625399149928, -0.5644932367687905, 0.014212570153176785
-0.7151587095541467, -0.5732039874663916, 0.014212570153176785
-0.7147782564272301, -0.5785480092407885, 0.014212570153176785
-0.648738377660762, -0.6007723017685829, 0.014212570153176785
-0.6538391810714969, -0.6611754710656355, 0.014212570153176785
-0.6580847905911364, -0.6398004561484452, 0.014212570153176785
-0.6995159762856035, -0.6180413040785492, 0.014212570153176785
-0.7061126002618622, -0.6344516410545789, 0.014212570153176785
-0.6400461301390211, -0.7018171255360047, 0.014212570153176785
-0.6424870381880279, -0.7140574370625744, 0.014212570153176785
-0.6913937212830733, -0.6773230460672734, 0.014212570153176785
-0.716562766543835, -0.66376624577672, 0.014212570153176785
-0.6555508897789915, -0.7197339251994013, 0.014212570153176785
-0.7046349355930797, -0.6947134367835679, 0.014212570153176783
-0.7134654086280094, -0.7030940135483175, 0.014212570153176785
-0.7194323087715107, -0.749125852667573, 0.014212570153176785
-0.7175364999631532, -0.7437889186609806, 0.014212570153176786
-0.6436114329591387, -0.762452244758606, 0.0008392848711403359
-0.6206675792201471, -0.743040722505845, 0.0
-0.5978869205239743, -0.7230546131676214, 0.0
-0.6713558741610102, -0.7311890929029625, 0.0
-0.6642435417935959, -0.7239493668971952, 0.0
-0.6043279426615189, -0.7183445338582461, 0.0
-0.6009407462868163, -0.6932543712218788, 0.0
-0.6528824720145159, -0.6819407205651552, 0.0
-0.6788075069664166, -0.7164960542869392, 0.0
-0.6218754653776057, -0.6661017539266634, 0.0
-0.620595311365955, -0.6692051992721267, 0.0
-0.6604280185774057, -0.6496646793505183, 0.0
-0.6119062857621476, -0.625405029139311, 0.0
-0.6037832390352598, -0.6206330308122275, 0.0
-0.659083075959429, -0.6082258005438184, 0.0
-0.6690782218509791, -0.6244008593181558, 0.0
-0.6168772989309355, -0.5753733507256567, 0.0
-0.6089183659373509, -0.5862284334611622, 0.0
-0.6231121908997134, -0.5446072234375647, 0.0
-0.6241005034086937, -0.5499850252048505, 0.0
-0.6602840554561842, -0.570940548660219, 0.0
-0.6752890640598419, -0.5415390890213707, 0.0
-0.6745554788475308, -0.5288464086427564, 0.0
-0.6061097435311846, -0.510932621125757, 0.0
-0.5976560546324492, -0.49547869805115835, 0.0
-0.6733335886449754, -0.49828980505153414, 0.0
-0.6623204680574255, -0.4795766075259291, 0.0
-0.6110884429483594, -0.46002106204856447, 0.0
-0.6127806136671784, -0.45636713810029694, 0.0
-0.6068317676784718, -0.423694702453166, 0.0
-0.6756568432819406, -0.4652195745277228, 0.0
-0.6771873118218079, -0.45014596167451143, 0.0
-0.6451881171489763, -0.39451904815176564, 0.0
-0.6765127176213747, -0.3989832880773937, 0.0
-0.6057678478556761, -0.36517828652155765, 0.0
-0.6057913133305596, -0.3663970496811077, 0.0
-0.6578356228279755, -0.3536005829463863, 0.0
-0.6616391492147087, -0.35800465643965196, 0.0
-0.6189671669824133, -0.34092712751320775, 0.0
-0.5988150824272676, -0.290446568734616, 0.0
-0.6203925734118706, -0.295143713563242, 0.0
-0.6707785553172362, -0.33844806798113036, 0.0
-0.6777504559179379, -0.317630774553756, 0.0
-0.6465592886555755, -0.2710956574520776, 0.0
-0.6524282013719913, -0.2748975195576089, 0.0
-0.6770706295569882, -0.2658103163167492, 0.00016514748744789182
-0.6107325572274951, -0.28587540710603376, 0.014212570153176785
-0.6230146593181805, -0.27926623318882426, 0.014212570153176785
-0.6549024011817559, -0.3052488286297601, 0.014212570153176785
-0.6528017050853976, -0.2969298233805367, 0.014212570153176785
-0.6025337603648466, -0.32300910464773896, 0.014212570153176785
-0.6095256941914708, -0.3320000137768843, 0.014212570153176785
-0.6688946049406013, -0.3220382128313019, 0.014212570153176783
-0.6276680242589499, -0.36010572039696037, 0.014212570153176786
-0.6058341280217441, -0.3749194068112862, 0.014212570153176786
-0.6677011133735377, -0.36931036151327196, 0.014212570153176785
-0.6547446067250333, -0.39024642238886, 0.014212570153176785
-0.6104074703736999, -0.39120132320172607, 0.014212570153176785
-0.6229554293172831, -0.3987060136009656, 0.014212570153176785
-0.6734058368430546, -0.40961144621202317, 0.014212570153176786
-0.6654759794205862, -0.4109107628374159, 0.014212570153176785
-0.6100134830045971, -0.4550603886131933, 0.014212570153176785
-0.6543861639713695, -0.4576948559632686, 0.014212570153176783
-0.6500135811899331, -0.4673271895051145, 0.014212570153176785
-0.6014410712112983, -0.4935519948466274, 0.014212570153176786
-0.6166705235678489, -0.47706363521086603, 0.014212570153176785
-0.6484646633520956, -0.5040201958597093, 0.014212570153176786
-0.6676545999883836, -0.49995626839609464, 0.014212570153176785
-0.6229939091880488, -0.5230492595489018, 0.014212570153176785
-0.6155500424787765, -0.5345934156614975, 0.014212570153176785
-0.6059410056512389, -0.5840931950176325, 0.014212570153176785
-0.6719743957725739, -0.530590791201793, 0.014212570153176785
-0.6403245299740606, -0.5536293796067158, 0.014212570153176785
-0.6070440449589327, -0.625107111003694, 0.014212570153176785
-0.608559318047471, -0.6133522525721964, 0.014212570153176783
-0.6707571690811491, -0.5750321749810344, 0.014212570153176786
-0.6422294027934311, -0.5937347885603632, 0.014212570153176785
-0.6031191274633713, -0.6693959332088998, 0.014212570153176785
-0.6075138622330278, -0.6475741374761339, 0.014212570153176785
-0.6608170351668193, -0.6249973160744341, 0.014212570153176786
-0.6119602752028485, -0.6993920353293753, 0.014212570153176785
-0.6151979355502709, -0.6969534782093848, 0.014212570153176785
-0.675244608032395, -0.6601321022214852, 0.014212570153176785
-0.6581688234243205, -0.6695806205389603, 0.014212570153176783
-0.5988985496904018, -0.739354985314588, 0.014212570153176785
-0.6050983308375293, -0.7349225548393215, 0.014212570153176785
-0.6719035810769745, -0.7004804153686914, 0.014212570153176785
-0.6413468352511726, -0.7190940768901718, 0.014212570153176785
-0.6760683109008797, -0.7600185372661922, 0.014212570153176785
-0.643760885524515, -0.7592460714042306, 0.014212570153176785
-0.5917139135488827, -0.762452244758606, 0.009180984015867418
-0.5863436689210407, -0.7583742191356262, 0.0
-0.5650112852092168, -0.7505825119359799, 0.0
-0.6270201822262653, -0.7223284383771433, 0.0
-0.6212375476154928, -0.7282125419290837, 0.0
-0.5747753539611868, -0.7175585960679154, 0.0
-0.5909414831523682, -0.6775355311632111, 0.0
-0.5714844942806072, -0.6758606594875954, 0.0
-0.6099220383499477, -0.6834430069387875, 0.0
-0.6328816276708696, -0.7113587787584941, 0.0
-0.6353646658809504, -0.6416228630414464, 0.0
-0.6170821008016305, -0.6420123938783212, 0.0
-0.5621999449887263, -0.6327799611990479, 0.0
-0.5767852976216326, -0.618104525197072, 0.0
-0.5716864851685338, -0.5957645096967472, 0.0
-0.6307359522781892, -0.6063573524237138, 0.0
-0.6199884191309407, -0.6181803642161918, 0.0
-0.5585118663403552, -0.5232287678641903, 0.0
-0.5773731723767064, -0.543355441168977, 0.0
-0.6114960430070858, -0.5656610424936417, 0.0
-0.6044524027487742, -0.5612687234061798, 0.0
-0.5645950904001265, -0.4831050410724314, 0.0
-0.5861462076155679, -0.5037021279144057, 0.0
-0.6284710940327987, -0.5239344264085164, 0.0
-0.568826840215879, -0.4475292357987606, 0.0
-0.5789344964441014, -0.46998018175578415, 0.0
-0.6310584113720962, -0.49446266259957505, 0.0
-0.624721265063299, -0.4998632574250556, 0.0
-0.576819187674212, -0.41529520643601575, 0.0
-0.5563994590797705, -0.42388383114864364, 0.0
-0.6369826261100092, -0.4686682656106618, 0.0
-0.6280214535024935, -0.4493167745086565, 0.0
-0.5613219635279203, -0.3620265986978256, 0.0
-0.6312053189560228, -0.39356667220143476, 0.0
-0.6189559243566932, -0.3986011630951846, 0.0
-0.5601797032365454, -0.3402705675137778, 0.0
-0.588506693507467, -0.3461993494993718, 0.0
-0.629290452740342, -0.3516607343882513, 0.0
-0.626566044803534, -0.35969714630339966, 0.0
-0.5810930852619505, -0.2941823694068567, 0.0
-0.587771887439157, -0.29995790144709755, 0.0
-0.6231748093397682, -0.32796205037882703, 0.0
-0.5609451447042673, -0.2664072776019465, 6.228461538429326e-05
-0.6306835491747637, -0.2987466843078529, 0.0
-0.6254813282923383, -0.2654593884944916, 0.011901028819055998
-0.5703769588409793, -0.2654593884944916, 0.0009746341847114762
-0.5832434027071286, -0.27136243289124085, 0.014212570153176786
-0.5639877386017219, -0.2982715972312284, 0.014212570153176785
-0.6019162781192803, -0.30380158262009116, 0.014212570153176783
-0.5730109753676195, -0.32769658026632414, 0.014212570153176785
-0.5665398754038561, -0.3388476200213796, 0.014212570153176785
-0.636511598304587, -0.3154748881766844, 0.014212570153176785
-0.6180399026655518, -0.3437843588790961, 0.014212570153176785
-0.565978795048731, -0.3743998084987229, 0.014212570153176785
-0.5630725360333282, -0.35184609583045834, 0.014212570153176785
-0.6141264261025229, -0.38453668161506827, 0.014212570153176785
-0.6149821967667747, -0.3866705507103352, 0.014212570153176785
-0.5640468003754417, -0.4208945224153463, 0.014212570153176785
-0.5793548071291769, -0.44898176032513926, 0.014212570153176785
-0.5788101008295803, -0.4350670457253538, 0.014212570153176785
-0.623480332360002, -0.42222264468265225, 0.014212570153176785
-0.6325927019909228, -0.41037347697724247, 0.014212570153176785
-0.5703721303005673, -0.496380077870039, 0.014212570153176783
-0.557054020142895, -0.47995200386088643, 0.014212570153176785
-0.6209899931800585, -0.4589056923208319, 0.014212570153176786
-0.6124868632742447, -0.46933905004225696, 0.014212570153176783
-0.6202612239949008, -0.5110302581833281, 0.014212570153176785
-0.5800648386660395, -0.5268993417274997, 0.014212570153176785
-0.5666391732898319, -0.5259058381307412, 0.014212570153176785
-0.5674137387012886, -0.5628319836708648, 0.014212570153176785
-0.5794572289993025, -0.5695062856601447, 0.014212570153176785
-0.6341164256346009, -0.5316034112145338, 0.014212570153176785
-0.6224251710782023, -0.5436202256128264, 0.014212570153176785
-0.6381823821155972, -0.5880470830242048, 0.014212570153176785
-0.6157276303516113, -0.5871898129638338, 0.014212570153176785
-0.5807785473885752, -0.6081066578695443, 0.014212570153176783
-0.6113840050984775, -0.629401775892942, 0.014212570153176786
-0.6309740983441262, -0.6238426390799972, 0.014212570153176785
-0.5678508030958112, -0.6453152027208277, 0.014212570153176785
-0.5645786468565559, -0.6516213949279555, 0.014212570153176785
-0.6246677910933096, -0.661278069697562, 0.014212570153176785
-0.6154312058247935, -0.6732443932519989, 0.014212570153176783
-0.5630312334494296, -0.6969772556186005, 0.014212570153176785
-0.5830226798489326, -0.6908264645861825, 0.014212570153176786
-0.6041968818754486, -0.7183916298173045, 0.014212570153176785
-0.5562877894117468, -0.7541246889599129, 0.014212570153176785
-0.5638205222269681, -0.7277534019791572, 0.014212570153176785
-0.6078851773581853, -0.754924413438607, 0.014212570153176785
-0.6292992655819549, -0.7460820106461061, 0.014212570153176785
-0.590587760778112, -0.762452244758606, 0.002424174449387852
-0.5215649986140981, -0.7458877560755462, 0.0
-0.5251346248192932, -0.7435850587185011, 0.0
-0.584033261584877, -0.7379159784213624, 0.0
-0.5938742626297091, -0.7386331048306229, 0.0
-0.527312780428757, -0.7077442779337012, 0.0
-0.5296364050833902, -0.7031770190430943, 0.0
-0.5651756472857506, -0.6792460499378501, 0.0
-0.5774637821121802, -0.6784830982026531, 0.0
-0.546717811951865, -0.6690204519549899, 0.0
-0.517463810259126, -0.6341161114774482, 0.0
-0.5184484563079451, -0.6263531165309817, 0.0
-0.5827863897950262, -0.6448504352325946, 0.0
-0.5879186051649968, -0.6494046891824404, 0.0
-0.5252036850080253, -0.5666585384841921, 0.0
-0.5163562157538011, -0.5682245245052256, 0.0
-0.5885552424144056, -0.6069386276189379, 0.0
-0.5698877262415047, -0.600390660918847, 0.0
-0.5422308243384067, -0.5525886245470197, 0.0
-0.5680148000436952, -0.5634806309957426, 0.0
-0.561219348335894, -0.555817706328455, 0.0
-0.591403667214017, -0.5490154239678607, 0.0
-0.5956249656569221, -0.547518149613166, 0.0
-0.5263503377718481, -0.4845397799544065, 0.0
-0.5368977879161582, -0.5027869956433091, 0.0
-0.5438596632863553, -0.46971324548023424, 0.0
-0.5317042352856053, -0.453776259924807, 0.0
-0.5916499244476026, -0.48308616170861046, 0.0
-0.5208512441868682, -0.4069958304998155, 0.0
-0.5320360386875962, -0.4127122902364292, 0.0
-0.5621155952945489, -0.4377981802937597, 0.0
-0.5942239558790504, -0.4544606105929486, 0.0
-0.591616689972935, -0.41143326245391293, 0.0
-0.5874162299501527, -0.42022072855877574, 0.0
-0.5239073087156918, -0.384247676768961, 0.0
-0.5211578120577683, -0.3878289447412806, 0.0
-0.5710221484149903, -0.35912102474079494, 0.0
-0.5450485738083787, -0.3490878950157011, 0.0
-0.5509164144852977, -0.34719446368588736, 0.0
-0.5942604182940727, -0.323969163272829, 0.0
-0.5823086657840177, -0.3136370953461501, 0.0
-0.5241589778879407, -0.29917301320036005, 0.0
-0.5382974746711624, -0.291147034942756, 0.0
-0.5716224358236297, -0.2798682845716528, 0.0
-0.5956587790429992, -0.306449498007566, 0.0
-0.5254872383851821, -0.2656088146554657, 0.013975986601087318
-0.5332001430400226, -0.2817568749659989, 0.014212570153176785
-0.5282328524678219, -0.27834582747581393, 0.014212570153176785
-0.5184429151523973, -0.3162842141596154, 0.014212570153176785
-0.5181888555960887, -0.3256943918464434, 0.014212570153176785
-0.5824020003493494, -0.3062944065861143, 0.014212570153176785
-0.5940603052266423, -0.2908699620222769, 0.014212570153176785
-0.5483147839025311, -0.3505878339789685, 0.014212570153176785
-0.5851798919759754, -0.3260229712051343, 0.014212570153176783
-0.5722943865755796, -0.33420090079933895, 0.014212570153176786
-0.5889174800440634, -0.3894003086872534, 0.014212570153176785
-0.5787859339700213, -0.3728165393402117, 0.014212570153176783
-0.5197569473115463, -0.4234962565893981, 0.014212570153176786
-0.5165687600456343, -0.39981993061995547, 0.014212570153176785
-0.5305347566695446, -0.44379615194706096, 0.014212570153176785
-0.5154167212673408, -0.4573402573186256, 0.014212570153176785
-0.5774661274874707, -0.42195735793584754, 0.014212570153176785
-0.5366337854430688, -0.4915055730894035, 0.014212570153176783
-0.5246118901106089, -0.49139376755294817, 0.014212570153176785
-0.5888467382933575, -0.4543347494106615, 0.014212570153176785
-0.5950290427794782, -0.4599130214295397, 0.014212570153176785
-0.5176398797062627, -0.5319114274499537, 0.014212570153176785
-0.5193627907175646, -0.5246045415417357, 0.014212570153176785
-0.5963470303871005, -0.5065271996649592, 0.014212570153176785
-0.5962669359621062, -0.5064088015485653, 0.014212570153176785
-0.5221658333934431, -0.5612720962818942, 0.014212570153176785
-0.5896145538303963, -0.525986917628473, 0.014212570153176785
-0.5922051030229715, -0.5231575753917614, 0.014212570153176785
-0.5876658032875011, -0.5704529850934251, 0.014212570153176785
-0.5786108082170307, -0.5809392460722151, 0.014212570153176785
-0.5193439897523202, -0.6302621023199528, 0.014212570153176785
-0.5221774385535836, -0.6185704527035509, 0.014212570153176785
-0.5801167774008996, -0.6280372314667351, 0.014212570153176785
-0.5831026555914186, -0.6236919141489168, 0.014212570153176785
-0.5232624984535581, -0.6432063609181146, 0.014212570153176785
-0.5787216165710491, -0.663195258672177, 0.014212570153176783
-0.5806366785068924, -0.6776185032219129, 0.014212570153176785
-0.5240854035163718, -0.7050593597296958, 0.014212570153176785
-0.5208567473858838, -0.6872986079318542, 0.014212570153176785
-0.5960608910206114, -0.7158769521537974, 0.014212570153176786
-0.5970868689334411, -0.6937207144159179, 0.014212570153176785
-0.5297293122525393, -0.7427041086977527, 0.014212570153176786
-0.522534315894803, -0.7466665285726372, 0.014212570153176785
-0.5931859796510869, -0.724135801256992, 0.014212570153176785
-0.528552728780969, -0.761298027099292, 0.014162817327089313
-0.49750596818867965, -0.7624522447586061, 0.009004368470273527
-0.4882547588627576, -0.758037297510072, 0.0
-0.4748411942785715, -0.7496582281743969, 0.0
-0.4849468908703442, -0.6958185871242581, 0.0
-0.47811460341394896, -0.6941194251316065, 0.0
-0.5336522214072871, -0.723554432059826, 0.0
-0.49107566141315373, -0.6765628382148468, 0.0
-0.4762443444866152, -0.6499086265681997, 0.0
-0.5489730811535655, -0.6868345959944668, 0.0
-0.549716663742338, -0.6894379215604136, 0.0
-0.4740360056980923, -0.6326407657905989, 0.0
-0.494183344188036, -0.6304451615544296, 0.0
-0.5420128180480612, -0.6523404077195685, 0.0
-0.5515132617224583, -0.6462016366455399, 0.0
-0.49174735362065547, -0.5871373772405092, 0.0
-0.5501559908372448, -0.6308434439919446, 0.0
-0.5440871379902767, -0.61768376232459, 0.0
-0.49927638407534275, -0.5546184548082815, 0.0
-0.5109344163088092, -0.5516868246010549, 0.0
-0.5401288606201046, -0.5573420688734027, 0.0
-0.5486624148759711, -0.5607319687393663, 0.0
-0.4947075972736162, -0.5082283575338311, 0.0
-0.4832226182759178, -0.4912703714655152, 0.0
-0.5365223395921795, -0.5352842409563684, 0.0
-0.5455661886956578, -0.503266586130881, 0.0
-0.5340136921060741, -0.48909466502967713, 0.0
-0.4984926293691288, -0.4648249746648341, 0.0
-0.4912148157045517, -0.472631927579287, 0.0
-0.5425830384620522, -0.4441991071113727, 0.0
-0.5298789270261649, -0.44531513104072007, 0.0
-0.5025317047509517, -0.42166969185447223, 0.0
-0.49275810249155927, -0.4287309083410241, 0.0
-0.5539564918785381, -0.4243324135532328, 0.0
-0.5002978753476439, -0.3886530794855757, 0.0
-0.4815378631731622, -0.35965465284332343, 0.0
-0.5391264373222042, -0.35934634196451953, 0.0
-0.5486002311361398, -0.36516689709127154, 0.0
-0.48797934438955826, -0.3464700752607074, 0.0
-0.4972992148765129, -0.3473685641126195, 0.0
-0.5192171802009842, -0.3118262336443825, 0.0
-0.5320731413900754, -0.3219324764962565, 0.0
-0.5081482582130982, -0.3044017042615038, 0.0
-0.5456782218076819, -0.2967012776345553, 0.0
-0.5462574550415118, -0.2770457491940145, 0.0
-0.5316512670121607, -0.2654593884944916, 0.012882818948075688
-0.4864459207811052, -0.2654593884944916, 0.0029096249781101636
-0.49031878709754284, -0.27205263237011434, 0.014212570153176785
-0.5271051415443804, -0.30777330647698814, 0.014212570153176785
-0.5475457545925614, -0.3078478905729395, 0.014212570153176785
-0.48983249213104085, -0.31402063491611143, 0.014212570153176785
-0.4859311844331895, -0.3369169446505409, 0.014212570153176785
-0.5519334747471134, -0.34050609905580353, 0.014212570153176785
-0.5468753580586493, -0.32795334084494604, 0.014212570153176785
-0.4848834882673561, -0.3712543198000605, 0.014212570153176786
-0.5012703386064297, -0.3562338713599837, 0.014212570153176785
-0.525785102831958, -0.3879758173058825, 0.014212570153176785
-0.4943103593109527, -0.3945079564230394, 0.014212570153176785
-0.49412652548992964, -0.4003772924576682, 0.014212570153176786
-0.5235719702603321, -0.4314342595961615, 0.014212570153176785
-0.5404477516444198, -0.41511049634089564, 0.014212570153176785
-0.4944254600514452, -0.45106982920068495, 0.014212570153176785
-0.4757609324478441, -0.4490731856138408, 0.014212570153176783
-0.48535274143928114, -0.4855443987594795, 0.014212570153176785
-0.49120267269104373, -0.49198074842611483, 0.014212570153176783
-0.5381450778040803, -0.4720642839997977, 0.014212570153176785
-0.49477707248381386, -0.5208204734492806, 0.014212570153176785
-0.47624897378136766, -0.5140282024874095, 0.014212570153176785
-0.5172866789454931, -0.5127684549886351, 0.014212570153176785
-0.5404911667966167, -0.5035451926751842, 0.014212570153176785
-0.4831967469161861, -0.5710688637025837, 0.014212570153176786
-0.4922612806239739, -0.5618609955134067, 0.014212570153176785
-0.5487262761943055, -0.5486219307157574, 0.014212570153176785
-0.5471285390275646, -0.5400460509999889, 0.014212570153176785
-0.5466237028291043, -0.5858707981999498, 0.014212570153176785
-0.4904907768914294, -0.6122613143465788, 0.014212570153176783
-0.486669137348453, -0.6234923282620596, 0.014212570153176783
-0.5546872570230916, -0.6041633062618037, 0.014212570153176785
-0.5335762660919682, -0.6322659365313282, 0.014212570153176785
-0.49860934059625683, -0.6493166629615976, 0.014212570153176785
-0.5065876710249709, -0.6450952456801302, 0.014212570153176786
-0.536497146226506, -0.6697169870304245, 0.014212570153176783
-0.5503744611005432, -0.6634173712053901, 0.014212570153176785
-0.5059553221808084, -0.6823394641815803, 0.014212570153176785
-0.5432922679832781, -0.6981832173181676, 0.014212570153176785
-0.5389289343562629, -0.7082223316317089, 0.014212570153176785
-0.47695468244323924, -0.7251361757996776, 0.014212570153176785
-0.48443842031106166, -0.7401207879826572, 0.014212570153176785
-0.5195860062690932, -0.7563876385367619, 0.014212570153176785
-0.5460662444239641, -0.7317017633869399, 0.014212570153176785
-0.48806510065363984, -0.762452244758606, 0.002653085142033899
-0.4382748854566486, -0.733784634836449, 0.0
-0.4420839635798682, -0.743822697496884, 0.0
-0.4628990994858311, -0.7156433041380057, 0.0
-0.43818928172033517, -0.7055530444734281, 0.0
-0.5068143811667581, -0.7433327274271821, 0.0
-0.4787937412779052, -0.7231170093472511, 0.0
-0.5144650946619519, -0.7175355548301474, 0.0
-0.49968009897026394, -0.6785579695803985, 0.0
-0.4364647853111778, -0.6782466354440816, 0.0
-0.4999623974653629, -0.6581330393405914, 0.0
-0.4947246308591984, -0.6422885792721061, 0.0
-0.4414204851163809, -0.6163501782011915, 0.0
-0.4645809867105559, -0.6315992990910542, 0.0
-0.4958587455868406, -0.5997097599391199, 0.0
-0.49662232493755964, -0.6063580349294718, 0.0
-0.4378808350755427, -0.5609987386838978, 0.0
-0.4596395185418979, -0.5939299395079783, 0.0
-0.5135321154148033, -0.568475603995535, 0.0
-0.43474390951679076, -0.5337636642165691, 0.0
-0.4509252704840427, -0.5498839001374646, 0.0
-0.43731741215810294, -0.49577345389346206, 0.0
-0.4358277729320561, -0.4825134090988755, 0.0
-0.5089914092136207, -0.514856596291422, 0.0
-0.49848476846799494, -0.5346112620836072, 0.0
-0.4391877115011912, -0.4705291008651363, 0.0
-0.4415584739573688, -0.44582081468911433, 0.0
-0.48581446004588386, -0.48320064277196395, 0.0
-0.44719628850700516, -0.4130540868292898, 0.0
-0.44429008748661003, -0.4259397351491164, 0.0
-0.510336369124579, -0.4553253750479471, 0.0
-0.5130733142599255, -0.4417750765148739, 0.0
-0.4607477340719225, -0.38543935518484584, 0.0
-0.46220434771161567, -0.3863560310812071, 0.0
-0.5116761177760715, -0.4141264177117159, 0.0
-0.508668422251572, -0.3966467915735427, 0.0
-0.4511715946559006, -0.3275528152569072, 0.0
-0.5057182019802342, -0.3637283362750665, 0.0
-0.49582775066507634, -0.35711360338054343, 0.0
-0.4421903264914606, -0.2990898875404676, 0.0
-0.4412871428621772, -0.2886544409987933, 0.0
-0.5080738915950058, -0.32342725161089547, 0.0
-0.5080170933072133, -0.33823282934039967, 0.0
-0.4771065802068722, -0.27011104881869413, 0.0
-0.48904270723882404, -0.27635716796978366, 0.0
-0.4430255387347385, -0.2654593884944916, 0.0007215673111253569
-0.4429038335925017, -0.28623789215591244, 0.014212570153176785
-0.45677698340401407, -0.26947634698266076, 0.014212570153176785
-0.4435118348921112, -0.3216753732898323, 0.014212570153176785
-0.43764523824232665, -0.33653123879648766, 0.014212570153176785
-0.4879148289255625, -0.3039539155172417, 0.014212570153176785
-0.5136992970519729, -0.30401828687868626, 0.014212570153176786
-0.5097663993842143, -0.3355198605376736, 0.014212570153176785
-0.4333132535278422, -0.35193965722608544, 0.014212570153176785
-0.43920583781359845, -0.3617993333991202, 0.014212570153176785
-0.5134485691573056, -0.37673733497154865, 0.014212570153176785
-0.508878363188757, -0.36554828477625145, 0.014212570153176783
-0.45487707779689424, -0.3955161499267466, 0.014212570153176785
-0.4332118087100339, -0.4081253363217847, 0.014212570153176785
-0.5049650053897198, -0.4080752411497022, 0.014212570153176786
-0.511149674165438, -0.40924817733806795, 0.014212570153176785
-0.4538724343366225, -0.4495590566084581, 0.014212570153176783
-0.5142332828058347, -0.46598908833141156, 0.014212570153176785
-0.5099664465546339, -0.4373970771261071, 0.014212570153176786
-0.44027003883326377, -0.4864691778330664, 0.014212570153176785
-0.4467089352174174, -0.48018164088957194, 0.014212570153176785
-0.4416784831188546, -0.5300312515009666, 0.014212570153176785
-0.4378517780777059, -0.5353716251621767, 0.014212570153176786
-0.4995310147821411, -0.5008468555440977, 0.014212570153176785
-0.5061284589428424, -0.49347955040625124, 0.014212570153176785
-0.44167553499662854, -0.5570479682000347, 0.014212570153176785
-0.5125636242103847, -0.5514107899294813, 0.014212570153176785
-0.4837912656509503, -0.548972003526484, 0.014212570153176785
-0.4437325956973959, -0.6118873369225181, 0.014212570153176785
-0.43967073976859256, -0.597142000506544, 0.014212570153176785
-0.5142769240252286, -0.5950799938054143, 0.014212570153176785
-0.5124969035464129, -0.5681922881244089, 0.014212570153176785
-0.43524926476906123, -0.6429262389369172, 0.014212570153176783
-0.44300945841033706, -0.6574191758235028, 0.014212570153176785
-0.5008794746324872, -0.628180396671433, 0.014212570153176785
-0.45614990270466726, -0.6821563894583987, 0.014212570153176785
-0.44832898943343313, -0.6786553868724146, 0.014212570153176785
-0.48899913029988873, -0.6660746358606038, 0.014212570153176785
-0.49508231590061247, -0.6604004861036687, 0.014212570153176785
-0.43731773817876995, -0.7302012241418012, 0.014212570153176785
-0.4356839395793142, -0.7361588394191518, 0.014212570153176785
-0.4759936214981102, -0.7178127668187679, 0.014212570153176783
-0.5101088562804897, -0.7104456147263483, 0.014212570153176785
-0.5124291076626812, -0.7492318563895145, 0.014212570153176785
-0.45784822486271604, -0.7621926415522198, 0.014015016887912261
-0.4278892258402449, -0.762452244758606, 0.013057516865626983
-0.3995481495702716, -0.7447370743481336, 0.0
-0.3993196902018145, -0.7452549949415994, 0.0
-0.45081737393094035, -0.7284471866317728, 0.0
-0.41821644147850595, -0.7107143964713782, 0.0
-0.3993378262944764, -0.6887389557918674, 0.0
-0.44339645568173597, -0.6882770715484428, 0.0
-0.4539199010198173, -0.6845540222631159, 0.0
-0.40008070158433484, -0.6770183458614569, 0.0
-0.42716927032581703, -0.6779032760781406, 0.0
-0.46827345066180226, -0.665656091271756, 0.0
-0.4533799510825667, -0.6576625718808242, 0.0
-0.39287819204264474, -0.6138547070813167, 0.0
-0.473192804905623, -0.6221868856120699, 0.0
-0.4609050846671619, -0.6221471369203554, 0.0
-0.3952575450361152, -0.5923324201878524, 0.0
-0.41212993967893957, -0.5785743437964431, 0.0
-0.4264497716650204, -0.5498803591170891, 0.0
-0.40015015566204964, -0.533707862449335, 0.0
-0.44292956567075437, -0.5618194013242196, 0.0
-0.46040515941694693, -0.5784196668614715, 0.0
-0.40916859768477754, -0.5078798209865314, 0.0
-0.4555973242741583, -0.526729389461779, 0.0
-0.46631665716259296, -0.513996083558428, 0.0
-0.39860718472024, -0.4633484579181859, 0.0
-0.3930460504078781, -0.4585235777421238, 0.0
-0.4570863286708502, -0.4738337414616983, 0.0
-0.4562093112138095, -0.4920036069911922, 0.0
-0.3919602649969559, -0.39397793920816515, 0.0
-0.40342534919965023, -0.4258421634420649, 0.0
-0.47325619279066744, -0.46114064864839305, 0.0
-0.3980435419081788, -0.36354263210570253, 0.0
-0.4022600069117092, -0.382754838684708, 0.0
-0.46225053355149526, -0.3939866614013086, 0.0
-0.46065883350392367, -0.39676625068745497, 0.0
-0.41059423470536405, -0.3490736675601157, 0.0
-0.3955613337766273, -0.32883941567763264, 0.0
-0.45634008666108455, -0.3682587282956237, 0.0
-0.4539703448211357, -0.36854423915570134, 0.0
-0.41872035725505163, -0.30673549403549405, 0.0
-0.4647759112432775, -0.33641486976693363, 0.0
-0.459044511344751, -0.3111021615700598, 0.0
-0.4716406349031772, -0.28571383371805387, 0.0
-0.458478458203156, -0.2874003844187832, 0.0
-0.44934470914202235, -0.2654593884944916, 0.010106476725353107
-0.42477804028787497, -0.2654593884944916, 0.01033834469602414
-0.4232869058307263, -0.2686506143227472, 0.014212570153176785
-0.4524375506843728, -0.2916676195922253, 0.014212570153176786
-0.4596262019716686, -0.3012377271131731, 0.014212570153176785
-0.40194242095234745, -0.3332092549980093, 0.014212570153176785
-0.3959921304452292, -0.31425035022967635, 0.014212570153176785
-0.46475558855421023, -0.33786162938599984, 0.014212570153176785
-0.46570432048683924, -0.3364144868947838, 0.014212570153176785
-0.4162892072320863, -0.3594755948366506, 0.014212570153176783
-0.3924995351107052, -0.38795638313665476, 0.014212570153176785
-0.4628678175426488, -0.38961321845875324, 0.014212570153176785
-0.40424574634078425, -0.4066272888831269, 0.014212570153176783
-0.4049433491809254, -0.41031991531035344, 0.014212570153176785
-0.47054578384377665, -0.4128103813933386, 0.014212570153176785
-0.4541611034030406, -0.41765544500749535, 0.014212570153176785
-0.39793161601078086, -0.466489047471608, 0.014212570153176785
-0.4183717115172088, -0.4450060347113583, 0.014212570153176785
-0.4569037688197535, -0.46375564756562804, 0.014212570153176785
-0.4674296289041167, -0.44219122578228426, 0.014212570153176785
-0.4004020218548881, -0.4769308084720806, 0.014212570153176785
-0.47149356982053175, -0.49897254008475656, 0.014212570153176785
-0.4643613112656178, -0.4929698477893065, 0.014212570153176785
-0.40869068074742515, -0.5324966535697879, 0.014212570153176785
-0.3927472165942964, -0.5151757269734943, 0.014212570153176785
-0.4115789170227981, -0.5752035217795999, 0.014212570153176785
-0.4220921852273587, -0.5640864626727529, 0.014212570153176785
-0.4692873153635968, -0.5410944690328269, 0.014212570153176785
-0.46799456974998843, -0.5342950997942264, 0.014212570153176785
-0.3994698729007309, -0.5975035503633148, 0.014212570153176785
-0.45094989622229364, -0.5840493231686434, 0.014212570153176785
-0.4681538695274261, -0.5633909917331831, 0.014212570153176785
-0.4096777505801331, -0.6385983529778809, 0.014212570153176785
-0.41260941646416754, -0.6452472648061289, 0.014212570153176785
-0.46602170762507705, -0.6068551873660365, 0.014212570153176786
-0.47311582239513705, -0.6257804423485728, 0.014212570153176785
-0.4008786183620001, -0.6807135998782663, 0.014212570153176785
-0.39433643316368916, -0.6898165296483704, 0.014212570153176785
-0.4536216795341813, -0.6726811189001136, 0.014212570153176785
-0.40510881207540067, -0.7336105484070393, 0.014212570153176785
-0.4059872392452733, -0.7355375585069583, 0.014212570153176785
-0.4572691646099534, -0.7101899084469989, 0.014212570153176785
-0.45773808348628614, -0.6980958992063819, 0.014212570153176783
-0.4539862607120373, -0.7516186271105645, 0.014212570153176785
-0.46761031069738335, -0.7308425879462132, 0.014212570153176786
-0.3994559785099305, -0.762452244758606, 0.004369045109205012
-0.35952358030112874, -0.7354415206499465, 0.0
-0.35498440662324254, -0.7455398390757612, 0.0
-0.42513984335937716, -0.7354569103754369, 0.0
-0.42007053412336687, -0.7411290924182454, 0.0
-0.37339217077711157, -0.7100964020440586, 0.0
-0.3599284764453146, -0.7147254112449375, 0.0
-0.42618672956961534, -0.6945636724585926, 0.0
-0.4033182651664375, -0.6796880637751568, 0.0
-0.35319334470888775, -0.6700960733193183, 0.0
-0.37446209418352483, -0.6331137083467842, 0.0
-0.36036798338807685, -0.6071062571895001, 0.0
-0.41478316338816357, -0.6400075574106214, 0.0
-0.4232720155167125, -0.6657942086085185, 0.0
-0.3599459303031945, -0.5748317480451666, 0.0
-0.3799936103426309, -0.5909788196101942, 0.0
-0.4156368473041482, -0.601247198940237, 0.0
-0.3932470384853738, -0.5975060015758605, 0.0
-0.3617903600812986, -0.5398479363818705, 0.0
-0.40989527307037227, -0.5597900914634153, 0.0
-0.42878684498802816, -0.5741197117439668, 0.0
-0.3565092643976338, -0.4882362330665973, 0.0
-0.3761496025494965, -0.5084687177576828, 0.0
-0.40658574204442943, -0.5167081280598289, 0.0
-0.43069024140802803, -0.5278449697390405, 0.0
-0.4102269737210168, -0.4751579042505375, 0.0
-0.4045039838839416, -0.4842010525433113, 0.0
-0.371317788713572, -0.4699842757670325, 0.0
-0.42953250924552167, -0.45803639280769126, 0.0
-0.41636344633218875, -0.4555065679671462, 0.0
-0.3840942802708567, -0.4308250359012009, 0.0
-0.3514748802547264, -0.40200353258605537, 0.0
-0.41599008457798947, -0.4074146589630604, 0.0
-0.4192946530661161, -0.41144885539608833, 0.0
-0.36906128556997697, -0.36834205819412585, 0.0
-0.35936532419358747, -0.38807776991198856, 0.0
-0.37650283794638795, -0.334698332004572, 0.0
-0.42293374166528414, -0.36668186532375713, 0.0
-0.40419114156449887, -0.3580276322640198, 0.0
-0.3596516388138037, -0.3076796327839522, 0.0
-0.3646836313904183, -0.29002316711338916, 0.0
-0.4248887675489697, -0.3146491927882472, 0.0
-0.424650121704423, -0.3398494956551816, 0.0
-0.4215712709179108, -0.29571622092494926, 0.0
-0.4114119304399622, -0.2829756263941519, 0.0
-0.38651921643143783, -0.2654593884944916, 0.0017359123824187727
-0.37535667025870195, -0.28170367252270273, 0.014212570153176785
-0.3761118068413794, -0.28171576009283866, 0.014212570153176785
-0.4273967932049461, -0.30605987028556325, 0.014212570153176785
-0.421273036337392, -0.29480909073659795, 0.014212570153176785
-0.3770492354797266, -0.3137981329915778, 0.014212570153176785
-0.4022405608498332, -0.34167626521263017, 0.014212570153176783
-0.4094342321154737, -0.3357675993118328, 0.014212570153176786
-0.3619837078243745, -0.37316382175511986, 0.014212570153176785
-0.37352382294461584, -0.3651263015662389, 0.014212570153176783
-0.413607360883894, -0.37207589473826647, 0.014212570153176783
-0.420222421456948, -0.37485338015143793, 0.014212570153176783
-0.3654850475645527, -0.4121574758662059, 0.014212570153176785
-0.37033905483943014, -0.4111859931027213, 0.014212570153176785
-0.43077069589871125, -0.41992782358028846, 0.014212570153176785
-0.3604644403649949, -0.4428016534555097, 0.014212570153176785
-0.3534820694978815, -0.4483034309948948, 0.014212570153176785
-0.4060806556677892, -0.46767305418103117, 0.014212570153176785
-0.414362135304339, -0.4708131438325049, 0.014212570153176785
-0.3507672303122591, -0.505747895723171, 0.014212570153176786
-0.3644290598045375, -0.49153313633122186, 0.014212570153176785
-0.4174667774137682, -0.4926669882421669, 0.014212570153176785
-0.42888808031881503, -0.5081722146374676, 0.014212570153176785
-0.36906233194799054, -0.5237526091301611, 0.014212570153176785
-0.40186027953636616, -0.5459490236089132, 0.014212570153176785
-0.4153630514011322, -0.5451488403808853, 0.014212570153176785
-0.3602387557389751, -0.5573440772662586, 0.014212570153176785
-0.36029438698919125, -0.5641600725261802, 0.014212570153176785
-0.42913526679243214, -0.5803328253610885, 0.014212570153176785
-0.42957941374604547, -0.5777013937700146, 0.014212570153176785
-0.35326201512546873, -0.6260693167916643, 0.014212570153176785
-0.35598264092816556, -0.6024400362336215, 0.014212570153176785
-0.41174033378848784, -0.6370583615270295, 0.014212570153176785
-0.37863101869723564, -0.6481360771496253, 0.014212570153176785
-0.3796243817990814, -0.6387138050360268, 0.014212570153176786
-0.42835640506519435, -0.6556014999248776, 0.014212570153176785
-0.42925689351351126, -0.6739369526412404, 0.014212570153176785
-0.36679580946306545, -0.6786900648431551, 0.014212570153176785
-0.37178426894196326, -0.6866416018825692, 0.014212570153176785
-0.42528600035224806, -0.7013114732878583, 0.014212570153176786
-0.4149090888878342, -0.7040243868347318, 0.014212570153176786
-0.37889689504218393, -0.7219389130614584, 0.014212570153176783
-0.41721494235984413, -0.7611210174963976, 0.014173582181749874
-0.429231451699723, -0.7461473965402596, 0.014212570153176786
-0.3871547197608869, -0.762452244758606, 0.0015307079222544777
-0.3366898336968183, -0.762452244758606, 0.012055613303496724
-0.32980571929554614, -0.7572674502885874, 0.0
-0.31859685720272773, -0.7362305317491012, 0.0
-0.38009792503989154, -0.738107827919945, 0.0
-0.3321015404375454, -0.71406785261157, 0.0
-0.31288699140889253, -0.719205268524605, 0.0
-0.3619016663769251, -0.6825841894822249, 0.0
-0.3861238351346002, -0.7011572547685603, 0.0
-0.3160235531371129, -0.6710550612224001, 0.0
-0.3201778507690228, -0.6483369808104523, 0.0
-0.36299087421334236, -0.6437418677244755, 0.0
-0.3649160329602489, -0.6446124463281755, 0.0
-0.3385415697444274, -0.6275611980192073, 0.0
-0.39105656021184343, -0.599178962352994, 0.0
-0.38168999623047983, -0.5993175066174176, 0.0
-0.31890329912189097, -0.5933109464922806, 0.0
-0.3114296209539033, -0.5936124589249923, 0.0
-0.36558611967398696, -0.5606635027522862, 0.0
-0.3834807458311312, -0.5688440853499174, 0.0
-0.3259392508710486, -0.5514243356716797, 0.0
-0.33177651643864053, -0.5503227331889181, 0.0
-0.374504207373611, -0.5196732071970105, 0.0
-0.32425244237408496, -0.4965395329500132, 0.0
-0.3231769126675207, -0.4924738716830214, 0.0
-0.34242544524794727, -0.47077499886759244, 0.0
-0.3102496300185161, -0.4351015978602253, 0.0
-0.38294274457374816, -0.47582801113455914, 0.0
-0.38952730852657624, -0.5097037499832248, 0.0
-0.3298900498702335, -0.42593954558777497, 0.0
-0.31550404769241536, -0.4185098582560057, 0.0
-0.3907635585654984, -0.4486488798334327, 0.0
-0.31808448950965207, -0.379504363131442, 0.0
-0.3238894467452666, -0.3717229994379692, 0.0
-0.38633626934971355, -0.4013224271535688, 0.0
-0.3802149584160093, -0.3966818737288772, 0.0
-0.3359170687662836, -0.3395399544374505, 0.0
-0.3256731993034596, -0.3283402384386405, 0.0
-0.38961883360445615, -0.3522763078719886, 0.0
-0.3754662683234771, -0.37108892053327985, 0.0
-0.3275166223607425, -0.3017011860716392, 0.0
-0.38473092578128354, -0.32316905214292, 0.0
-0.38969510428957604, -0.34232088499841057, 0.0
-0.3717948438321073, -0.2721658221474391, 0.0
-0.3884897069551536, -0.2842655886407611, 0.0
-0.3507445851882998, -0.2654593884944916, 0.013042440098419006
-0.3895874447274441, -0.26683008253322904, 0.014175989358031143
-0.3181122957483664, -0.2974356459454073, 0.014212570153176783
-0.39009683504751524, -0.305162441041163, 0.014212570153176785
-0.38927251913299754, -0.3031843344413242, 0.014212570153176785
-0.3168970589137318, -0.31618611939554886, 0.014212570153176785
-0.31571318795433473, -0.3230581944271316, 0.014212570153176785
-0.3717473766682398, -0.3383554264429891, 0.014212570153176785
-0.3558829551039569, -0.3492422944482552, 0.014212570153176785
-0.32632032946375605, -0.36619758367727084, 0.014212570153176785
-0.31130244991209444, -0.35854889224693054, 0.014212570153176785
-0.3133417629623151, -0.4051358856836471, 0.014212570153176785
-0.38178378969552595, -0.35999621257201203, 0.014212570153176785
-0.38618469475007416, -0.38853784195294067, 0.014212570153176785
-0.3794523239892926, -0.4303644552523176, 0.014212570153176786
-0.36830911289978024, -0.42223627083848664, 0.014212570153176785
-0.32219986989364074, -0.44644279680537646, 0.014212570153176785
-0.3407132984653427, -0.43873112861760477, 0.014212570153176785
-0.31077905443705656, -0.49437302890060286, 0.014212570153176785
-0.3151502075574342, -0.4739225002649091, 0.014212570153176785
-0.36203893744739646, -0.4693009938008134, 0.014212570153176785
-0.3101297273121485, -0.5297919529444023, 0.014212570153176785
-0.3282904305567048, -0.5213617830147093, 0.014212570153176785
-0.35819773829551527, -0.5071743373885942, 0.014212570153176785
-0.38337805563610217, -0.5040991853923317, 0.014212570153176785
-0.31250841555977743, -0.5578545437015731, 0.014212570153176785
-0.336661679861496, -0.5656940720151513, 0.014212570153176783
-0.38213621041171236, -0.5357605483976482, 0.014212570153176785
-0.36588196868364115, -0.554103654486162, 0.014212570153176785
-0.3156724936331294, -0.6048373093465766, 0.014212570153176785
-0.36917331681049254, -0.5793353451420519, 0.014212570153176783
-0.3841575938231231, -0.5843031622513607, 0.014212570153176785
-0.3197959009932701, -0.6478278667645844, 0.014212570153176785
-0.3216757143157937, -0.6405200885190401, 0.014212570153176785
-0.37549021904165075, -0.6199416906993508, 0.014212570153176785
-0.3893469645151476, -0.6315682245484195, 0.014212570153176783
-0.31336128875437036, -0.6960605931968994, 0.014212570153176785
-0.3231785968349145, -0.6805483014253979, 0.014212570153176785
-0.37858664864683034, -0.6702274551158813, 0.014212570153176785
-0.3336971143075672, -0.7276095693533293, 0.014212570153176785
-0.32544855874576806, -0.7325648615717446, 0.014212570153176786
-0.37354042164346335, -0.7176807088170389, 0.014212570153176785
-0.3821235752336921, -0.7126009188030582, 0.014212570153176785
-0.39078288438841335, -0.7522967492190199, 0.014212570153176785
-0.38681528037426643, -0.7278500186404279, 0.014212570153176785
-0.3490146120115111, -0.7622400760343921, 0.01399820731164373
-0.28547730165875224, -0.7406508321638495, 0.0
-0.2934025585633926, -0.7456761178465237, 0.0
-0.3426655321336955, -0.7398687434297251, 0.0
-0.32205495446317606, -0.7308618539144736, 0.0
-0.3010652209717032, -0.7181570809784443, 0.0
-0.2857140702339246, -0.7190209918815872, 0.0
-0.33378288033961623, -0.6990583587788092, 0.0
-0.2694884723840085, -0.664770610649717, 0.0
-0.2802960569103497, -0.657558670211028, 0.0
-0.32206780846372995, -0.6427862231730935, 0.0
-0.33872618977309354, -0.6488158947302649, 0.0
-0.3022233539428192, -0.635873586460042, 0.0
-0.29645815928543545, -0.6293514652254342, 0.0
-0.28189271557500595, -0.5882606662836178, 0.0
-0.2688521377499795, -0.5864035561106391, 0.0
-0.3328745594183232, -0.6053404150528298, 0.0
-0.27449625746343265, -0.5437800336391216, 0.0
-0.2702156768557216, -0.5203254322585096, 0.0
-0.32022552341406507, -0.5575232748294989, 0.0
-0.3434885704961899, -0.5771242796972464, 0.0
-0.28450157543952503, -0.4947923245224061, 0.0
-0.2753357068657586, -0.513682925371758, 0.0
-0.3219991821890308, -0.5175795054895416, 0.0
-0.32726275209892053, -0.5155097289675924, 0.0
-0.277883899814494, -0.4667860785837309, 0.0
-0.32515622125849775, -0.4732269750437488, 0.0
-0.3430162768962509, -0.4913080343647439, 0.0
-0.28953115224550013, -0.41783675898822864, 0.0
-0.27584205643064635, -0.41383963367885435, 0.0
-0.34510607744529004, -0.4553246397675048, 0.0
-0.33003321296883215, -0.4337142144295334, 0.0
-0.30345537392263, -0.38524735356433726, 0.0
-0.2761585800987484, -0.369807495281323, 0.0
-0.3466155408158731, -0.42225536280456466, 0.0
-0.27106358218631377, -0.311396078890343, 0.0
-0.28362298710764966, -0.32595474456027296, 0.0
-0.34505137494271104, -0.3799288947443321, 0.0
-0.34394371983029526, -0.3826047630360269, 0.0
-0.34907873865188416, -0.31145454054027466, 0.0
-0.34565533148027333, -0.3409588379733892, 0.0
-0.28269197699780935, -0.2875172980247697, 0.0
-0.26861956072461857, -0.30467829353307246, 0.0
-0.3499888649345781, -0.288834981314929, 0.0
-0.3340085665303637, -0.272771612981131, 0.0
-0.28503549348902985, -0.2654593884944916, 0.0053952291084138635
-0.2929218576003639, -0.2711457582074801, 0.014212570153176785
-0.2788553415754086, -0.2873205711277385, 0.014212570153176785
-0.32511150760191077, -0.2966648731968299, 0.014212570153176785
-0.34468440355373986, -0.294800195141387, 0.014212570153176786
-0.28184252300904916, -0.31318319458380267, 0.014212570153176785
-0.3372054472898047, -0.34422251570421614, 0.014212570153176785
-0.3456724840227748, -0.3206555833971076, 0.014212570153176785
-0.2697937613917495, -0.35442014376648673, 0.014212570153176785
-0.2697850521961417, -0.35851168904943864, 0.014212570153176785
-0.30867253866859923, -0.39141693257284144, 0.014212570153176785
-0.2737900551728807, -0.425148070423181, 0.014212570153176785
-0.344506125378524, -0.3821426888239984, 0.014212570153176785
-0.33769704449357146, -0.3855364446180891, 0.014212570153176785
-0.3267990231526029, -0.4259783607922553, 0.014212570153176785
-0.27663370352119127, -0.44773098227019337, 0.014212570153176785
-0.26889450984237423, -0.4335278463011034, 0.014212570153176785
-0.29653624881525903, -0.4766134317741899, 0.014212570153176785
-0.2806685829795568, -0.48445193084377725, 0.014212570153176785
-0.333343890209871, -0.4553459196098646, 0.014212570153176785
-0.34820133821742494, -0.4462172469693124, 0.014212570153176785
-0.2913100856178008, -0.5305880778051996, 0.014212570153176783
-0.27923779096736306, -0.5432166989439258, 0.014212570153176785
-0.3474282616891995, -0.5103810874744814, 0.014212570153176785
-0.34139146662959796, -0.5365225437801029, 0.014212570153176786
-0.34625819418160364, -0.5387625683805735, 0.014212570153176785
-0.3006917326662605, -0.5590114140184655, 0.014212570153176785
-0.2743804800017609, -0.5792816915908496, 0.014212570153176786
-0.3457099601462063, -0.5714739778545992, 0.014212570153176786
-0.33555663928719387, -0.5723086039588139, 0.014212570153176786
-0.27938223493436964, -0.604184352861163, 0.014212570153176785
-0.27680341386457613, -0.6225277771568962, 0.014212570153176785
-0.27449722831750534, -0.6429540854475778, 0.014212570153176785
-0.3171289295542285, -0.6297458562480477, 0.014212570153176785
-0.3189196235465871, -0.6332564879990255, 0.014212570153176785
-0.3481807505408565, -0.6530969529955986, 0.014212570153176785
-0.34582346890254695, -0.6732826684267312, 0.014212570153176785
-0.2878670870209211, -0.689854943382131, 0.014212570153176786
-0.28549505063224156, -0.6980689498415922, 0.014212570153176785
-0.32520301025249404, -0.7156072703446155, 0.014212570153176785
-0.3326427074977047, -0.6969353887991722, 0.014212570153176785
-0.29748979976538764, -0.7227213316898256, 0.014212570153176783
-0.34640295853555625, -0.758125359012829, 0.014212570153176783
-0.3502901377175444, -0.755152011679396, 0.014212570153176785
-0.2664603888988495, -0.6384621633809973, 0.0028520257510803422
-0.2664603888988495, -0.7093074507459606, 0.008780274359981816
-0.3031288629306872, -0.7037928525881318, 0.0
-0.3047900137458074, -0.6956542055257977, 0.0
-0.7428598542554343, -0.6872017914664599, 0.0
-0.6836157455599081, -0.6744495122699246, 0.0
-0.7088410272718888, -0.6717498586889826, 0.0
-0.7388650726662718, -0.6738678181765454, 0.0
-0.7228872128479108, -0.6470724625983715, 0.0
-0.7634531855583191, -0.6535168918721492, 0.0024906882487115618
-0.7271937311740522, -0.6826226592644732, 0.014212570153176785
-0.7503654223124522, -0.6874175737664002, 0.014212570153176786
-0.6861124451159357, -0.6872918132622402, 0.014212570153176785
-0.7081507698783276, -0.6806164873838688, 0.014212570153176785
-0.7502024293339056, -0.6754422428411009, 0.014212570153176785
-0.7390640946628781, -0.6656404040473201, 0.014212570153176786
-0.28486099442604407, -0.6650292901035174, 0.014212570153176785
-0.2923353320738683, -0.6693172784102579, 0.014212570153176785
-0.2664603888988495, -0.6720269244206478, 0.0012377825410900822
-0.297765683079991, -0.6537429623018274, 0.0
-0.30539723336588653, -0.6530544061271348, 0.0
-0.727236656673387, -0.639283698261341, 0.0
-0.7574466754744978, -0.642550368539881, 0.0
-0.6980411891215107, -0.6352839115313613, 0.0
-0.684546766258724, -0.6344556340257901, 0.0
