0.09775173293836949, 0.62369680959549, -0.14575886589228773
0.10210382211719829, 0.6372669512091862, -0.14280224620231208
0.10104472756568175, 0.5955126067444277, -0.1435054793878902
0.09783939726083454, 0.6116794396594158, -0.14569411022956666
0.07575672203905995, 0.6642111378559813, -0.15861579846519325
0.07654555569374327, 0.6710031579519817, -0.15821868766300984
0.0846211989933538, 0.6482931808498538, -0.15382518368334314
0.0770558242874334, 0.6575373500051024, -0.15789828611314402
0.10460615353956532, 0.6616978491872161, -0.14116138959785773
0.1011991512433629, 0.6608604677591432, -0.14347726937160954
0.0985545524768729, 0.6716996252334027, -0.14531848792841623
0.11623507328014389, 0.5832125158651553, -0.13141013810817986
0.1150476394402798, 0.6054310088616875, -0.1324114712877763
0.11751489119758898, 0.6061014303793291, -0.1303522491560812
0.10867538051141064, 0.6401545044359072, -0.13774651497297585
0.11718135024728152, 0.6378738872945041, -0.13064515395009085
0.10942709570783336, 0.621987695411692, -0.1371107429367228
0.11753375773596997, 0.6380936796200181, -0.130351083511872
0.11277866551583768, 0.6042203887469856, -0.13430493561592777
0.11318411166774524, 0.6135556602240361, -0.13397074651755592
0.11783438893946568, 0.6434567447914281, -0.13010257757629898
0.11657558558185371, 0.6384310327245084, -0.13115106734937165
0.0963070394510736, 0.6470562419299513, -0.1467548621765832
0.09111710305133192, 0.6719505994366916, -0.150381914693797
0.09453490043244103, 0.6511795265933833, -0.14797674790884616
0.11387378341673399, 0.6594377620445326, -0.13346382167688525
0.11036445463430956, 0.6638030101686367, -0.1364110374941635
0.11412337608881842, 0.6726164866920589, -0.13330928602854203
0.11397023671191635, 0.6606532339549906, -0.13338827077021298
0.1253429344805123, 0.6386350360429423, -0.12263702605532795
0.1295627056944712, 0.6155008329313983, -0.11840682375720933
0.12907343105284483, 0.623797712378687, -0.11890008203475097
0.12907566376746255, 0.5814981184008995, -0.11887694931141546
0.12771480633319568, 0.640618465396658, -0.12026669614307234
0.12913099216547808, 0.5913827622460434, -0.11882651809565917
0.12929970256073292, 0.5979224043204243, -0.11866107895392225
0.1239543395360532, 0.6311307647978053, -0.1240215841165279
0.12530832370085002, 0.6195662320605965, -0.12266220660042604
0.12614124572931462, 0.5991045407022892, -0.12181937162636534
0.11107353226926074, 0.6510360461764884, -0.13576701670585567
0.10531838633418536, 0.6570347945948358, -0.14059558935657063
0.10961427780908119, 0.6539078961054167, -0.136996847183342
0.12955401514653037, 0.6559969216333208, -0.11847394618391302
0.12608387977245522, 0.6580167252204594, -0.12195220924517998
0.12588670810256156, 0.6674903387981812, -0.12219132977106119
0.12673057519467357, 0.6625105021676183, -0.12132558830671888
0.13752953148184893, 0.672274848927995, -0.10900428313779062
0.1350371753623998, 0.6616662449802984, -0.11198657800996968
0.13406802130195017, 0.6704693853380153, -0.11321013227137883
0.13921603562598903, 0.626936077557982, -0.1068114938751693
0.14097008261360144, 0.616199848206536, -0.10466983173906666
0.13515123617726332, 0.6407428337939938, -0.11176844367204677
0.13812433259446916, 0.643520791305713, -0.10814990251555885
0.13417409476463743, 0.6254226324546448, -0.11294977773915722
0.13647837345060704, 0.6239130155266585, -0.11014323284892634
0.13618087844949994, 0.6310354548140156, -0.11050939102101448
0.13511909328128305, 0.6205611434377589, -0.11179645880675766
0.13442645492744454, 0.6322119149951237, -0.11264624312231206
0.1395277438866028, 0.632085959787581, -0.10643479292329666
0.14014139428702416, 0.6154953432887551, -0.10567846272527819
0.1187217650322212, 0.661458765253299, -0.12932783530176578
0.12221088945169922, 0.6568546691243278, -0.12581913014590804
0.12165092828114568, 0.64807535500237, -0.12634004495988155
0.13327120318801725, 0.6505042246281333, -0.11408168592464363
0.140466049965997, 0.6574990887612785, -0.10535573309141465
0.13763509637260385, 0.6550889073677241, -0.10879082080400612
0.1419583349313402, 0.6538619281725759, -0.10328727446352577
0.14384474269890413, 0.6677547030310641, -0.1004903054878172
0.14651893345773065, 0.6635046977834947, -0.0963883616155978
0.14467573919327237, 0.6693293415134967, -0.09923219665081107
0.14676784952159797, 0.6574716780509439, -0.09597430149615431
0.14483114465607316, 0.6511651504455034, -0.0988913464751657
0.14735945509050719, 0.6585355051997279, -0.09507829658647356
0.14580844007697957, 0.6481014870891425, -0.09738362356636665
0.15183324251849942, 0.6374650430214313, -0.08770777846587154
0.15698925842382475, 0.5851612332241438, -0.07782518403083657
0.15820271359800034, 0.6259087813041101, -0.07553935184288815
0.1559508613969841, 0.5925684611409585, -0.0798131336956497
0.1581790288690898, 0.6166330316015152, -0.07557757246381835
0.157568172250058, 0.5895807036698161, -0.0767233347354755
0.158460915657527, 0.6039681068163878, -0.07502988244425815
0.15412872422385743, 0.6241806003218167, -0.08331554477072096
0.1565815930219747, 0.59311610301469, -0.07860944123253831
0.15512757345504008, 0.6295091589973038, -0.08141269852774019
0.14628877480239041, 0.5682514382559887, -0.09659080135902329
0.14655448432399906, 0.5876749908249361, -0.09619803795044268
0.14722208356137562, 0.5784093061426416, -0.09517415543052005
0.14864185396277374, 0.5982190498596075, -0.09302190243643504
0.144922498851866, 0.5682611003575038, -0.09867413353278379
0.1466055848782618, 0.5877655549103529, -0.09612017655916272
0.1459997823291223, 0.5829285115028564, -0.09704082992192739
0.14731406896893096, 0.6153683214050172, -0.0950574811993318
0.14928413621959571, 0.6304682312083593, -0.09206311832627463
0.1489840623564705, 0.6279843346531988, -0.09251909198997818
0.15219127710917507, 0.6547525461899167, -0.0870883939596357
0.1509975786859519, 0.6717688027020509, -0.08948224450018744
0.15743055850461074, 0.673424658393809, -0.0772124312672643
0.15702975124065233, 0.6595927839858824, -0.07788414200756777
0.15516307165663437, 0.6611230595215967, -0.081458086362708
0.15803518650327583, 0.6612659080216359, -0.07597600760826748
0.1575072209314898, 0.6511349425001925, -0.07691548333819409
0.16213621482836507, 0.6686219644355333, -0.06644049569813408
0.15907533377668714, 0.6636763195361759, -0.07378728797515752
0.16158196202669778, 0.6678411059605438, -0.06777176430801032
0.16651820203878234, 0.6736507572454047, -0.055324307803233184
0.16237605331294022, 0.6502744500832278, -0.06571142147289098
0.16120928035726917, 0.6465408168448605, -0.06849679578380417
0.16019797213523781, 0.651203974589456, -0.07097571443430527
0.1686918382733213, 0.6179723959850554, -0.04731407138030323
0.168045117156973, 0.63662119443173, -0.04946575436146201
0.16818125896743408, 0.6368895265920902, -0.049017854575758676
0.16862308090396141, 0.6133013975017892, -0.047534815616490395
0.16780525408835115, 0.6210451502128074, -0.05023669634913032
0.16887673316004032, 0.5933550784705307, -0.0466756798074863
0.16948447779250603, 0.6221584973042034, -0.04470948782258968
0.16560162825723612, 0.6434737741658848, -0.05751876903421628
0.1677527792277766, 0.6211611418391133, -0.05040960037346152
0.1689096282092401, 0.6099961061963157, -0.046587426792297076
0.16634376502907805, 0.6564418101064909, -0.055188792076152154
0.16562188524392057, 0.6607930470889702, -0.057612402324399715
0.1680346668752687, 0.6694312339383681, -0.049761925133019067
0.16801754983306583, 0.6725603138804036, -0.04985203877461317
0.16233191209702313, 0.5886111144902157, -0.06573227501565027
0.16392840027844255, 0.6263430005681692, -0.06191370860446251
0.1648927241490423, 0.6078871415233206, -0.059569526999931316
0.16076546680192694, 0.571628939113601, -0.0694972801025658
0.16314715577443728, 0.5965309257292887, -0.06377197027624543
0.16459088580831963, 0.6248342705961677, -0.06031346681510359
0.1628682976951586, 0.5823114772115772, -0.0644319926761703
0.16102816989617277, 0.5708618927152549, -0.06886256351481054
0.16361370509237327, 0.5741773359638616, -0.06262557532088595
0.16466032405739084, 0.6024227063968912, -0.060125419783534105
0.16833740423210097, 0.6587814968892507, -0.0486503210625654
0.16870479173611094, 0.6627766821920066, -0.047483861473076795
0.1691701390575239, 0.6576230750477108, -0.04589619069305452
0.1711111022390211, 0.6730750108761977, -0.03798745838444462
0.17096312314296314, 0.6589804930931026, -0.03852955871956104
0.17241261003649927, 0.6720576929032629, -0.03112025557569456
0.17030283435746196, 0.6555973509419336, -0.0419479737516254
0.1729334723758042, 0.6542549048994499, -0.028079817194063147
0.17311307650845995, 0.6576518355588945, -0.027191579629762846
0.17236491158657347, 0.6599458276246174, -0.031167861459426877
0.1736393813915807, 0.666502979011187, -0.02343848979927262
0.1735779907379265, 0.6505383460717821, -0.023562353117788218
0.17450305143322717, 0.6711426006371379, -0.014011936980243875
0.17347429899214062, 0.6526334989038539, -0.024786751052012848
0.17407202072620234, 0.6268352901103542, -0.01785158511939861
0.17421654132582418, 0.6040563160312972, -0.016158235674733845
0.17431087884380397, 0.6227447534500604, -0.015183725956304617
0.17451108251188258, 0.5893207894802154, -0.012830652491627695
0.17416957538578165, 0.60764489601239, -0.01669366473718195
0.174149619659297, 0.6074838295516574, -0.016914594143081888
0.17481407678451977, 0.6000926068521601, -0.009508674475888828
0.1743357223599718, 0.6055988136679104, -0.014841048753144506
0.17432993871467162, 0.6143643593579176, -0.014939438920446378
0.1742007773332464, 0.6429066218634394, -0.0164847349537621
0.17052890412482796, 0.5735312460641657, -0.040464582624095344
0.17297317064289575, 0.6352466455877523, -0.02771565299161054
0.17149671302937047, 0.5714760757510481, -0.03536694827355985
0.17250497077454824, 0.5947604466247695, -0.03010395022189339
0.17241753052179323, 0.6216208435094741, -0.030614545956892426
0.1721697707663605, 0.599525521124311, -0.03187711501577382
0.1719163058054525, 0.599404851676393, -0.0332109275222812
0.1727007889193934, 0.5997461023751486, -0.02908266969602452
0.17298166858720196, 0.5972389349629952, -0.027599639098804044
0.17284516546873718, 0.591433193312152, -0.028307194140489975
0.17387410458998653, 0.6544435704315935, -0.02041126380454438
0.17463468106446145, 0.6465056585401032, -0.011689580494374728
0.1740733146953364, 0.6478115369800702, -0.017967760660926653
0.1743926154150861, 0.6570527340819354, -0.014745712108261129
0.1750015935775069, 0.6699102812404512, -0.0008276499584875048
0.17496396445584841, 0.6579804967614128, -0.0027861425491500494
0.17495655422012749, 0.6557457495784103, -0.006269129777997928
0.17494479965869955, 0.6515627943718592, 0.005220496887101073
0.1749331154031178, 0.6478786644559325, 0.004040128917171116
0.1749570548465375, 0.6555228862803195, 0.0039240643361208045
0.1749877318782027, 0.6653226504816752, 0.003666238701478687
0.174365240805121, 0.6609945699487734, 0.01498399135433521
0.1749766063214655, 0.6733904583200875, 0.009151543871649057
0.17485331775637872, 0.6667746210214199, 0.010195589131123171
0.1749023461277951, 0.5762336176978909, -0.005671766804575753
0.17490055673618998, 0.5673958650225538, 0.005300599023790374
0.17490750038454858, 0.5862995371164385, 0.008096856492792705
0.17490168557587957, 0.5698967694901583, 0.007442387088954498
0.17491254089747404, 0.602395214812369, 0.003130280755578552
0.17492110660426963, 0.6258187391497234, 0.006273460339180732
0.17489889909533302, 0.5660464457587325, -0.004693069720322855
0.17490574342860005, 0.5823705562610497, 0.004870948057974755
0.17490560057311016, 0.5821491049087029, 0.004319713680243813
0.17491398904121525, 0.6055158585089105, 0.006136350877172155
0.17326597134940366, 0.5740097737267202, 0.025453799262615144
0.1732529733935217, 0.6250649694289654, 0.02576922641895545
0.17350306190311182, 0.5952479380944192, 0.02311378382791036
0.17324310945140814, 0.6043431003118392, 0.02579548552200566
0.17377705101853597, 0.621864260784704, 0.02041701876810293
0.17433570423546332, 0.6387376594663159, 0.014784400686516982
0.17383155359396388, 0.6401058198295675, 0.0199269703210606
0.173345724531109, 0.6377052938293468, 0.024869323587579248
0.17473760993323403, 0.6386713176296436, 0.010688447740708365
0.17342059123872208, 0.6455961291261233, 0.024134655354109875
0.17341440944663888, 0.6396032020352574, 0.024176175294038368
0.17359390526384982, 0.6547694882370192, 0.022644623170470127
0.17345192995517433, 0.6679199907710673, 0.02451374208906123
0.17409510734937966, 0.6482911260278332, 0.017328972944096608
0.17085354321480822, 0.670046362505821, 0.03777191049116752
0.17326683685398447, 0.6701842708554625, 0.026163667337645503
0.17318080575628558, 0.6633072572834156, 0.026471589882755338
0.17096644800910088, 0.6659311041345394, 0.037165309561409135
0.17005038909774306, 0.6492192723701589, 0.041314876206834425
0.17240182329852588, 0.6511438989523072, 0.030031837507885233
0.172512793854469, 0.6503279833841499, 0.029485384700713716
0.16564672538592087, 0.6710057909188675, 0.05610247374081973
0.16586878563294197, 0.6710609654137367, 0.05539242316866239
0.16966547559473766, 0.6665261508044512, 0.0431946981697622
0.16794870096706963, 0.6723742667054989, 0.04875014588099069
0.16711192251002732, 0.6260215485883263, 0.05112955902546509
0.1677896124778532, 0.6209548396446094, 0.04895489425068479
0.16579475228728346, 0.6084489368794446, 0.05532412512803319
0.16643811028005032, 0.6038867248935675, 0.053259920085388615
0.16695156803488748, 0.6333023601256333, 0.05165125769361732
0.16555211631034047, 0.640800597210379, 0.056138534718724674
0.1646942837170769, 0.5864569490015923, 0.058820027028831996
0.1651471815864558, 0.5757692283133501, 0.057358144731762054
0.16747904365023164, 0.6413289335353685, 0.04997265668504322
0.16825804844679518, 0.6247710738535667, 0.04746029352351932
0.16982766522320342, 0.6334281567777196, 0.04231847902106608
0.17044461658147175, 0.585092228688138, 0.039267263678999464
0.17006711894408028, 0.619528777033528, 0.041142581002275205
0.1712055900619063, 0.6108405273562844, 0.035650450863051394
0.1722115497586084, 0.5653591514627911, 0.030732615419191173
0.17181874034822106, 0.5926004823567458, 0.032669234739910805
0.17001578166875103, 0.5650197234171267, 0.04129590530363187
0.17039273426406018, 0.6204610003206646, 0.03957764262126555
0.16994709140746625, 0.6127069466930674, 0.04170831367577581
0.17076093818372534, 0.5898949277931538, 0.03775368795204276
0.16636409831053595, 0.6568101638170323, 0.05365753214865096
0.16525876711343385, 0.64743676511329, 0.05709624785351177
0.16765972413283414, 0.6478997588283842, 0.04941764117652962
0.16539281596200556, 0.6486291323081735, 0.05667980277769502
0.1645723121570878, 0.670845936205557, 0.05944557957125299
0.16282046777546705, 0.6668138946641601, 0.06364326615859142
0.16155020575076917, 0.6626735075411689, 0.06667703630650852
0.1583418964003002, 0.6707045680452073, 0.07449097135238376
0.16334475144198796, 0.6491125931057833, 0.062232052309627486
0.158304943054833, 0.6607081101676802, 0.07449831264993498
0.1598210811609834, 0.6608076646803611, 0.07083761870316567
0.15370314068864468, 0.6671191653479663, 0.08328229226839283
0.1575975124369444, 0.6534913744695381, 0.07589937306301456
0.15790960243550176, 0.6698459955032086, 0.0754238542216138
0.15609629140809786, 0.636479152611992, 0.07865489608743084
0.15741382891023067, 0.6419484602155392, 0.07619187112808873
0.1533312621915723, 0.6146650569515129, 0.0838162112111976
0.15316603059784878, 0.6439626934841176, 0.08414735674658819
0.155456115591315, 0.6406089260546992, 0.07985668933222097
0.1546446808986396, 0.6402766053026159, 0.0813758517878266
0.15176448285138397, 0.6018660630723893, 0.08674049942719755
0.15090334475903688, 0.6130052718598784, 0.08836124753907076
0.15080590622882445, 0.6032961328012628, 0.08853649308482286
0.15660076418279067, 0.6396241134636164, 0.07771260698808763
0.1586901849659107, 0.5956672647069268, 0.07340322385497167
0.16205264738837905, 0.5760857858464098, 0.06526487868130516
0.1637095947852833, 0.5723703948339651, 0.06125990056330704
0.1596268121979213, 0.6073463562857118, 0.07115190254922772
0.15872542597259495, 0.6359891104111299, 0.07335493892377064
0.16154823467522206, 0.5933230606344804, 0.06649879445541108
0.15990592507477713, 0.6181853723518447, 0.07048773389538009
0.16181969633726695, 0.5876387697946359, 0.06583801408931036
0.1609864419902457, 0.5683850003234687, 0.06783276885372547
0.15947860659493943, 0.5757173219425427, 0.07148093945373866
0.16243437361319757, 0.5764128580436444, 0.06434329538056062
0.15013492762069935, 0.6696916416586135, 0.08998088686674308
0.1510980588667171, 0.6684753662095323, 0.08816932968195519
0.15438112865209008, 0.6510077784653803, 0.08190551036628704
0.1494238026508117, 0.6524916901412622, 0.09098396314498997
0.14574020695414308, 0.6651473283898812, 0.09646618386459177
0.14675479341194625, 0.6561823288138758, 0.09492565977115222
0.15780375056008034, 0.6735757535546042, 0.07572560988865212
0.14065787993767978, 0.6573005336814188, 0.1038890556607042
0.14435074980927598, 0.6527898242650251, 0.09843860583770891
0.1418475392986063, 0.667192669768521, 0.10219642637454719
0.14194408793336633, 0.6141835102463279, 0.10191788858406269
0.14631970714495213, 0.5918804868962366, 0.0954756683006789
0.14141221579647278, 0.6321473908227323, 0.10271043925662786
0.1405663614538258, 0.6436943520100226, 0.10396028491571745
0.1402709020540186, 0.6068062096034257, 0.1043714372922781
0.14530159079313643, 0.5908363547151516, 0.09697076750639873
0.1480124016097425, 0.5746789059662392, 0.09297818934062042
0.14625878944538256, 0.5709516243864576, 0.09555216248485476
0.14204484731497347, 0.5927101754825439, 0.10175651945439537
0.14044445930444563, 0.6200007851643944, 0.10412465577600051
0.1349847845840329, 0.6734261117461144, 0.11086292639835672
0.13599797608245617, 0.66946271953598, 0.10962976155324634
0.13980145734790136, 0.6703778273041188, 0.10507777000264247
0.13977928672481618, 0.6503912886261103, 0.10500655677672281
0.13543968518486466, 0.6411601103271423, 0.11018222166185224
0.12990794594866698, 0.6132192768153139, 0.11679385372418516
0.13961438875763274, 0.6455249338758734, 0.10518340970658191
0.132542348028376, 0.590838000689931, 0.11362567859574182
0.13530691226317693, 0.626635496748156, 0.11033334761051437
0.13497790266517173, 0.6384574020364392, 0.11073395003955455
0.12978145346482325, 0.635908020441315, 0.11695778056028425
0.13409079565621032, 0.6420966501027365, 0.1117986708353421
0.13408770279003762, 0.6438492830460584, 0.11180333324572851
0.13282553386945534, 0.6296230304584529, 0.11330761177239274
0.13711141362533022, 0.6533510999476345, 0.1082170771491697
0.13757266322768577, 0.6511729762418862, 0.10765385859764201
0.1329584692086357, 0.6496412357424071, 0.11317406238235013
0.12198925878436091, 0.6712335607065312, 0.12497587910994153
0.1289525256709932, 0.651107845873951, 0.1179217567960607
0.12751416137014884, 0.655249913652397, 0.11937882126886205
0.12423882600475868, 0.6667327416165573, 0.12270582986040157
0.12101670307709195, 0.6628410559019247, 0.1259114630178564
0.11929626239947608, 0.6556976919120518, 0.127600643589632
0.1182409077332027, 0.6575833456017515, 0.1286646059212735
0.11830636827929575, 0.6672542366716132, 0.12864199984927502
0.1071266466948893, 0.6180390420125371, 0.13793921713757956
0.10391566449830081, 0.5808853792079767, 0.14055950746340537
0.10416400514056752, 0.620155734383214, 0.14037334024551196
0.10814656640252665, 0.5876908606346705, 0.13708782692871607
0.1086353030290228, 0.5929834951257825, 0.13668883403260562
0.10497048042214363, 0.5795462520451079, 0.13969259946891513
0.10739301387297591, 0.575368967929398, 0.13770112392525852
0.10706497704472526, 0.591836452585271, 0.13797799486352602
0.10660707723324298, 0.5907086458588358, 0.1383535488126661
0.10611604739499157, 0.619781562663392, 0.1387699935622026
0.11752057580017133, 0.5769314204417234, 0.12930054258220064
0.12847798155261667, 0.5693690722920631, 0.1183367854804782
0.1190881502050181, 0.603534604399148, 0.12774575482338324
0.12273265672504916, 0.581735282364414, 0.12408959635523556
0.1192920041336204, 0.6172236477909658, 0.12754862404102746
0.12238980677729278, 0.5721322994808822, 0.12442777756676451
0.11828024078655114, 0.5940061607444496, 0.1285491431705657
0.12533499383498264, 0.570238743996029, 0.12148095216680019
0.12037312341917863, 0.5677347946851743, 0.12644276599991355
0.12578647185588512, 0.5721984544745531, 0.12103033602131019
0.11548935184966033, 0.6605052425621281, 0.13114171056415977
0.11067644728092513, 0.6600935958940001, 0.13509279356222184
0.11399937692630795, 0.6674305985598987, 0.13239350018826473
0.11554448694205663, 0.6657285419455847, 0.13111762261554372
0.10515578350966476, 0.66936529996632, 0.1396644376878285
0.10694046999248479, 0.6633162775965915, 0.13817416379047212
0.11103268372514483, 0.6576999945030924, 0.13479051143608203
0.09735539862455411, 0.6722611771943305, 0.14501040975283847
0.09569663270532891, 0.6670946351583814, 0.14607888518585982
0.10080407232598523, 0.6542126169979919, 0.14268104597922526
0.10063232344430936, 0.6736854046491105, 0.14326144345726244
0.09027126884537144, 0.6561241340947548, 0.14959580440951087
0.09402683017083469, 0.6513626805293413, 0.14711499336421574
0.1005483553952656, 0.6495278448415461, 0.14283118662107291
0.07996787990149354, 0.6669060075820132, 0.1551422335133278
0.08273995204607419, 0.6614356437321435, 0.15367082033425453
0.08752702585899855, 0.6627351291504018, 0.15116785832492885
0.09750484036300744, 0.5901798360902168, 0.1447913882590408
0.09312602260033004, 0.5846755412342443, 0.14766079510768826
0.09470827674636104, 0.5672794362338012, 0.14661584468772187
0.10074656682832767, 0.5782025201914435, 0.1426603924076011
0.09690325178826695, 0.5746988728632356, 0.1451794437369112
0.09786717770450264, 0.5858324356033934, 0.14455194168943175
0.08965513193041336, 0.5715762287282629, 0.14993158865298026
0.09973244821587052, 0.5708661079226027, 0.14332240054207912
0.09401504362933488, 0.6029706870847245, 0.14708541359041438
0.09503244601817207, 0.5900790369032881, 0.14641278816506847
0.09931222166118828, 0.5752370579584325, 0.14359982178521108
0.08291758087852338, 0.6561293333528541, 0.15355900204554074
0.08354814490996826, 0.6522123356266577, 0.15321484035146157
0.07499339679731248, 0.6494628253267878, 0.15768621833147303
0.07153437214761585, 0.6561307935876337, 0.1592319817009719
0.07211464889279755, 0.6718299430529291, 0.1590448242881942
0.0625613963445891, 0.6717209873415675, 0.16300276961728538
0.06451329351667087, 0.6633280307163902, 0.16216553453694554
0.07768650920143487, 0.6102425058293242, 0.1562499156592995
0.07669529082200585, 0.5958202863429376, 0.15676344192011354
0.08057385614802377, 0.6025127093796301, 0.15473442548939054
0.07427856873631636, 0.6156601593852257, 0.1580371890922174
0.07536092699452585, 0.6277454019249513, 0.15747500017551772
0.08090528947815812, 0.5882026770690008, 0.15455516906680586
0.08488890271038611, 0.5710286836274813, 0.15246171011444262
0.08504090874900608, 0.5839109028203687, 0.152387169606083
0.07696867586696603, 0.6218636625843376, 0.15663051390904553
0.07529081700755558, 0.5936652089780314, 0.15749827834351765
0.06637789333050398, 0.652745553460586, 0.1613570472408477
0.06582444098192282, 0.6469074810371607, 0.16156656106083345
0.059992529289957616, 0.6478076895350441, 0.1639860320221141
0.04887099113992591, 0.6626693824257124, 0.16760327585588233
0.051801493628772836, 0.6614755011760054, 0.16670926603858355
0.05038822626152718, 0.6689238089236493, 0.16716293297184714
0.052420853314248235, 0.6616313602089143, 0.1665216552676374
0.0625189795294335, 0.5920057231502045, 0.16291336694817937
0.06066104508694185, 0.6291703021319145, 0.16369726237227347
0.061734916921914636, 0.6243248701110353, 0.1632504772338795
0.06067199260924048, 0.6239331069936185, 0.16369074285219484
0.06750267946783976, 0.5664868027529496, 0.16083874677192544
0.06216633479213498, 0.5663461574781938, 0.1630497642602513
0.0610450941707015, 0.6163906535655361, 0.16353329468940292
0.060835714458184406, 0.580231129686478, 0.16360635461960898
0.06585345204827965, 0.5706116543287492, 0.1615236528810452
0.06029693253318533, 0.5911795999101364, 0.16383374105978304
0.043644839760835434, 0.6692127883270085, 0.16921208418625877
0.04796162466179374, 0.6601266684724479, 0.1678711469359224
0.04884492332093318, 0.6581082712109143, 0.1675962430804817
0.05377743100550425, 0.6502712422315283, 0.16607238460291587
0.04750718099437658, 0.5922051441589673, 0.16794391034430475
0.05044126027500912, 0.6017135566979925, 0.16705619338652228
0.04338260986171957, 0.6237847907503251, 0.1692082267568843
0.04617532114169187, 0.5929366967601757, 0.16834871276685837
0.0505811614140523, 0.590204819517567, 0.16700949792282943
0.045981007945631674, 0.6125795778391931, 0.1684149052884086
0.04492458270172271, 0.5739458279323679, 0.16872167417322553
0.049590593687752274, 0.6031179164458501, 0.16731508521062236
0.048215203041088, 0.6078717748397877, 0.16773457825381685
0.04337983805714258, 0.5680235913946456, 0.1691887080542617
0.03878304394859775, 0.666497146495433, 0.1703325330628938
0.04121296268250128, 0.6564202990385111, 0.16983867938724528
0.03593569307339164, 0.6616206653320554, 0.1708579577928195
0.03260531512653464, 0.659787927414396, 0.17148487430901294
0.034783394390575366, 0.6494870862146774, 0.17103815269415895
0.02687022558773355, 0.653810579748179, 0.17255544700359227
0.032426247650073056, 0.6566633253330332, 0.1715089201797968
0.03516277048009818, 0.5776495990424071, 0.1709313112458318
0.026566333296555875, 0.5787973002592113, 0.17256501991233142
0.03512987065379303, 0.5798882945113668, 0.1709383587619578
0.031027977229651574, 0.5859139177479484, 0.1717198518392809
0.03110284216183068, 0.6060891649453725, 0.1717128070321057
0.03455067517075634, 0.5806764628061303, 0.17104868483564473
0.029341673997060964, 0.5895848636911907, 0.172041551280339
0.03322903469412208, 0.5946596621856457, 0.17130476892036323
0.03084114524240404, 0.58133337910854, 0.17175371944342263
0.037080783379606914, 0.566090794372639, 0.17056278070013303
0.02428649714671248, 0.655864605617781, 0.1729876172852265
0.01979386493823286, 0.6560564019239943, 0.17339287100032186
0.015758812344274214, 0.6614091374733978, 0.1737731583594701
0.02092013893112784, 0.6706743636931987, 0.17333744819738867
-0.005971292583872317, 0.6197557916905847, 0.17443512787295493
-0.002870382952552515, 0.6377789610830853, 0.17444105947137156
0.002407898209873933, 0.634061566542958, 0.1744391443172053
-0.0037621496243750723, 0.6285365278344991, 0.17443793606281088
-0.007306669720858516, 0.5781149943020454, 0.17442074215197476
0.004058504002237766, 0.643182685379992, 0.1744421366615639
-0.0032474169234489396, 0.6193268461311296, 0.1744346596896598
-0.009293364885365602, 0.63609552059123, 0.17444122234569245
-0.0001396303058914547, 0.6195457374669859, 0.17443437286976465
-0.005332557527614279, 0.639805788995688, 0.1744420550779789
0.010198955661948537, 0.5699552369279233, 0.17419944210313165
0.01137920389923422, 0.5662737245379763, 0.17409184356635565
0.01450911022290967, 0.5936031994401301, 0.1738195210687743
0.0157540966813407, 0.6077050888150255, 0.17371233304486255
0.012029124112321014, 0.5959990857010764, 0.1740437373697289
0.009492590990678144, 0.631935441808952, 0.17428481886130617
0.010578031674799301, 0.6113401764104442, 0.17417982342006205
0.02143947300672168, 0.5692243800624252, 0.1731867383627781
0.011678899568140673, 0.5816962594565289, 0.17407026256299
0.013374107508636338, 0.5906688569686612, 0.1739207222730743
0.0012992797943008946, 0.6701762730899485, 0.1745185563079183
-0.009284601550682206, 0.64977343778735, 0.1744558414096121
-0.0035019757462682504, 0.6603647677515875, 0.17448836268933693
-0.00867549981156555, 0.6585249028999491, 0.17448321477677697
0.015474612351387184, 0.6581511816097286, 0.1737885039657477
0.00910733920205674, 0.6655771281480489, 0.17438538443158202
0.011688520424540213, 0.655237491476024, 0.174120355882346
-0.022036417890330638, 0.5930234371975459, 0.17318763593530712
-0.020605503276634293, 0.6232431346399996, 0.17333866711452256
-0.022312357169549584, 0.590493195784295, 0.17315966987063025
-0.026032278109111934, 0.6290898865487236, 0.17280821623479833
-0.025344238233352367, 0.6187715573618289, 0.17287210388647206
-0.018438913940912044, 0.618361010488389, 0.1735495491587731
-0.013289794501670553, 0.6367038139470371, 0.17406125714580137
-0.02038015658395034, 0.6237383033771591, 0.17336095345334834
-0.02198401106939392, 0.6192154474258262, 0.1732019844482951
-0.02494927518159415, 0.5983275061385019, 0.1729036741545396
-0.0010642473011234443, 0.6469002869398466, 0.17444586871348639
-0.00064802593218141, 0.6591479291180911, 0.17448420524480493
0.006287507484714852, 0.6539847402154584, 0.17446721268230048
0.0012516459959415896, 0.6592942044853045, 0.17448444163684151
-0.01978433767597656, 0.6709649061113103, 0.17350525849520645
-0.025932726591135647, 0.6726172881757777, 0.17290714111047337
-0.023123554993479196, 0.6700989826884419, 0.17317486091290002
-0.014429824183909954, 0.6551637299314697, 0.17398087249963268
-0.016645365418628957, 0.6537165425520816, 0.17375890853192977
-0.012771644246606645, 0.6593024588038935, 0.17415663055017044
-0.020121639377958057, 0.6468245510921338, 0.17339606866774288
-0.03274921172128783, 0.643957050373277, 0.17147097760467309
-0.03902353798668142, 0.612635393355816, 0.17015562760219216
-0.04136959748194277, 0.5918139457253206, 0.16966054270550507
-0.03320031560322967, 0.6259717159338628, 0.17137078325775992
-0.03948546750930003, 0.6460095819724928, 0.1700715448300059
-0.03780851745284703, 0.6092575396589304, 0.17040696845105024
-0.03796262715147805, 0.5942378322994163, 0.1703695661771048
-0.037646686050117326, 0.6084845754805158, 0.17044032962317582
-0.039310256339198386, 0.6355862099430852, 0.1701042369032914
-0.04315575124303001, 0.5972519269286578, 0.16929122530271679
-0.03950105750464574, 0.6689304047157885, 0.17014106414389282
-0.0306616385974406, 0.668804231800201, 0.17197798828812086
-0.03906433424868262, 0.670155771140754, 0.17023576466388812
-0.028739942680884385, 0.6735550396423997, 0.17239800969619004
-0.05968458104098551, 0.6016460033873009, 0.1641477530772586
-0.05433369889628209, 0.6377771841506878, 0.1658330666342182
-0.05748346122482523, 0.6177211878226821, 0.16484146224561214
-0.053019573440699796, 0.6406451827525861, 0.16624476129130328
-0.059597311575569786, 0.6118165483690905, 0.1641787529459427
-0.05504868105449993, 0.642731194014097, 0.16561146292418288
-0.05345929136537693, 0.6239701370852313, 0.1661012417572969
-0.05007493846331092, 0.6461609093658399, 0.1671669347356105
-0.05062948556883505, 0.6112308133958998, 0.1669808387530305
-0.05608467259482134, 0.6009185742149655, 0.16527239949774672
-0.0367037616590592, 0.6540310769756837, 0.1706747750039403
-0.03172075368841209, 0.6506480683262986, 0.17169968196872276
-0.03428826353524356, 0.6462483882134873, 0.1711519166700592
-0.05848203426679124, 0.663852650925497, 0.1645977035040208
-0.05504427256075234, 0.6636221287402406, 0.16567119798859473
-0.053661915818046954, 0.6643971334873648, 0.16610570903437644
-0.050361928027156604, 0.6724374148617702, 0.16716330442703434
-0.045347205114907085, 0.6557232821175099, 0.16867544438583945
-0.04802449633343783, 0.6466827414058903, 0.16780914378072348
-0.05070963923813246, 0.6527018316520534, 0.16698984757962065
-0.06917808596065633, 0.6336800368393849, 0.16023775530524687
-0.06544848113150904, 0.6201562161065836, 0.16177697157129786
-0.07411763602274421, 0.6002078689636035, 0.15817974632433948
-0.0704058977905235, 0.6386083926795636, 0.1597312148347922
-0.07496574101869881, 0.6224022750513309, 0.1578369669669273
-0.07399074215340418, 0.5948060206763228, 0.15823024555392273
-0.06950761174798524, 0.6223705451010327, 0.16009702709506451
-0.0711963569912938, 0.6351293383888261, 0.1594025892184438
-0.07517894939623211, 0.5747564282640119, 0.15773065163124828
-0.07282548707560778, 0.6381047404832683, 0.1587291340138788
-0.0753708187974572, 0.6468285677254068, 0.15768024789853982
-0.07283128868358961, 0.6730552287790063, 0.1588207735918759
-0.0747199132238519, 0.6600437510002992, 0.15799460338082671
-0.06400638778275156, 0.6678658187524666, 0.16245732005562427
-0.08346866768706165, 0.6062614720718029, 0.15337468676903365
-0.09003350671503144, 0.6420865052416926, 0.1498829665470922
-0.08753876790183965, 0.6033796174889394, 0.15119992717713227
-0.09076769991481495, 0.5896916602904925, 0.1494701060897504
-0.09073442958306026, 0.6104735135203601, 0.149496111408332
-0.07669163338588687, 0.6451842827510318, 0.15700935721204726
-0.0850446867151846, 0.616411070891351, 0.1525370445196277
-0.08511231275568648, 0.6164545622517548, 0.1525009463995174
-0.08417248061168939, 0.6448236047966639, 0.1530141040504869
-0.08701562285826031, 0.590730264604891, 0.15147429633269802
-0.06151108482153794, 0.6468695423650299, 0.1634193491958799
-0.06907153914343178, 0.6542823313527041, 0.16031389898867407
-0.06936052766526411, 0.6518595407175167, 0.16018601910655134
-0.0654347302073371, 0.6630669918925587, 0.1618496027621419
-0.0860561278738125, 0.6695816053584052, 0.15209168800143846
-0.07705320498230188, 0.6720004192616683, 0.15690825460581723
-0.08566869192486626, 0.6627532018437773, 0.15227432136117364
-0.12894559017748675, 0.6554454415534797, 0.1181123274211877
-0.12701772752457033, 0.656254108987436, 0.12004331441677762
-0.13043968941898926, 0.6596749093480896, 0.11663734580358735
-0.13037097224495814, 0.6617941382963143, 0.11671544606491151
-0.10754395282339292, 0.6672629582107356, 0.1377854355248599
-0.10955882201458875, 0.6632495585237572, 0.1360871449256545
-0.11091740951103615, 0.6521699696654621, 0.13490781619587652
-0.1253920862701555, 0.6049345967817079, 0.12160379631522059
-0.12937000228204804, 0.6111875644525664, 0.11762989115579132
-0.1273557839475696, 0.6290726298853508, 0.11965247443619699
-0.12763899227278505, 0.6178525962725003, 0.11936379097609018
-0.12673984678325284, 0.6462367115651623, 0.12027674491608267
-0.12871673953191004, 0.6072495472964575, 0.11828105761220392
-0.12606452585903258, 0.6384791221020842, 0.12094807819136918
-0.12814105359038752, 0.6274440459022068, 0.11886658273315201
-0.12969931614843377, 0.5723723520253853, 0.11728148539373033
-0.12669574497580496, 0.6302628000676693, 0.12031294801910589
-0.08377741418731316, 0.6514501622358534, 0.1532441667046133
-0.08234210430032524, 0.6468651431972152, 0.1539943871535609
-0.08390551142598084, 0.6567185811836982, 0.15319448633462943
-0.07695522796531161, 0.66456743498407, 0.1569341543638878
-0.09845550387913328, 0.6101829717290908, 0.14425498048040902
-0.09730758320463286, 0.629129458242438, 0.14504435490697296
-0.10292346632910346, 0.6024192133317904, 0.1412104608279068
-0.09706787654939027, 0.6155560621963855, 0.14520177777589607
-0.10252254095244856, 0.6444618929555985, 0.14150113989311458
-0.0980088740476068, 0.6310782337278674, 0.14456782686263375
-0.10190611893987808, 0.5977171662049812, 0.14190095682525686
-0.09620169264712516, 0.6223578162440179, 0.14579424497778287
-0.09676584788632872, 0.6370031500654286, 0.14541643090675357
-0.10010382939520417, 0.6353386562488288, 0.14314364181191608
-0.11668637568071583, 0.6565059673399112, 0.13010991289004703
-0.11081525906899725, 0.6729939102835268, 0.13507812345112552
-0.11402717969655847, 0.6619726150686647, 0.1323519867019161
-0.11280834453453029, 0.6714665091859358, 0.13340816591139237
-0.11284956864971905, 0.6104327080574632, 0.13325443968435563
-0.11470988987626864, 0.5988971892919005, 0.13169629859285328
-0.11611419020959002, 0.6322617929676531, 0.13053926110445171
-0.10809281824567163, 0.6387926062667169, 0.13723801308692463
-0.11103133664955597, 0.6456470852077677, 0.13478822844683136
-0.11329821313152494, 0.635779514335638, 0.1328914779310022
-0.11374778953643622, 0.6314498548991967, 0.13251422613604746
-0.10710407225015399, 0.6378746084550395, 0.138062943206475
-0.1154189733183956, 0.6401540795920595, 0.1311231815175487
-0.11127900011521616, 0.633285544589112, 0.13457586488913595
-0.09365138174838784, 0.6486300004220886, 0.14754934214450063
-0.09310369190841705, 0.6562982145311675, 0.14795123039512387
-0.09801893899355413, 0.6501888533396285, 0.14458236238527142
-0.10314603961993184, 0.6626754458280321, 0.14113985497674703
-0.09635018455889909, 0.6633524658375594, 0.14576817975053413
-0.09626628147931421, 0.6643095623205718, 0.1458289226403172
-0.09708367459219683, 0.6678653253620008, 0.14528603983290503
-0.1246789968405117, 0.46946066962699723, 0.12239708615857679
-0.13037347891865642, 0.479283241190454, 0.11666038924638888
-0.12433516284991133, 0.45961394347711704, 0.12278451237816836
-0.13394849629258862, 0.5195606716884194, 0.11228359303056927
-0.13881373340694625, 0.5574241534367425, 0.10633876705011211
-0.13313545898562829, 0.5492758950467124, 0.11325720041770684
-0.13199533917566597, 0.512168131612286, 0.11466585455431387
-0.13340593964151423, 0.505340017497057, 0.11295204627884946
-0.1351412007783628, 0.5458907442029202, 0.11081684422600707
-0.13910320317782265, 0.5631848045583644, 0.10598313326781117
-0.13198579975635263, 0.5011387646943611, 0.11468354161734182
-0.1345177983756128, 0.5340815195485227, 0.11158240890556174
-0.1333342574328915, 0.5444715217988451, 0.11301778543588065
-0.1366821882383557, 0.5430470325034846, 0.10894208145521349
-0.13409662666192954, 0.4656352777888701, 0.11220918522014131
-0.1377358883336578, 0.47521104856727253, 0.1077306465388799
-0.13282098603267511, 0.47644255756067205, 0.11370897855445751
-0.14117228338276783, 0.4646819516366979, 0.10359846953465601
-0.14022517227000256, 0.47441425930648623, 0.10470359719930085
-0.13699950005912787, 0.4608557901882814, 0.10869822101659775
-0.1411328829136605, 0.47428971678694765, 0.10359897006013186
-0.1447233468018848, 0.4721052247877857, 0.09820735719864887
-0.1430530924288377, 0.4661781541112239, 0.10078808271255318
-0.14247866091284356, 0.4779820365048366, 0.10159648547208285
-0.15050822951401802, 0.4575697115809656, 0.08946965553874552
-0.14757922354063802, 0.46024124073999145, 0.09392054690908763
-0.14639741148417312, 0.4569430932988855, 0.09574145362997341
-0.14665410020279138, 0.5179648796036098, 0.09517875843529183
-0.14868282158035065, 0.5007098431157054, 0.09209634199066795
-0.14371182482778883, 0.4979099615466175, 0.09967798788875454
-0.14446209950649064, 0.4867467024460297, 0.09854108070217801
-0.14292198633034658, 0.49736693853505654, 0.10088269339936912
-0.1455189130910646, 0.5156621347673276, 0.09691118031864429
-0.14882323510425766, 0.49504076692226007, 0.09188585500733158
-0.14326460119309758, 0.5101692368694059, 0.10035209831146609
-0.1472409448262672, 0.5115244202737135, 0.09428803812187865
-0.14580857869416627, 0.493932575076354, 0.09648336079502404
-0.1455224749945323, 0.4863537671265761, 0.09692445317235189
-0.1529168685417892, 0.5535658131100936, 0.08477240996998246
-0.15389042668525915, 0.5638349369687188, 0.08290610682638697
-0.15167024933944825, 0.5467399057782039, 0.08715741366829514
-0.15120876889451512, 0.53320441997263, 0.08804858621112482
-0.1528465128156924, 0.5165565083590884, 0.0849345545474612
-0.1557288655875918, 0.5534587372683191, 0.07940422007188076
-0.15123436361326065, 0.5280658095446502, 0.08800358863927946
-0.15519113953688307, 0.5611273463854483, 0.08042500438493509
-0.15110867648145293, 0.5261180222035711, 0.08824499763718893
-0.15136100926888307, 0.49900959281940593, 0.08778366501977797
-0.15299883626828478, 0.47533694471704663, 0.084720721343261
-0.15160540230523692, 0.4666591298984275, 0.08743951805204996
-0.15303792252782755, 0.48025243893963065, 0.08461288047752587
-0.15803647561314665, 0.45562866822164005, 0.07542104482718705
-0.15617721353353126, 0.45614981217322903, 0.07878265551877066
-0.15758037184431717, 0.47875023167496555, 0.0759512384579735
-0.1566960438757265, 0.4731607688765165, 0.07767724281865152
-0.16028824149926718, 0.4733780652911381, 0.07005745172777512
-0.1628326877320254, 0.47586200984525684, 0.06389625635708412
-0.15917140915622155, 0.45870877026049245, 0.07287299512395412
-0.16549911197085798, 0.4992150096343426, 0.057244022450078674
-0.16575444852682764, 0.5138173593795019, 0.056385782635873
-0.16651011154435194, 0.5430180874051944, 0.05386271920919211
-0.1667136516341272, 0.5063379647193043, 0.053236773633866925
-0.16715757546234208, 0.5465067378745709, 0.05172685015695341
-0.16534159386418312, 0.5212808660972912, 0.05773604924482646
-0.1660705862437637, 0.5628224772183517, 0.05528593149843467
-0.16618022831062923, 0.5345996885522118, 0.05495894382741219
-0.16563395390458838, 0.5439082518054201, 0.056746250658675966
-0.16746315184345642, 0.5406540761460794, 0.05072783942506004
-0.16725715618501533, 0.5302342564334976, 0.051418595221794094
-0.16217431698585855, 0.45992910029752254, 0.06561566452325894
-0.1647324711534741, 0.4605949442741448, 0.05943625804862373
-0.16409447817284112, 0.456215418971869, 0.061011877257504815
-0.15957125308083359, 0.5436456088221354, 0.07165384002418007
-0.16246624732155554, 0.48560907094033695, 0.06471988434092736
-0.15981714955791423, 0.4956168267584967, 0.07110418004694354
-0.16169127615268905, 0.5266972648885754, 0.066552759633501
-0.15955276321206396, 0.54217396936295, 0.07169980599980202
-0.15979943899474186, 0.5123809332515933, 0.07113163704356537
-0.15924969396400462, 0.5518278979916688, 0.07242244058113255
-0.1589406515284003, 0.5112702311747226, 0.07320527625380426
-0.1624793236100969, 0.5154025551262598, 0.06466115854387924
-0.15899187644318782, 0.538726310050792, 0.07305661263675768
-0.16629169041301559, 0.47155378363283784, 0.054777474890579866
-0.16587021072922356, 0.47907557118974975, 0.056083981103952574
-0.16674793057427076, 0.46862352577943317, 0.053306982310540506
-0.16655052709682763, 0.48000894390390375, 0.053834059375398105
-0.16722012006363984, 0.45769822191780807, 0.05187029083572522
-0.16815367730515662, 0.45735169266053916, 0.0488004495899043
-0.1699862818254452, 0.4652052838525855, 0.042682118202078054
-0.1674033747342444, 0.4587541853679105, 0.051255555363247114
-0.1729794331312693, 0.48022640699617514, 0.027472473150220632
-0.17071061062027587, 0.46906304125624043, 0.03960151593141133
-0.17109654567055704, 0.47242735952978404, 0.03751368905691602
-0.17287666760080145, 0.469932731383314, 0.028186393180100338
-0.1732742513552378, 0.48057495066992545, 0.02591491052284689
-0.17240957028842335, 0.4659696351162004, 0.030711462717356062
-0.17407587833594856, 0.5571490888423634, 0.01826409111298355
-0.17468441514020464, 0.5624833048087422, 0.011487165421491325
-0.17437962152221437, 0.5574030031498259, 0.014890843701840645
-0.17368582482627287, 0.5618678982984444, 0.022576247359224224
-0.17418502734525168, 0.5185303005919669, 0.017202460604178075
-0.17419832883473524, 0.5341481446637141, 0.016994049041403926
-0.1741986233088978, 0.5628091887961837, 0.016879324020184445
-0.17357596550769042, 0.5524450212008156, 0.02383258604546743
-0.17400940114428187, 0.5452909422469447, 0.01904825685126428
-0.1741559499535213, 0.5606491552000175, 0.017361497936136436
-0.1743856568831401, 0.5485336969392054, 0.014858327600259288
-0.17164122430379597, 0.5028510567397396, 0.034432208145075645
-0.17279655574825875, 0.4991065048615606, 0.028358411936509766
-0.17130234586459886, 0.5075439970076392, 0.036207027303869835
-0.17050526995966842, 0.5585277062622743, 0.04030680246933026
-0.17034167007536416, 0.4953157010618473, 0.041286201505852466
-0.1721734248729354, 0.49391853645051864, 0.03164782136196126
-0.17282853440572038, 0.4942979181567033, 0.02819910157658104
-0.17174371402990513, 0.5077846517883743, 0.033883542881375336
-0.17290209986318206, 0.4984397600467787, 0.027804154298434892
-0.17051411618551338, 0.4954614220229726, 0.040378300587477316
-0.17365518634226032, 0.4625615062953361, 0.023936039686595786
-0.17449033013551626, 0.48160256167895976, 0.013973554126598495
-0.173698718290806, 0.47365562613360446, 0.023062683678111803
-0.17518127169699965, 0.45565845701622354, 0.0034349582085366473
-0.1748400810692238, 0.4634862890208605, 0.010649044152070105
-0.17464819678592935, 0.474030516247779, 0.012478472401730957
-0.1740753918343698, 0.4627435471406747, 0.019246959535819723
-0.1751214885236394, 0.46920642228798143, 0.006358992520056322
-0.17509264151124568, 0.47746087640678037, -0.005459979685037132
-0.17511708911562185, 0.46932107911779214, -0.0011477795229372619
-0.1749053784251797, 0.540046170482794, -0.011534816832804657
-0.1739187282806538, 0.5609344680454182, -0.021554518614263034
-0.17490212436100439, 0.5512811495893216, -0.011549136026330047
-0.17412639302256386, 0.5599277051221639, -0.019439941549540766
-0.17439312014775588, 0.5321731063034852, -0.016768331750747434
-0.17378823150991846, 0.5610759626535926, -0.022884145077597434
-0.17491091838359013, 0.5095007083816914, -0.011529588331240029
-0.17500000494206627, 0.5536732698743552, -0.01054764480547199
-0.17492322082528747, 0.4953400193384846, -0.011427965848046963
-0.17446665890355073, 0.5206973918814662, -0.016038160529009214
-0.1749567475074625, 0.4916456843835825, -0.011092498628685417
-0.17513293604898134, 0.4607245012250091, 5.7647169530532054e-05
-0.1751213828776234, 0.4580931952850734, -0.00598817519109702
-0.17512587846877561, 0.46623052520899366, 0.0004318112103784222
-0.17507258572672185, 0.5021448834017146, -0.004105877589767685
-0.175071021935938, 0.5222494586209168, 0.004175752030237167
-0.1750623923938215, 0.5548011517232879, 0.006388154572799712
-0.17507042666484066, 0.5142264549220015, -0.0013680983829310726
-0.17507261971473662, 0.5022541059226544, -0.003982876196935995
-0.1750684558378168, 0.5219549646557025, -0.0006995580333488021
-0.17507571559354054, 0.5024218904681972, 0.001794938742180904
-0.1750776663040678, 0.49680811783583756, 0.0022626199315281086
-0.17507272987191513, 0.5159568341127255, 0.0038210479244291545
-0.17507150002506622, 0.5145843303071567, 0.00080136744613282
-0.17487871614272976, 0.47207427769562604, -0.012056732008560129
-0.1748562020017412, 0.4686022854193874, -0.012337155927325032
-0.17488540495040916, 0.46403705816001595, -0.012109289366519706
-0.17436306004250707, 0.46843196898230277, -0.017342629725519546
-0.1734867716916705, 0.45792769941579037, -0.026188371086525077
-0.17378983934523173, 0.4581372899908506, -0.023153520526518617
-0.1734227726815613, 0.478105535856484, -0.02669963151403596
-0.1711259615536904, 0.4809170732655075, -0.03792444634518227
-0.1727811038256794, 0.4775033347784093, -0.029955779768410396
-0.17249442622584577, 0.4704702874434471, -0.03136176112170953
-0.1726236659308492, 0.47449056544798374, -0.03072504571489846
-0.17028659957598116, 0.46088824380361687, -0.042116544503657684
-0.17000026605531546, 0.46057239728706856, -0.04350849294134093
-0.17058885132217813, 0.4587957166999618, -0.04066526061644151
-0.1665612659297381, 0.54423582855669, -0.054479433969024965
-0.16832771569574892, 0.5393665892522245, -0.048829343576373314
-0.16764799069015815, 0.5499132877970689, -0.050998458599239294
-0.16584563943937264, 0.5576749948231509, -0.05676176368970668
-0.16985933355223823, 0.5115310574323213, -0.04394405558336918
-0.16981551901154185, 0.50247204314507, -0.04408951665533335
-0.16664964795553144, 0.5444421981748248, -0.05419647833718633
-0.16731771363948938, 0.5316182331573919, -0.052065994136181494
-0.16695007941209541, 0.555580621629902, -0.0532285990613385
-0.1671544080483086, 0.5372650898286061, -0.05258532599034752
-0.1695125001293557, 0.5135343930556634, -0.045052815399000565
-0.17255073753708183, 0.5218669879949783, -0.031033189860772664
-0.17287003638145376, 0.5013913115050921, -0.02950147116777011
-0.17225079385224804, 0.5253060787073073, -0.03247805235201785
-0.17091836451927797, 0.5046954250970932, -0.038910130969277694
-0.17204425284466127, 0.49956117651529963, -0.033483650224194125
-0.17291352610669686, 0.5404871488806963, -0.029276953420615606
-0.17197169932815848, 0.4854981730662512, -0.0338388000628146
