0.015291729182699568, 0.43870924509991066, 0.11763129675293078
0.009994363458636196, 0.48165938340474673, 0.11358433244158178
0.017554086514497344, 0.4704267790918627, 0.11394189903708818
0.016664763926932228, 0.47307622747455746, 0.11375610786858907
0.013955949978008237, 0.3992765101646657, 0.12205049423455089
0.012430146077730917, 0.45130888026756977, 0.11659251732309958
0.025399107134247825, 0.49101187336166935, 0.11016434887415118
0.030092509926727365, 0.33026474160893315, 0.12685500206602088
0.028175890809856968, 0.4265734846726882, 0.11666906313670858
0.025259165017051433, 0.3397111930801822, 0.1268770803582933
0.02627550139665897, 0.364555971134813, 0.1239173074139033
0.030212122179150626, 0.29475142988150194, 0.13074007643575108
0.02775126971057345, 0.3235129906580205, 0.1281132912561414
0.02590796647054148, 0.33839974401800454, 0.12687889775534655
0.028142867961679224, 0.3055721951609561, 0.1300031728637122
0.028979744656622508, 0.3438852657317309, 0.12559947776808666
0.02663130393365977, 0.38015204619834203, 0.12212137108847045
0.02637902410568517, 0.30018514507977195, 0.1309842300779365
0.01408997954199438, 0.2856182230092025, 0.13431242693594703
0.03416018048667301, 0.49039917398700167, 0.10768647296446422
0.02203227124198609, 0.4099819159457343, 0.11978548682812917
0.02186679468672569, 0.38306676643438137, 0.12278827649482082
0.023575660209395645, 0.42814826848749854, 0.11746672564522635
0.0211158227179424, 0.4236244208854886, 0.11846750144692465
0.02155150194098293, 0.4188510381636379, 0.11890519024337572
0.023065922146944667, 0.36813739100913406, 0.12419055834270379
0.019787348659588977, 0.4652968341735352, 0.11414155233550444
0.02311787279369607, 0.4410148854131226, 0.11614077376197668
0.023612046181327742, 0.40564350235034285, 0.11994182665278864
0.023565848539344313, 0.3946967974161, 0.1211587915898229
0.02108018157745183, 0.40776414430505287, 0.1202243340310707
0.02077915370694358, 0.41363595469005765, 0.11963801107051308
-0.047287419105365894, 0.3316269236262528, 0.12121541136189679
-0.04375700570543233, 0.3604950365380544, 0.11918094318528069
-0.049985007285344996, 0.328861684353031, 0.12056640241793348
-0.05055248279335233, 0.3040716264205065, 0.12319484286581855
-0.04579028105143735, 0.3324117743889651, 0.12166124824691414
-0.04277873876736639, 0.37720779086228934, 0.11762198301443232
-0.042973393255995244, 0.35035872087547704, 0.12061894082816893
-0.043439886720498255, 0.462409510120386, 0.10765415550285065
-0.05213519525917185, 0.2980324092268883, 0.12331852873181329
-0.04618965752305822, 0.36063618027267885, 0.11829473966273057
-0.049083475574714305, 0.3701430972225459, 0.11617387520448641
-0.04353685212072236, 0.4585214087560307, 0.10806355542857064
-0.047645960818300206, 0.34163954990544415, 0.11994357533905736
-0.04386422907374696, 0.42082672726492165, 0.11225177939728988
-0.04379826299211953, 0.39607989103709884, 0.11510184530716618
-0.04559753540754597, 0.4100227932788404, 0.11286580703701865
-0.0459686762147193, 0.29763493092927995, 0.12556949600764744
-0.05645171617172308, 0.4279067773277813, 0.10580250671020072
-0.0603769586267357, 0.3847624812877837, 0.10897150110757259
-0.060787862425912255, 0.41028733471934187, 0.10555438560412987
-0.057439924110131005, 0.4472338678002902, 0.10283304203183623
-0.059323872905649104, 0.4432797204274194, 0.10226338348677501
-0.057447811642013395, 0.43625632255184055, 0.10419847880904262
-0.054879300402201826, 0.45807555457023547, 0.10292504665872187
-0.061773068499118775, 0.34333581965011134, 0.11335332026071107
-0.06088673351215087, 0.3976093363815335, 0.10708068063020738
-0.05712066929341589, 0.45950553710760955, 0.10148181348897314
-0.06032639030780602, 0.4359819193756295, 0.10260836376260428
-0.052824059930967907, 0.4709763706950642, 0.10247490905145049
-0.059492605735475976, 0.2827154053660613, 0.12173544889926072
-0.047811148495146095, 0.28732620242337076, 0.1260894026100899
-0.049168719362127355, 0.4718181767271526, 0.10405851059090157
-0.048833362979380235, 0.4508803866368585, 0.10670170873209105
-0.04697884698629139, 0.4458255439938163, 0.10814556066636226
-0.05100916829221905, 0.39091403298240046, 0.11284708402273774
-0.04579491140808682, 0.47076450890598365, 0.10571658100383702
-0.04893208797032691, 0.3866936533733034, 0.11429277582847912
-0.04808739059475839, 0.4184811361005152, 0.11089495231276905
-0.05017504289902368, 0.4813580073030347, 0.10246644007281211
-0.05110834866676724, 0.37913850164599866, 0.11420289201286518
-0.051071166538355306, 0.4108663466690198, 0.1104453088755305
-0.046811617148692385, 0.4510167102711492, 0.10760397072201283
-0.05198536854622472, 0.4400562889537293, 0.10655743105131925
-0.05168186658929353, 0.495191918630686, 0.10009839626434713
-0.05325471812606943, 0.37410343596119267, 0.11381164255519778
-0.055847382695869516, 0.38682135552036184, 0.11106428896224033
-0.05769260498465532, 0.3268863350152065, 0.11732501604616954
-0.054871318927179884, 0.42644222345486715, 0.10680965930653874
-0.05329673774275472, 0.4555566490430892, 0.10409087738218559
-0.05214547402110648, 0.47920136499827093, 0.10182225002142019
-0.05447206150339409, 0.4029971602399925, 0.10979171145094639
-0.05825255733043329, 0.297754060278265, 0.12052833388591377
-0.056967239748708466, 0.3355252747702045, 0.11664102755665082
-0.05604148905130568, 0.40020683631390314, 0.10937783721251779
-0.0557695698904301, 0.3911032028055175, 0.11059133271579545
-0.06284250195700641, 0.2948124896083716, 0.11869635326884528
-0.056761270163940246, 0.4012235803050721, 0.10891452325407905
-0.05335027076883993, 0.3792927933931952, 0.1131481776582165
-0.05518453296708911, 0.4215769670620937, 0.10724017484843226
-0.05339486414141246, 0.29590819601533686, 0.12305778324142032
-0.002311507481088516, 0.30707947986432427, 0.1327850961588632
-0.0076575597251761895, 0.33273500368368997, 0.13009509019295246
-0.007916732247346844, 0.4442422764676714, 0.1179987158369312
-0.007403410409035272, 0.34362132793256145, 0.12890921280655696
-0.0074033220997650594, 0.3516060311167153, 0.12804269905698568
-0.007090729418391792, 0.4182428013786636, 0.12080566857611863
-0.008150370592020083, 0.3046285885315376, 0.13315392218717784
-0.0003765991165032446, 0.295461677489461, 0.1340117944256022
-0.007879638902101777, 0.4495745051481529, 0.11741940083116423
-0.007022156664057843, 0.4153254407993904, 0.12112105709646379
-0.005361596359066047, 0.37204957188471754, 0.12578816977300458
-0.005213549737134959, 0.3412258551253764, 0.12913059878839928
-0.011422027873845154, 0.2814394419337455, 0.1354698140830174
-0.019564377936708798, 0.44873629064298204, 0.11625174681900721
-0.018085945448228936, 0.34758081529218177, 0.1276261816108207
-0.019337500383543895, 0.4305438418841446, 0.11828905338459116
-0.02495458389844008, 0.4621382757650635, 0.11363372804439506
-0.020620429974392458, 0.4568889074375764, 0.11513462918978837
-0.022935247270131232, 0.43570430977915203, 0.11695538315800467
-0.019106305150279036, 0.38127596341450387, 0.12372441616235542
-0.017571608316025687, 0.3595641442444303, 0.12642619011337924
-0.0209125159440229, 0.47338075986195227, 0.11326928236050705
-0.02347526732864127, 0.4355373092648289, 0.11685813288556521
-0.017896182219043863, 0.41932432513714474, 0.11982384701585896
-0.017546549725557314, 0.3512958371302609, 0.12733543245140072
-0.00906303603570992, 0.39030575289989133, 0.12383229535482232
-0.013777426752699714, 0.45024783760719395, 0.11687485497192796
-0.008780221222107937, 0.46299245681462814, 0.11597072454670473
-0.00885524935967021, 0.4035621203576236, 0.12241350172840247
-0.00974038010315885, 0.46799947328705294, 0.11533527072302607
-0.012207759134051036, 0.37540589593957646, 0.1251479162020656
-0.011460226351683672, 0.4749436752388546, 0.11441674917840758
-0.011392989217422642, 0.3828216567615839, 0.12442118975270572
-0.010687790961170184, 0.4418781052467946, 0.11807939996126132
-0.011049968631440317, 0.36370658948778994, 0.12652862906665924
-0.009401724945239885, 0.39532658378372487, 0.12325491760024279
-0.013266447236861755, 0.4379372935141479, 0.1182599008213624
-0.006966278388324195, 0.2886271397155306, 0.13486785425147751
-0.013729368104940774, 0.30546924615519966, 0.1326677628202957
-0.015046934674061006, 0.332566264358926, 0.12960229535416895
-0.013516809458378295, 0.2976363309234274, 0.13354059901535492
-0.014816296736470284, 0.37455636417559424, 0.12503149786272266
-0.01713937466927774, 0.33447933315217615, 0.12922791940735326
-0.01630684108647558, 0.35952235506649816, 0.12655678466947215
-0.014401427458162261, 0.409227175991852, 0.12127516540540266
-0.01724061135408, 0.48186732605708765, 0.11311217025418474
-0.014398131843963293, 0.34372878160345366, 0.12843361988235644
-0.011823738802288477, 0.29779140421585604, 0.13365740196070958
-0.016617989295059872, 0.4066890303448836, 0.12137744868216088
-0.01928435980312242, 0.4884438018129236, 0.11196730790181635
0.1125778938850678, 0.4936622656755762, 0.0035052386157349035
0.13462930235432619, 0.28906278689123627, -0.00534022392750223
0.1332014950191315, 0.29561068630613974, -0.015975522629925607
0.12281544477533307, 0.39077316015935887, -0.016183757355430844
0.12945035398474974, 0.32931496628459445, -0.0167992722221826
0.1316261768017142, 0.3135601293751915, -0.012053804665604115
0.11397798812608746, 0.4705674894209558, -0.01768687959926839
0.1326709610152779, 0.30174183701906676, -0.014557886164012317
0.1290121331185069, 0.33236882654730815, -0.017889116369541175
0.12698355169677203, 0.3544979577337354, -0.013946516034626114
0.12523646785543285, 0.3683978093151794, -0.01635186676025578
0.1220121951989471, 0.40011981132898916, -0.01396560415880047
0.13305217244665446, 0.29734770995060833, -0.015563735629983928
0.12508384290579613, 0.3695275970999185, -0.016657020758065043
0.11999180100768816, 0.42529036586451424, -0.0007140950006401944
0.11816913190969267, 0.44164958127575205, -0.003651430747401029
0.1160679272981739, 0.46152844319617436, -0.001537230250615265
0.11636801521061611, 0.4586753211802369, -0.0019151308600250734
0.11521564094325049, 0.46874951578709323, -0.005222475084274941
0.11747987708295776, 0.44816460009062037, -0.0029892689740473894
0.11635305550741369, 0.4586615822843152, -0.002737639089896694
0.12002207652900929, 0.4245808712942294, -0.003026701607679288
0.12524675127499066, 0.37642237553394553, -0.0014298569074603382
0.13376747949833237, 0.2976415495386539, -0.00012522284399486632
0.12990018246150298, 0.33325791178187925, -0.0014716760617143095
0.12059415133051847, 0.41908362702731305, -0.0040609228836856835
0.11281731056500918, 0.4862750809304561, -0.01283086780707229
0.1282538510182433, 0.3486965108091583, 0.0007140768608847411
0.11555798974625246, 0.4663987962681271, 0.001000204203891626
0.11755834709797072, 0.4477544962039077, 0.0016422378978542952
0.12125761932306899, 0.41333565558098406, 0.0024125827224913006
0.11440864410911028, 0.47640706588848314, 0.005511305008760523
0.13139493039348846, 0.3195483460991588, 0.0008336950181318912
0.12536848298452377, 0.3754822376382475, 0.0005315864706453698
0.12043862493602692, 0.42089755817931584, 0.002645362997494324
0.12072394614833772, 0.41798832850205714, 0.004468718418195711
0.12275442715656049, 0.39960035409198397, 0.0013983939605815565
0.11585812661711672, 0.4637365519180598, 0.00015976759392896583
0.11569316708381511, 0.4645512102356142, 0.005116099541814444
0.12474258344577982, 0.38020906513994507, -0.00758041122675362
0.12903989337560823, 0.34073062394430015, -0.005444647263992504
0.12175035369863461, 0.40784514383331844, -0.007773886341345922
0.12299025114259464, 0.3963589777551061, -0.007997409339610016
0.12713217122274748, 0.3584198717336725, -0.004955777649551003
0.12934418242371182, 0.3379402888493092, -0.005248557689229159
0.1275879028152288, 0.3543849640833006, -0.003394497194026521
0.12437715922547503, 0.38352726181051533, -0.008103862444875886
0.1249642482957732, 0.3783666359186166, -0.005764754682212405
0.12429710468958213, 0.3843171189684616, -0.00766518246886043
0.12106366916677913, 0.414371706499783, -0.006197009929151711
0.12825809814582398, 0.3477275214634118, -0.007462419839056506
0.10962477223637346, 0.4917113647100305, 0.027279773010548188
0.1255585828918522, 0.3539809675961203, 0.02375466110628139
0.12993273022268767, 0.30801910143224265, 0.027145964502773626
0.12012455880861178, 0.4106384395833715, 0.019799894008898263
0.1283854114585549, 0.3290356245391726, 0.02316102499262278
0.13023114971659167, 0.3129024232942266, 0.022682966240260855
0.12394957891023069, 0.36890877062703653, 0.02366570453766307
0.12240701841353366, 0.3929384099580957, 0.01789129088097359
0.12848219863501453, 0.32903275815375443, 0.022642383990470513
0.12659411442594679, 0.34230213319892705, 0.025024589667046664
0.12757410025905236, 0.34313944398100915, 0.01926610940089951
0.12493301262627571, 0.3617897671902696, 0.022546357094064436
0.11941208910855686, 0.4206534693910267, 0.01776721459210455
0.12966591734491448, 0.3200211792646863, 0.021554246413028763
0.12757039864796269, 0.3454130564488337, 0.017955024187734855
0.12180828071486274, 0.39518185410754453, 0.01979672588890037
0.1306899087283153, 0.29849393706677824, 0.028651523659466115
0.12318917801358828, 0.3751904871596749, 0.024076200135573336
0.1286326831125043, 0.28796930180933833, 0.04019984389118274
0.11134922944196035, 0.4911798342571281, 0.019622782804545467
0.11701956412898824, 0.3981508388090762, 0.03764637447476511
0.11618074407629936, 0.4132635853252244, 0.034793031736157144
0.1115245481584882, 0.46244772495512837, 0.03187326513447329
0.10818330235041458, 0.4849549618818473, 0.03453793419254847
0.11544348362783911, 0.42681921227796993, 0.032183663936127774
0.12025853729219185, 0.3744804577684874, 0.03575269546254488
0.11620144769837519, 0.4216582280203879, 0.03159973017163754
0.12171410446213918, 0.36034466406860555, 0.036204005264582756
0.11402318363959299, 0.4457593538007808, 0.02982739396218325
0.1097362238389529, 0.4704167097803963, 0.03481729905213313
0.11257419427440886, 0.46150063786788353, 0.028756706326536305
0.1133381268727849, 0.43488380973502805, 0.036139907098975396
0.11049277733850707, 0.4484004885297721, 0.03998325620560875
0.12079873790815136, 0.3579064044787629, 0.040035298458604186
0.11342268567171629, 0.4288798801786763, 0.037952975980034845
0.10637902528018693, 0.4781981492098304, 0.04204643726580494
0.11213712458828996, 0.43730603759751874, 0.03888958762477494
0.11715396802604253, 0.3935206557404968, 0.03882717743911151
0.12281837259379165, 0.3364477286539665, 0.041272888455619515
0.10966627441984475, 0.4683448647682363, 0.03579841902560651
0.11575752629809188, 0.40117203880018026, 0.04033936186353744
0.11438045029152541, 0.4137471914811507, 0.04017312050732886
0.11128801567630206, 0.4356776911046695, 0.041878729772856206
0.11348244952761069, 0.42832069750956947, 0.03796461697182363
0.1220648877562458, 0.3585523474345148, 0.035676713105535184
0.12525774175565893, 0.33744506631543253, 0.03272975088894074
0.11750371206919306, 0.4206521128234757, 0.027455633350929428
0.11357093245808791, 0.45738478885123013, 0.02690881230407671
0.1234281802309234, 0.351924858309569, 0.033490392415484224
0.12945821037372474, 0.29765546068933724, 0.03353040426948417
0.12185601610714325, 0.3640219364091942, 0.03427849141862893
0.12731776136729892, 0.32006062786460143, 0.032293820918429056
0.12269084344829301, 0.36455845254973634, 0.031151715376761882
0.12153817752497396, 0.37920549487297983, 0.02948129369272655
0.12471141650778107, 0.33399686391300254, 0.03598109396209039
0.12964793166773222, 0.3007441933785482, 0.03166539012142808
0.12587437956979217, 0.3317390313710144, 0.03279469392057763
0.12974674200206854, 0.2973551677409205, 0.03263873526930233
0.11759808738327078, 0.4114666725875869, 0.030699953371558293
0.12581487469440497, 0.32119949969274036, 0.03710377581611024
0.12132708707510823, 0.38397410359306905, 0.028363589542183622
0.10930697657783925, 0.2905896482121636, 0.07837945459321943
0.1125749832487039, 0.3734690242308348, 0.056129316911891484
0.111044566815658, 0.3638899236093535, 0.06104231267914745
0.11456226957983512, 0.3307970067460308, 0.061991648447537295
0.10717104937696245, 0.4178139382803903, 0.05611320862254228
0.1147510202775675, 0.34360837761793794, 0.05880230250005378
0.11202555055302393, 0.3423883759623283, 0.0640332887506312
0.10572362024411744, 0.4381167424758927, 0.05423738144218399
0.10631130301920025, 0.430832923344888, 0.054785865609674564
0.11652380378268065, 0.319497708323771, 0.06093188686780293
0.11036855659782108, 0.3927956873421315, 0.055851595825006026
0.11534501768248874, 0.3082799596488398, 0.06556896355743264
0.10640706863067245, 0.41554974960499313, 0.058006503120275846
0.11205554329609772, 0.36263486515847276, 0.05948126540370768
0.1121944494008128, 0.342705876263653, 0.0636553882355342
0.11311406734544271, 0.35311444833728584, 0.059669708043693884
0.10780010809108376, 0.4183899687206797, 0.054840451689639635
0.10273005611440601, 0.38720178875132305, 0.06963828077006044
0.10227009645676695, 0.37581871653957655, 0.07243534117238098
0.09343554998648765, 0.4770991920518077, 0.0660156391855945
0.09652580319477375, 0.44227352987096114, 0.06814813192315296
0.10085314609542936, 0.38252309752790553, 0.07319914028084448
0.10254459441551375, 0.37029400883311325, 0.0730818307270117
0.09644519334451913, 0.46873088560996967, 0.06328939291277258
0.10452799477762167, 0.3406244344976219, 0.07582620322887723
0.10474565476395042, 0.3520327633169838, 0.07337053460957633
0.09559708681550629, 0.4788750799412389, 0.06259389021840298
0.09370556140511717, 0.4790713822999323, 0.06525914608810532
0.09585067134980635, 0.46361526414711823, 0.06510042391374612
0.09752741821853862, 0.48784341888031846, 0.057878703634451814
0.10459913423328843, 0.2919124094875283, 0.08466021742271834
0.09819380211342182, 0.4091597005539622, 0.07195962348478735
0.09809336929893397, 0.39769425200309483, 0.07414510025038454
0.1076667115325575, 0.30337676605660635, 0.07833910343397367
0.09417196097477831, 0.42948198624977235, 0.07365268553090606
0.09617099147645106, 0.4353040541714068, 0.06996086261486373
0.09278007980121986, 0.4369017959268496, 0.07416940775916535
0.09638022585461015, 0.4109131404112984, 0.07404958969878628
0.09869560733541524, 0.4030216192879895, 0.07239323493354771
0.0940289731716488, 0.44986731137128366, 0.07019316536841719
0.09711598460163236, 0.3982249782612847, 0.0753455909871371
0.09859558620430312, 0.404444499387272, 0.07227110917371121
0.10780498865719712, 0.33476455749384765, 0.07215009371447029
0.10698556600403619, 0.33859240352480113, 0.07263359185725836
0.11005706987501745, 0.3090814112380175, 0.07372303929464341
0.1047268437547619, 0.39178853861953583, 0.06580520069110221
0.10109713722065944, 0.44121013446469687, 0.061733752169103324
0.10862224992953501, 0.3020693001578804, 0.07719430699388406
0.11198995459747281, 0.3267530416999174, 0.06747265898503614
0.10578235784026149, 0.3677243904330564, 0.06884405884365818
0.10111542366225877, 0.43071399341705885, 0.06371531452458248
0.11091566121645542, 0.30768741044769277, 0.07271563602774378
0.11273253822094467, 0.31719258821946344, 0.06820027106523355
0.10327617203089672, 0.40625354386203905, 0.06518980761646981
0.11059822827753898, 0.3404147509192844, 0.06692351967935337
0.11023917297709047, 0.3035859146396573, 0.07450449300233199
0.10857142930654518, 0.32433127657448435, 0.07300933855582128
0.11350443494934881, 0.3049519432323162, 0.06939730337714668
0.08596021761987005, 0.2909762295513008, 0.10348985124045534
0.08289090845494085, 0.29007371265551446, 0.10597359621807056
0.08532129877858736, 0.4138720279742427, 0.08640148737570237
0.09375864480715479, 0.3085519606433284, 0.09401580684535982
0.08790991001032006, 0.3266797576658199, 0.09686642413684579
0.08781974781628646, 0.33938789185359486, 0.0950694186561137
0.09076256896113388, 0.36969733838300844, 0.08779462186569148
0.08589143980726867, 0.4006344541025483, 0.08782262239179883
0.08523434668583205, 0.40181769138108275, 0.08826928725587624
0.08458203622763014, 0.4264194401292996, 0.08524265043726677
0.08428261954960109, 0.4058945330068917, 0.08856621432979747
0.08747557140976273, 0.3533705733579415, 0.09332404590694833
0.09367222513481749, 0.310135067983025, 0.093863110012473
0.08261989906317678, 0.4593931542611372, 0.08221567739440545
0.08832900816039187, 0.3094302414005519, 0.09902477181604688
0.08498709055072245, 0.40051085407647113, 0.08869688103646435
0.0890678308106554, 0.3052997408234062, 0.09893730316447147
0.09452048826825188, 0.3227961382564226, 0.09118487240278751
0.06611951542979015, 0.3628076846457965, 0.1083306195708438
0.06757928551120103, 0.3308303699599605, 0.1114916781463475
0.06644523217846665, 0.4393412674059767, 0.09807674149036505
0.06454890696474223, 0.3875863526481707, 0.10619047603495743
0.06647920379791918, 0.45887761135908517, 0.09549389476908215
0.06405148155931682, 0.4260847854889024, 0.1014979270039652
0.06605185383807201, 0.3681933624659427, 0.10767280794007032
0.0676780188871538, 0.35191487274980265, 0.10866046672807209
0.06753601456243764, 0.33983428851601133, 0.11034277012701296
0.06674235336976068, 0.34775845333429173, 0.10986344321918738
0.06649415696207296, 0.477711595873637, 0.09301643132304797
0.06937854805511977, 0.48784259578191225, 0.08950382430481163
0.0697876571457258, 0.28917725924474064, 0.11540068078028333
0.0846427192277297, 0.3451802219740562, 0.09715215412166261
0.07951960555918207, 0.33862464195585446, 0.10198197410503494
0.08198705854638091, 0.35087872714814994, 0.09842225038890685
0.07822905108007096, 0.4195589987196901, 0.09199986953007377
0.0789786081205034, 0.3487639012594108, 0.10102322599086754
0.07625900152226756, 0.4221975201768455, 0.09315750984427698
0.08330920048236111, 0.35501433977534425, 0.09684441783486383
0.08026183541651986, 0.2948817625775725, 0.10734263804658271
0.07776390344078726, 0.41968844825545387, 0.09234012318290528
0.08015865819886565, 0.362456367091353, 0.09825876900811895
0.0795506909732675, 0.30206866360380635, 0.10691511777022285
0.07958346096825969, 0.3581858077334693, 0.09928032553877324
0.08613252416464408, 0.3250291717376806, 0.0987386641712144
0.07874765005725239, 0.41358341763214745, 0.09241124513199506
0.07600043384222757, 0.45578718033436477, 0.08880159122175686
0.08033440289573077, 0.38225739060826447, 0.09543852629535718
0.08327561155801852, 0.3040989024542684, 0.10377447932928627
0.0752600918911753, 0.4314154449291562, 0.09267507996631812
0.07195288617571456, 0.46842839797091285, 0.09017602424076078
0.07389771501221468, 0.4002945409927867, 0.09792105405997298
0.07520535444556682, 0.4100603130700472, 0.09560682265326592
0.07025046754505539, 0.4575390097843357, 0.09294197406661589
0.07077013248734085, 0.4279519257396035, 0.0965518382701459
0.07655790309593924, 0.36343523127499205, 0.10089042054814172
0.07390849798782961, 0.3977140506342768, 0.09826211205649449
0.07574149635757402, 0.3899126741335693, 0.09792664946396809
0.06832937515990106, 0.4675234510290895, 0.09304884737271085
0.07689713196728139, 0.34539495542570475, 0.10307450024210864
0.07467874537442443, 0.39943237660476333, 0.0974449147928065
0.0548919480440632, 0.34282083977417177, 0.1168010736402944
0.051816249796359945, 0.3496007185838769, 0.11734718068039945
0.051859464908034655, 0.3207700105527317, 0.12074458344377113
0.05644281581959112, 0.34662759425267764, 0.11566951848127935
0.05607800960152455, 0.29553098341618034, 0.12188439786374271
0.053330488516827514, 0.4442310013868348, 0.10546934490746876
0.052783359746346105, 0.4204497548731693, 0.10852742112848711
0.05662981302509623, 0.3232036336766878, 0.1183631493412817
0.05253586629856844, 0.42598251131754306, 0.10798039503230633
0.05496928565992764, 0.38008038904420305, 0.11235198091767726
0.054026797521365966, 0.3422707517244675, 0.11724585437913898
0.05465008103133499, 0.3634695378931617, 0.11446037905574907
0.05477523506791325, 0.3586668147090484, 0.11497457621287384
0.0471755323449958, 0.28908235719682457, 0.12622209789090597
0.030582979130045974, 0.461162157934308, 0.1120749912425601
0.031488470259490225, 0.35061823397257913, 0.12428568591811558
0.02976821618508044, 0.40664684463222345, 0.11848021228169796
0.033532760325164286, 0.4018203169046426, 0.11788090475419688
0.03154099919953028, 0.35043641573893414, 0.12429025293771716
0.031650017659791876, 0.40266529502652104, 0.11835784000338229
0.031092257282370604, 0.44605321523093666, 0.11362672504253865
0.029800576349521213, 0.43346266996722926, 0.11544151763262289
0.033101414548973786, 0.4051462962754159, 0.11763636839770976
0.03416099929739809, 0.4771748670323291, 0.10917859015407332
0.028790811488303807, 0.46541807212639547, 0.11213912421057065
0.04253998910035263, 0.49581530874813795, 0.10417900100582554
0.036764793835804506, 0.29291887888970114, 0.12917628390083627
0.04619316361993941, 0.4022734578017061, 0.11362187477524835
0.04522566050232452, 0.4208184763137589, 0.11183018574120974
0.0471051450165978, 0.32827451612330805, 0.12176929641989376
0.04223212932825588, 0.3185851811081856, 0.12452616698847634
0.04870351263654426, 0.3239721958946738, 0.12171985377783004
0.045768156401201576, 0.3941407202065409, 0.11469510968187442
0.046692461367146075, 0.33576656611682176, 0.12105285377643464
0.04560617045485119, 0.4275215054847854, 0.11093539260878835
0.04265425753572152, 0.336885614071016, 0.12229200428866649
0.04413626198584546, 0.30340072845505855, 0.12561675950389173
0.04346815093855708, 0.29926237654030735, 0.12631583675678032
0.04523263989787149, 0.4400481710577305, 0.10963037044968937
0.0475833958417379, 0.490487335489616, 0.10259784722028022
0.040144404061996763, 0.41161027639027326, 0.11462972022596951
0.038727893135761825, 0.46853494170847715, 0.1086249043518849
0.038946927940145495, 0.4219827808455603, 0.11386271566466982
0.041188089019336765, 0.3712690199782348, 0.11887132737649783
0.03974853050129275, 0.40968154750429386, 0.11498776542164672
0.04204086777254752, 0.3701159138181932, 0.1187059548916755
0.037544670658176085, 0.4665284623511086, 0.10926604099104693
0.04180618511870859, 0.4498334344333589, 0.10968764854253288
0.036431761481940564, 0.4630546988173236, 0.11005018484035065
0.040440465499135596, 0.46961474715416507, 0.10790519018625458
0.03620997254197676, 0.4754557912335643, 0.10871179974682701
0.04277888917372805, 0.4774976332641509, 0.10619090999119131
0.018328155150763387, 0.3680416632870589, 0.12487956799642629
0.014846278894108118, 0.36113271871735075, 0.1260713469886906
0.015549059151285193, 0.39497750997902276, 0.12233352381383021
0.013417452759483185, 0.3235230670093581, 0.13030816805153875
0.01931336424596499, 0.3452013918365453, 0.1272146084044247
0.01666127961835148, 0.3513902682690577, 0.12688822146000311
0.012881963829717511, 0.30583424308434204, 0.1322833240518976
0.01872190971707444, 0.35151001206510013, 0.12661066843256463
0.020976565878415274, 0.40146962091823574, 0.12093678997699804
0.015526803035473824, 0.35735613883447237, 0.1263909613668186
0.018710158522763125, 0.443444931386176, 0.11670404832409792
0.01691259075698174, 0.35708501659346426, 0.12624220363406244
0.01929593514737244, 0.3633783002247204, 0.1252578614954552
0.020596555033880835, 0.3779422633407155, 0.12352121586093452
0.015937404515277438, 0.40198249151683285, 0.12152869845520882
0.01794565283831532, 0.4427411045404945, 0.11687808794410036
0.02285515252961437, 0.2978882052664088, 0.13185883269536688
0.009141815656136955, 0.2931124179153902, 0.13385962375438434
-0.005840435677552895, 0.49639926160537035, 0.11234751076257818
-0.0025295607756465966, 0.3843395291957258, 0.12442886297266778
-0.0024088272567915564, 0.38800834943838414, 0.1240329917198006
-0.0023323149739839216, 0.44265091870706086, 0.11814090839476103
-0.0027019365032674024, 0.3703439702286919, 0.1259383466828717
-0.002368104519811167, 0.42056348227950635, 0.12052259769753695
-0.0038956629429980935, 0.3911182074246431, 0.12370106325217503
-0.0002455759490547723, 0.31191265770366394, 0.13223317088846337
-0.0034730077656159966, 0.38006659892479694, 0.12489175240249192
-0.003723328872975509, 0.41780961443585707, 0.12082263273796169
-0.004831046313473559, 0.4267991825534443, 0.11985585065095566
-0.00201895685874815, 0.3981081164944194, 0.12294308022439766
-0.004148820927697886, 0.4546999609385809, 0.11684585337319074
0.009624026731322496, 0.36798828474190837, 0.1258230730157528
0.010662050927904327, 0.3642231343943686, 0.12618067703177813
0.009690699103561056, 0.3568767461503475, 0.127009586397759
0.005325401808857547, 0.32203737709892943, 0.13093003149433652
0.007607637976950254, 0.305261427702632, 0.13262591247009126
0.00955594870250135, 0.42546480795872066, 0.11967349365162643
0.007449682022202822, 0.3426462268770701, 0.1286309804486994
0.006630548421410469, 0.342650071108794, 0.1286664233586837
0.0066140573406794426, 0.31846986065573746, 0.13125550942111985
0.007238682517756686, 0.31451966558318173, 0.13165101644875496
0.009468687941043274, 0.3762631282256512, 0.12494409394141562
0.01083412466314066, 0.35769826331462373, 0.12687159826555222
0.0075306263241447235, 0.3058498380141268, 0.132566297132153
0.011664509489351518, 0.33136617285083875, 0.1296539630270418
0.006834910264171898, 0.38108184281461555, 0.1245435593752684
0.011058707803280776, 0.3647946659208805, 0.1261021354655815
0.009016482077534922, 0.3422659291987322, 0.12860310868227853
2.3189556145583326e-05, 0.41412187036008885, 0.12121112962241568
0.002063571950472357, 0.47197784860497594, 0.11491689678831314
0.005247027184641605, 0.4582844309820344, 0.11630629417845349
0.0023677830810204877, 0.4011847267645219, 0.12254193581351372
0.003806060472013826, 0.46331899462048787, 0.1158028669721766
0.005061656030902816, 0.46520143219275406, 0.1155655318117789
0.0009330756758232768, 0.33593533779258566, 0.1296167990899296
0.0019566728496635977, 0.44151586382920516, 0.11820442653186694
0.006032376125326217, 0.469305128315351, 0.11509648194554047
0.005412731284179156, 0.4416499822897187, 0.11809539157574173
0.005431432576539949, 0.4694387688845508, 0.11509851651570213
0.007146767789953209, 0.46294652813778125, 0.11575161174958158
0.000975340690685414, 0.3946656028739244, 0.12328297266613386
-0.025263771155606858, 0.4499131583455839, 0.1149166289912538
-0.026184247253203567, 0.33785415603191393, 0.1270951118312451
-0.022519113558106835, 0.37139385473770364, 0.1241057343223705
-0.02633323787903626, 0.336407563424135, 0.12722580419385737
-0.026697048096746938, 0.36104914632374374, 0.12443824682773355
-0.023634489732882943, 0.3778056011631276, 0.12318296455321934
-0.021332817247728904, 0.3145025613361454, 0.13060850950143293
-0.02004347101334111, 0.33105609047212015, 0.12903259341300607
-0.020542181459700545, 0.3450654656720756, 0.12739133490434115
-0.02697001517513002, 0.3463885834043682, 0.12600203734807447
-0.01974884175081914, 0.3229338733968506, 0.12998520839091954
-0.02260870512023189, 0.3200847731747265, 0.129746161608506
-0.025866811631179577, 0.46662181788564006, 0.11295754377743034
-0.02542879461870641, 0.3520976594941502, 0.12567064166826675
-0.023399197683249377, 0.3310794463597126, 0.1283808864189455
-0.025200685269002238, 0.30705777094800635, 0.13068123264012665
-0.0263945504070316, 0.490415631444829, 0.11020908994450168
-0.03909229110985662, 0.29093539078816133, 0.1286737057440014
-0.04067459344853008, 0.3705661072733305, 0.11912380589872623
-0.04007072152580388, 0.4343118592006161, 0.11205161893661075
-0.037513440408507404, 0.4713242113629544, 0.10872211857657116
-0.042702686896162564, 0.4603696324234578, 0.10814727723793661
-0.04040545189353187, 0.40752027551557923, 0.11499548631391257
-0.04088842213234245, 0.4436589692696148, 0.11069560026100758
-0.03937882629455901, 0.3569363690747607, 0.12113752484517767
-0.04108100015082364, 0.3480672156929908, 0.12155187994915402
-0.039656341885378615, 0.4217021854234797, 0.11363850150332773
-0.04220618185533592, 0.36754093769982676, 0.11893036930073989
-0.041122465857220514, 0.3075944385866364, 0.1261624466602048
-0.03959049036604061, 0.3779471920808926, 0.11866193226300037
-0.027343319120451594, 0.44727275775937, 0.11475483330137504
-0.028468940929714942, 0.4396793600612723, 0.1152455132150614
-0.03351373421562666, 0.4628870741528825, 0.11100736090999504
-0.027182633495865402, 0.43462183562273177, 0.11622943811263958
-0.028603732974479046, 0.37109670414224194, 0.1229149343214472
-0.029952946240494348, 0.338956407648965, 0.12609403839102606
-0.03219974239695276, 0.4542421414508185, 0.11240366690285465
-0.03351036069517436, 0.44033525292182757, 0.11354466658188832
-0.03189945264386448, 0.4747332363215262, 0.11019611933493416
-0.029605863002174066, 0.44696695267267794, 0.11405900409148746
-0.03292659571884683, 0.45285492365237284, 0.11232508887642549
-0.02828452725932102, 0.4070135056923101, 0.1189786900497444
-0.02794150722366321, 0.28770408278793524, 0.1322836895408615
-0.03472799064092178, 0.4972038750481365, 0.10674521085398914
-0.03416733820730545, 0.4280790358579554, 0.11472106265401426
-0.03221081048634663, 0.3275763899146985, 0.12666785482212475
-0.04041437646977336, 0.32121732848181084, 0.12484902604996567
-0.031659413068135855, 0.33208998252328986, 0.1263289763673565
-0.03195621983534854, 0.35347364251181274, 0.12382403299283673
-0.035023015547254475, 0.32391957913194896, 0.12621102616997476
-0.03536995610712555, 0.3808501127453705, 0.11967907107214759
-0.0375958537654233, 0.3222563218086662, 0.12560323215304092
-0.03342162089564019, 0.3400547070267163, 0.12488529056068817
-0.03535502537803404, 0.3324366397377677, 0.12514721083381292
-0.03896287857330635, 0.3187704173512813, 0.12557395117487938
-0.03459626112366618, 0.37109104013839905, 0.12101961352314158
-0.03931398646341055, 0.3172957562154992, 0.12563180969924467
-0.035771174815405926, 0.37484245143164174, 0.1202329908138233
-0.03578124950134811, 0.38206513998782027, 0.1194147860374188
-0.0380820973681345, 0.33339320505228465, 0.12419607895298698
-0.03177481823589189, 0.3526403516041429, 0.12397415843879302
-0.06296309039765148, 0.4981766220201186, 0.09279655326878498
-0.061175467071434814, 0.42231625193232547, 0.10383062639330232
-0.06332286452993179, 0.39498315444085397, 0.1059905749176216
-0.0655667163342478, 0.3373509790505654, 0.11189394110792394
-0.06866711735350516, 0.3364980215505736, 0.11016958613682695
-0.0629998577480605, 0.3646656874870868, 0.1099840658579617
-0.06198741435416519, 0.38383410105282273, 0.1081778144921244
-0.06659557483489961, 0.328598613497799, 0.1123840191318265
-0.06879266159539713, 0.3135287668097334, 0.1129764466605025
-0.06326909538955128, 0.3458077289633057, 0.11219037287368792
-0.06488231297568939, 0.3809018454359421, 0.10683565025058275
-0.06907536771088561, 0.3199140590254155, 0.11200855564806197
-0.07300004365740935, 0.41697401237920556, 0.09630640218212363
-0.07368107020202586, 0.46659603186382326, 0.08899730350213358
-0.0711077830929295, 0.4651622702125594, 0.09119771535782852
-0.07132802170655121, 0.42170648919170095, 0.09696240581903759
-0.07336893171879331, 0.4841937336321015, 0.08683653047470044
-0.07343363976474912, 0.45829944011837853, 0.09032339962503076
-0.07233007688943659, 0.47992006556952893, 0.08822958552409615
-0.07347831821119612, 0.47971318484265774, 0.08736338288516463
-0.07200424423121177, 0.44227364874430414, 0.09362607263350214
-0.07137466415532169, 0.4180136055415602, 0.09743053637158446
-0.07199156164107173, 0.44784836753871626, 0.09287442078025313
-0.07693037565208885, 0.35842732446521613, 0.10124246835797157
-0.07560780516801376, 0.2824656120151711, 0.11242695070428596
-0.07134210263353681, 0.28417412389801944, 0.11515432421127683
-0.06796560879341858, 0.3846304901566805, 0.104322146341246
-0.06662788631401205, 0.3808139727868143, 0.10576458384727334
-0.06542295590053468, 0.44097142007505746, 0.0986424942845848
-0.06902000031128507, 0.37255537512980136, 0.105182565820139
-0.06183847506033101, 0.4656601386886725, 0.09788404690362837
-0.06250584236773372, 0.479368880217532, 0.09560124061093234
-0.06962916684631346, 0.3645141065710395, 0.10582069036128058
-0.06470457993840548, 0.48055210239280466, 0.09390438213261865
-0.06337669701046825, 0.4498466805348532, 0.09890058801588614
-0.06711295967729124, 0.43499576163654685, 0.09824998187851235
-0.06769663220237203, 0.37563109532955014, 0.10570227003785845
-0.07177187217182071, 0.4972324684604618, 0.08629690747906826
-0.0721777326242488, 0.34866587674445304, 0.10609390801683763
-0.07098050089562355, 0.3843315906737268, 0.1022153465067343
-0.0707868572362185, 0.41836424106992676, 0.09782965052040159
-0.07171035554686625, 0.3983220675581748, 0.09982824483547653
-0.07350957138690142, 0.37044729961486805, 0.1022363635398975
-0.0684538564197666, 0.42416735762705315, 0.09874171402686689
-0.07315616605599692, 0.30834379096585807, 0.11074955129381572
-0.07092255263310915, 0.32841336559477835, 0.10969282279820611
-0.07214667351248556, 0.3001533406379594, 0.11256721632270705
-0.07067060343516479, 0.3442921989910643, 0.10776318668196554
-0.06901951113448794, 0.4136973550439663, 0.09972571660477149
-0.06763049841061237, 0.4586030041826915, 0.09475689468160585
-0.08857665299196832, 0.489043867929017, 0.07028687988480624
-0.0996800064101457, 0.2827935825272398, 0.0914581117213153
-0.08812972825141435, 0.4023401135663719, 0.08495893995624955
-0.08718576428469718, 0.3896490098794786, 0.08789343773503464
-0.08625623787889605, 0.403506786516377, 0.08671745940149517
-0.09083450091380721, 0.3501914686318234, 0.09020498020865993
-0.08453908054120729, 0.42594389882682265, 0.0850329575357595
-0.08917956870875786, 0.40069136337880523, 0.08412701590654385
-0.09056519870409305, 0.35166741417840097, 0.09025594110806584
-0.08616534430843789, 0.4025234930993018, 0.08696319353666354
-0.08244299197058495, 0.4576327072569951, 0.08231333068740632
-0.08239020363586282, 0.4641350066660078, 0.08136487963236316
-0.0908051915844309, 0.3807202027585149, 0.08552582054142036
-0.0879959751918635, 0.39125546450713783, 0.08680729664087419
-0.08569075005356008, 0.41145618198228334, 0.08607626215530546
-0.09677992329657788, 0.3079662299596726, 0.09056710469430704
-0.09068990165247363, 0.3744025728475155, 0.08661969383502982
-0.08969229929069704, 0.3886917105673518, 0.08544760999393024
-0.10494520227664428, 0.28895027372444787, 0.08425547922353044
-0.0890709468951369, 0.46907737545924577, 0.07314955856759144
-0.0962548911732927, 0.42391218396533314, 0.07184876722267083
-0.09373567143775592, 0.4251067777675142, 0.07487240986638992
-0.08937963856303738, 0.4650054868080673, 0.0734673222365123
-0.10182604876651179, 0.3629809769812109, 0.07538205442233525
-0.09276419979205726, 0.43243842677049593, 0.07483370051623173
-0.09300676169557918, 0.44342578863641624, 0.07259597549986734
-0.09355212290944144, 0.4422949596314653, 0.07209434470065164
-0.090825712060482, 0.4663139791891691, 0.07138205451710417
-0.09060993457881134, 0.46437020773983534, 0.07199978090969021
-0.0953576502213315, 0.4078184375680642, 0.0758219969580214
-0.1004970877550814, 0.37051889304813657, 0.07576597131164266
-0.11567300645189912, 0.2902592957667484, 0.06910277030576467
-0.10059302476440748, 0.39476664639173314, 0.07125204299215424
-0.10163229158525044, 0.39160471093962257, 0.07034645847753787
-0.10135965089028973, 0.3941103381934155, 0.0702659806110376
-0.10326610865980129, 0.3835090086140431, 0.06951575130083532
-0.09944768436866441, 0.43291254473033636, 0.06567301752900359
-0.09686936974321325, 0.4693207716271165, 0.06249964399064058
-0.09503858523939056, 0.46766114299825334, 0.06546678808518866
-0.10093704080575554, 0.4120074466502869, 0.06748219648405689
-0.10172301696501083, 0.401987189841852, 0.06824493002435024
-0.0977788340965894, 0.46167555502088126, 0.06263281366286488
-0.1072661674876754, 0.3128977109917822, 0.07711956940003369
-0.09488389710691335, 0.47402594145080895, 0.06448314889956172
-0.09589803744089763, 0.4538672361983083, 0.06683913577426515
-0.09711059659447477, 0.37669366552019656, 0.0789825946440279
-0.10267103360478122, 0.3419052828451834, 0.07798511317608403
-0.10064705713089986, 0.31572039918954825, 0.0850439268989164
-0.10528931038312814, 0.3015899256825331, 0.08164071048554147
-0.09247383949808818, 0.4195743320676197, 0.07742355754946426
-0.10570642388612282, 0.3065197529363036, 0.08026639453071018
-0.10164993043847301, 0.3229355007119649, 0.08253899389499215
-0.10152960394869201, 0.33115783484346084, 0.08127314335680427
-0.10048025403816155, 0.32213738636412514, 0.08414769854105357
-0.09411740186905124, 0.4006652833957176, 0.07861552748263043
-0.10170422946176963, 0.30691292067989917, 0.08523232834287843
-0.09125837250512171, 0.4333876735415503, 0.07657144568172285
-0.0979692010038099, 0.3802755509515167, 0.07728532942735825
-0.10187393841930445, 0.3174381571814364, 0.08320476524843617
-0.09619716316046294, 0.35709407110992575, 0.08350960889610268
-0.10154971153574588, 0.2945353117913718, 0.08756005731493134
-0.09962171922228137, 0.3635879075094464, 0.07808315715469268
-0.11388487342140417, 0.4376448464919973, 0.03319741652896117
-0.12118827469142553, 0.38056505419583897, 0.030183422889262485
-0.1202538667962952, 0.3833693613515081, 0.03222235615400641
-0.12277833246259746, 0.3637597858206274, 0.03113629872057774
-0.11002592492223037, 0.4736739117426343, 0.03263280377556424
-0.12081509304209292, 0.3864596793000997, 0.029242942790491763
-0.11926009477401565, 0.39838497863714073, 0.029968387215840147
-0.11588085546029268, 0.42328285636579555, 0.03191885447457614
-0.11865028236877453, 0.3977492761047192, 0.03220528510962815
-0.12440963255323746, 0.3535070752199745, 0.029545487116449762
-0.11645794854924549, 0.42693885363282247, 0.02867941856770518
-0.12366153110928521, 0.28140079051758593, 0.056144225364524084
-0.1147787398340685, 0.36857519682275447, 0.05282446391417747
-0.10761348652576386, 0.43366288353536664, 0.051606486033586044
-0.11561203366452112, 0.3564651577380359, 0.0542344743720493
-0.12085132259295314, 0.3209783317173561, 0.0517434327288333
-0.11188913891264543, 0.3926775044724973, 0.05293280739851896
-0.12168592214872262, 0.29993029190321324, 0.0556470954825099
-0.12384943278205457, 0.30225570479503727, 0.04987543361593384
-0.11769836637791109, 0.34833105937634756, 0.051567292873840875
-0.12142545745434329, 0.31086020531857217, 0.05321057689096981
-0.12171293646192452, 0.32023718908522264, 0.049910605240168084
-0.11205371096948757, 0.4009405300609324, 0.05023498957439762
-0.11605311011352804, 0.4035548967719711, 0.038725638147944955
-0.11670771240758362, 0.3989236205867813, 0.03834638258252812
-0.10790028005904677, 0.48525118408104284, 0.035335253027154304
-0.1233227569782381, 0.3337780463107278, 0.04071171663593755
-0.11790917714358848, 0.3861013828374408, 0.03911050512523308
-0.11689391591171025, 0.39200390182405653, 0.04013131149848129
-0.12151648480291813, 0.34735481801038565, 0.04148877144392854
-0.11080730947578375, 0.44643586862752543, 0.03981637296572616
-0.11064291010244351, 0.4474166632394247, 0.039973220148514226
-0.12171447246637421, 0.34869713163484944, 0.04044729007476423
-0.10491470747966097, 0.49591664815458364, 0.04058294784650454
-0.12766196646301226, 0.28893923926413967, 0.04305116630421517
-0.11187282177137448, 0.427830169388335, 0.04297253200772451
-0.10859409593843758, 0.45479680750467305, 0.04362297614079405
-0.1266852279551064, 0.2967381542806903, 0.04333343176133253
-0.12523273192268597, 0.3134381441020497, 0.04192854994445606
-0.11798805698411505, 0.3680195626003824, 0.04514801615350696
-0.12522939764003355, 0.3030233384886145, 0.045648294306307104
-0.12220549339260434, 0.33809374556869, 0.042615514697797736
-0.11184123656535046, 0.42853771852797984, 0.04281932138260427
-0.12516462406168843, 0.30258646399776973, 0.04600648207476506
-0.12510646114838492, 0.29601748404823797, 0.04852799183762811
-0.12846673082632065, 0.2934981770442007, 0.03866129363692258
-0.11230506636191717, 0.4961714412573681, 0.003053953046329581
-0.12964884442059665, 0.3307652804415863, 0.014274784625260176
-0.1282148482294475, 0.3447186519447463, 0.013429887257014305
-0.12146021913953073, 0.41073352861500756, 0.00912424385164614
-0.13092891724515465, 0.3210468047652032, 0.011948560319729726
-0.13086616597249576, 0.31916194684101296, 0.014720001825671713
-0.12766996114961104, 0.3518756266840546, 0.011021205311300828
-0.11611361366365625, 0.4599595186704818, 0.009123736915811555
-0.1321567839644393, 0.310388048266178, 0.01122147479906642
-0.12383639755389486, 0.38480442302146045, 0.013684327497637861
-0.1277951408114029, 0.34786456268689897, 0.014238252727062757
-0.12894916487042452, 0.3367119991763078, 0.014832026761149086
-0.13176679637914462, 0.31005990949677853, 0.015631635101467686
-0.11596370354063806, 0.46255537770962807, -0.0011948042442599567
-0.1248154678364061, 0.38065921470224584, -0.00015007038412537485
-0.11884974856792672, 0.43478428805465885, -0.006535571587808243
-0.12460618233753454, 0.3820116108665953, -0.0032765345241345663
-0.1176162012370823, 0.4467257609646996, -0.0038724223991496963
-0.12199266313827899, 0.40614793184669706, -0.0038179443395597993
-0.1204770954802391, 0.42032775512547504, -0.0031582883788472756
-0.11521319617846289, 0.4681726474206907, -0.008329326140042519
-0.1195653300410536, 0.42848148035786215, -0.004763337090596727
-0.11485881267389585, 0.471639349060307, -0.0073726898976851675
-0.11401291025218989, 0.4795757716976311, -0.006887304761136228
-0.12838238424304757, 0.34751397353786473, -0.0004954911282905873
-0.13429865830556764, 0.2897630058776549, -0.009807260113605233
-0.13501410018829718, 0.28606639373169085, 0.004239967807894878
-0.11714334100493154, 0.45115311746345477, 0.0054516848548849875
-0.11620827777799028, 0.4593694966997401, 0.007757505496155288
-0.1212073445365821, 0.41360008311886687, 0.0062348674266580525
-0.13050622917772142, 0.3274975248163066, 0.009065344739450181
-0.11600319088594208, 0.4611314248700707, 0.008498750866266754
-0.11546571440408601, 0.4668234181727628, 0.004141248454742798
-0.12312063450435368, 0.3957741180907287, 0.0074619544588639865
-0.11343266751012612, 0.48537182346311747, 0.00514361372857881
-0.12634432900626916, 0.36599789420228857, 0.00801274616919672
-0.12434095071553357, 0.3847688855830371, 0.006108222290836511
-0.11660309592794843, 0.45657954198122325, 0.0028008142675333796
-0.11854449230339739, 0.43834318538789824, 0.004916810931255596
-0.1347026103933977, 0.28541216784849843, 0.01299487026773897
-0.13248049023091057, 0.3094770360807077, 0.006654489959566935
-0.13227014936369216, 0.31150701758829735, 0.0023998728438703472
-0.13020245766976346, 0.3306745133430636, 0.002863979670158161
-0.1220147596634065, 0.4066224621511618, 0.0021239043285407643
-0.12529618056654915, 0.37619596277540485, 0.0018028015838470197
-0.1337535190338966, 0.297776044811283, 0.0010006442414135321
-0.12316563118693549, 0.3959624747283845, 0.0014044806812634485
-0.1265398032816344, 0.36465719754119297, 0.0020813176186293032
-0.12777187106667703, 0.35315316698616833, 0.006248538807892644
-0.11743097563769257, 0.4491547943251997, 0.0009692618081620719
-0.12616594255012442, 0.36816023000908477, 0.00016017127138160154
-0.1276240648116203, 0.3546222110725191, 0.0009727404973683284
-0.11294555655417113, 0.49068253075549706, -0.0004982053726740696
-0.12422015484471059, 0.3557938583973219, -0.029714034019653758
-0.12290805668212602, 0.3693440360474058, -0.028873625368972214
-0.11882618763948898, 0.40790316852116104, -0.028026727446354927
-0.11543182150038922, 0.44161823373064535, -0.026510964503263675
-0.12961860609664105, 0.3156179351799952, -0.025513717248403314
-0.11169146233194775, 0.4749531282586769, -0.02671744337410703
-0.11710401231977208, 0.42189345461643807, -0.02878959078676821
-0.1313479988520815, 0.2965209104862058, -0.027229844648854692
-0.12755948617187374, 0.3266376180918003, -0.02923240384531756
-0.12360769627643917, 0.3627725711990255, -0.02900027790004636
-0.11626559405042919, 0.43376965296196923, -0.02667038190527298
-0.10967168664297042, 0.48853138648275346, -0.02838838742015759
-0.12444264948292617, 0.29155350481910136, -0.05098783986273907
