0.04358471854100003, 0.11056717312426699, 0.011738719050381026
0.0463282403386155, 0.1125400486653575, 0.012451920034260745
0.030729787634446486, 0.11601266028272679, 0.012357222927758114
0.035128243393116876, 0.1054092907599722, 0.010142209699731498
0.04791412231260162, 0.10474912300469402, 0.010911990710958048
0.03483283868877151, 0.11623310199626662, 0.012588878543688306
0.038312797417376004, 0.11187087369285004, 0.011740567305943398
0.016048452470701434, 0.1535562474551761, 0.026755781558926117
0.00900224180818284, 0.16310203607999946, 0.03259939407542039
0.019136958614144356, 0.15619097756951525, 0.028384067975946364
0.019846274257621734, 0.15981553879481886, 0.03073920703315726
0.020599023957558627, 0.16137879079221543, 0.031830678101748756
0.023347640563501013, 0.1576465022038826, 0.029448334388952377
0.030946373300228452, 0.15916546469381823, 0.030691739392330632
0.039113534656776014, 0.15672191173278632, 0.029360274370140764
0.051109230495953076, 0.15179701876946083, 0.026883220972758998
0.04308106132832393, 0.16084460370397013, 0.03228190276255893
0.047877079644253126, 0.15548002926628654, 0.02885774018285961
0.05505229678058427, 0.15771716994194662, 0.030577451719894733
0.05644466886026278, 0.16036408421544823, 0.032411076631897386
0.06688583239280449, 0.15831968018592374, 0.03173800625917359
0.06781317084460238, 0.16178002313712286, 0.03418489824539826
0.07535148355239318, 0.15779489032930777, 0.032394078422169875
0.083979444240939, 0.15163249612386812, 0.030191822083832986
0.08965011945137046, 0.15547621337233106, 0.0330673209989705
0.07646404916176514, 0.16052955492641144, 0.034352315847672864
0.09248469400927312, 0.15569406257992957, 0.033639539916120675
0.20298143813865008, 0.200831675574404, 0.08015510989865521
0.1949384213013424, 0.20209069169849153, 0.07607586445645047
0.19442313149543736, 0.20874506997210435, 0.07920098551702945
0.20043000412685041, 0.19353084504880697, 0.0772715447296974
0.19767386333328207, 0.16922134580367854, 0.07369967361692399
0.1997943919216013, 0.17497840904278464, 0.07583433417102796
0.19673091850647773, 0.1829506575662062, 0.0730106279573773
0.19274102971964924, 0.1777149534886025, 0.06935064562703852
0.1895841949827301, 0.1809935371434299, 0.06796057351006338
0.194921895452696, 0.17901848791363545, 0.07112929908949456
0.19292105449220087, 0.19819191969438926, 0.07406064323700498
0.18955085941413308, 0.19153780341803878, 0.07068024221016175
0.1816957717007164, 0.17121793139607916, 0.061852303659872356
0.18732857718817944, 0.17712937335598752, 0.06590456344925436
0.1825305081692802, 0.1843096345328201, 0.06600538303970495
0.18352546773570463, 0.18016078098520188, 0.06496836434912225
0.17626670271259798, 0.16663635119168874, 0.058311527887210494
0.17769886690931086, 0.17332932374503293, 0.06073372985831204
0.1753415285555548, 0.1753682988075549, 0.06058236895054983
0.17939118366447543, 0.17615460035145353, 0.062248345265081786
0.17604367127134748, 0.18043304290267304, 0.06266606885436934
0.19245670275581833, 0.2068699364050735, 0.07772718734317782
0.18653424305967867, 0.1894342926668334, 0.06903646361811068
0.19085722539964095, 0.2022857216146502, 0.07512414336417049
0.1887722276844126, 0.19356023692658958, 0.07116990843658696
0.18002123220192287, 0.1907363626320517, 0.06805098882156933
0.18058191583964492, 0.19443695532982844, 0.06996291292215782
0.17538232842259568, 0.19404567414852844, 0.06918349882116143
0.1829183236227641, 0.2059106673046238, 0.07761858367939821
0.18054996519306332, 0.2012117495930243, 0.07396891316634543
0.18630281587038455, 0.08033667044535914, 0.069632144160674
0.18443718941027978, 0.08508804148571628, 0.06637502639332922
0.18264293983757282, 0.09837194076851978, 0.0630058569700215
0.18364518567525073, 0.05695177690331883, 0.06716257358677609
0.18312649922697752, 0.06821105214812077, 0.06559422996163172
0.18022471523032046, 0.057962347899681486, 0.062417276404021615
0.18427884012621118, 0.06406022050513266, 0.06759593271283086
0.18434886174087436, 0.07014862275960085, 0.06725714541868423
0.17873431102615675, 0.05718814059507515, 0.06065361432283889
0.17394201101597007, 0.0552845380501726, 0.05563216594071185
0.18152127798842962, 0.07042248350059532, 0.06327690471254957
0.17923165122659657, 0.06922971520102182, 0.060512432236319705
0.17517219193443778, 0.07803015209863001, 0.055851262612178876
0.17925470528392376, 0.08018705997529396, 0.06000264478445015
0.1794021634905269, 0.09766899117206457, 0.05934679459563063
0.17697497238257326, 0.08721185832682196, 0.05727113284444543
0.18534515807912882, 0.03957703680759376, 0.07050115180668043
0.18627561299587095, 0.05426769064245429, 0.07148447186904715
0.17912628337054431, 0.03585567135666066, 0.06218274741287402
0.18238222641417942, 0.03863594118489705, 0.06623489470998663
0.17940358898211844, 0.04238887731840285, 0.06225553397790225
0.18308303173260038, 0.013707886879068138, 0.06719715014239297
0.18303792864876942, 0.02426145402946718, 0.06728986775662718
0.18351267333620522, 0.01807243051951464, 0.06782705757725258
0.179962287926471, 0.020886133636359716, 0.06347103957133655
0.18156161881541766, 0.022133780694436844, 0.065378239856563
0.17896742120204845, 0.022242139210949526, 0.062266007589742864
0.1764421460096665, 0.02390161326906056, 0.05941655847856246
0.17263390279677784, 0.027350498642549844, 0.055371239166158076
0.1785164046516373, 0.03586309054138533, 0.06147552481260887
0.1813090703620128, 0.04536413832648166, 0.06452501793505933
0.18174905064294944, 0.05175651214678919, 0.06474563540273097
0.17480422035767476, 0.03699164257748802, 0.057347507154015175
0.17893902769108577, 0.05336400080267541, 0.06110907204401531
0.17054524212258734, 0.04534981125447953, 0.052818906859387005
0.17568286876038838, 0.04508391516226571, 0.057903287920630694
0.16789102702453323, 0.04101434593524992, 0.050461152661694764
0.17488718479547333, 0.023898374958268204, 0.05772307038533958
0.16922915552106554, 0.00948247756749324, 0.051664882667596945
0.17186823583322353, 0.034033535201920935, 0.05443420109585411
0.17432760924451857, 0.03124747554188212, 0.05701370404570664
0.17173203465859588, 0.025226592860783853, 0.05444663009717836
0.16592157285594855, 0.027395673747901757, 0.04887439106667062
0.1663018332204389, 0.03794055832314175, 0.04914917890695425
0.15930069580070508, 0.012272161082221612, 0.04256336030097747
0.162145820897949, 0.024992112592771905, 0.04546111237764149
0.15310004613323816, 0.01517495658024547, 0.03790990865344317
0.15721742105525885, 0.03740984871672043, 0.04166917551765934
0.1538597697162914, 0.022510858557330787, 0.03882152472829543
0.16322304587356515, 0.028613632455727823, 0.04646466934002954
0.15960252475223646, 0.022228981563435574, 0.04323758079463198
0.16516487784931144, 0.03428853093402155, 0.0482038388210161
0.15944898583719308, 0.03132406158879857, 0.04336405014794005
0.15550315288869215, 0.04616625897153452, 0.040566263431278
0.1756844446649752, 0.08198796234949608, 0.056207071811439024
0.17149954419258198, 0.08662749899048001, 0.05234605651564687
0.16976961251706596, 0.09462003492141, 0.05083589238000484
0.16710424690798914, 0.08734027516896062, 0.048877072804631404
0.17206115251858248, 0.0723749141410296, 0.05314315253467207
0.1702455630588139, 0.04052649585990701, 0.052706405296770675
0.17258311503016938, 0.059585717196220966, 0.054065895623834036
0.17350587973589357, 0.06796453467551095, 0.05459853534914721
0.17146943098911216, 0.07941799574495392, 0.05244525111098185
0.16974812269641748, 0.06248079022681743, 0.05142342565107018
0.1668705094798883, 0.07613427095184391, 0.04877240662817291
0.16872276219842208, 0.06919121996995874, 0.05032185306773598
0.15497638324469454, 0.05650678231662882, 0.04029461142688442
0.16149630104699464, 0.04105071680558378, 0.04506655963846007
0.1635741521896941, 0.05902357616341572, 0.046410716471496555
0.1664361790607761, 0.052530697956092436, 0.04892397524705661
0.1626094640329832, 0.0686579571305718, 0.04559409514881999
0.16034934997888345, 0.055785913299615256, 0.04406726393599664
0.15475670740171196, 0.07862649912425344, 0.04034310824416764
0.15884782943986572, 0.06555900443727948, 0.04287795260677403
0.16280946117805833, 0.07857003609900803, 0.0457095611572009
0.1622305538123467, 0.09861113274159158, 0.045573587645751854
0.16913157254439656, 0.08092096645036063, 0.05044426542140355
0.1637145800813391, 0.08712154346846455, 0.04639505649469665
0.16072706085465582, 0.08431808198220343, 0.04430464794519017
0.1575914766500651, 0.09549728947411432, 0.0425218618717685
0.15946477997247968, 0.08966126636040261, 0.043526344946883795
0.1865195797983977, -0.003010828561205376, 0.07098060178486378
0.18588616206854897, 0.0036309612885655615, 0.07042997771493796
0.18467150482953024, 0.0011960332739462745, 0.06878677688120824
0.18046274414556038, -0.0014965969612809457, 0.0635913862601301
0.18744416352058407, -0.0292639335807823, 0.07147313221006829
0.18355448068928454, -0.026001229586288244, 0.06679201182818953
0.1809576789309564, -0.02871754919407823, 0.06383313069181856
0.18070229044308553, -0.019576597238355843, 0.06349592451230554
0.18388089971660007, -0.01721871530932662, 0.06721949745262551
0.1793767587713267, -0.02982195807101537, 0.062092481793917395
0.17440372757080636, -0.035396991918102014, 0.05681053001098885
0.1779853133997668, -0.024077736013051805, 0.06054209922912942
0.1793527333270213, -0.009661831121915394, 0.06208574393510635
0.17827025779949257, -0.007846441139948007, 0.06088957540204972
0.18223063159136033, 0.002229620422502206, 0.06582061776045088
0.18205786600920298, 0.005752742276791731, 0.06572245089769477
0.17912567663380646, -0.0018153501245137087, 0.062023662952666744
0.17890800210172178, 0.011012444536112356, 0.06213835505767227
0.18961116953071327, -0.04576578565852481, 0.07294873398122337
0.18541446520521962, -0.04056947678635579, 0.06850551704694073
0.1867853756603229, -0.05005931805555397, 0.0690589887221646
0.1822120428331213, -0.04591705176574438, 0.06449915837475907
0.19252178694682054, -0.07178457230973648, 0.07311323065970114
0.1887809765184115, -0.06240487679457418, 0.06971572672684936
0.1883641995050558, -0.07110903331911009, 0.06811870263700115
0.18554490206611934, -0.06456560468553549, 0.06591478514404049
0.1854138711261224, -0.07045517117387427, 0.06510181005426624
0.17936104816037957, -0.07651368531123265, 0.05891395627256544
0.18315758915178942, -0.0613945297790777, 0.06386612003212935
0.18112168413668311, -0.06295465835079923, 0.06177130982524443
0.1810638849711237, -0.05417584251955895, 0.06261708972452171
0.1834664055443726, -0.04692658294825853, 0.06574670903651023
0.1797887904783338, -0.0394000942485459, 0.06240380452096625
0.17550447523191015, -0.05332624550900779, 0.057334043033274905
0.1744091817507935, -0.04074101518895426, 0.05675706258084729
0.1797237732982218, -0.03846747268660572, 0.062376610721800264
0.17729572804547644, -0.04064464381139873, 0.05974149078775819
0.17285189325117983, -0.044363510758039584, 0.05518023949198269
0.1785204051630262, -0.06929213241062847, 0.058774621337782926
0.17286482875831868, -0.06928130844742719, 0.05362164368765425
0.17362637401082695, -0.05831737452293971, 0.055261185322431
0.17087370744163494, -0.07229621008922368, 0.05138123306131741
0.17538499421626597, -0.060520031268139984, 0.05670601792114374
0.1708109050107524, -0.0580088860790428, 0.05266348023582172
0.1634996143297133, -0.06799600393198094, 0.044869426295565944
0.17138955983017687, -0.06748873785184015, 0.05240679277909179
0.15709616128720585, -0.07272660649163312, 0.038715451066906825
0.16618223043708008, -0.06430895829760137, 0.04776326746085395
0.1630460376758288, -0.06171080849213381, 0.04499675577481357
0.16188303115006164, -0.055560907998683295, 0.044338710592751886
0.1577723925112867, -0.05751233062754131, 0.04050186738892127
0.16951203074331955, -0.04539125613184705, 0.05191054208698159
0.16427064613037973, -0.04714512644647863, 0.04688937280194129
0.15638286538532217, -0.05149814032565056, 0.03947705831309144
0.1651109441078092, -0.041658744035410145, 0.047647672409522945
0.16899027831491942, -0.0044013859195246845, 0.05087116781284204
0.16892502067669568, -0.0008152247998332359, 0.05095116365099685
0.1754582519558405, 0.008972030543066806, 0.05823356341720616
0.1651863722937772, -0.006085310689552644, 0.04708603025100486
0.1663466727874047, 0.004214387137440981, 0.048601987553975635
0.17064036920591832, 0.010834925588580348, 0.053160149137090315
0.17543701594561312, -0.03695567758336517, 0.05788975074211333
0.17079478327364694, -0.03539581368250349, 0.05311601251005251
0.16697540765338303, -0.04010071103296886, 0.04942723295470381
0.17628739993816622, -0.02646448041712742, 0.05873611861990454
0.17571406295695735, -0.014700340271703086, 0.058020757286338966
0.16737627203172695, -0.02893759794896324, 0.04962675041543792
0.17179571564570617, -0.025160365711640736, 0.0540082656208047
0.16838515793621703, -0.016475861272988914, 0.05037535249589927
0.16177627645594894, -0.039515689529791224, 0.0444815628903686
0.1684264430475347, -0.034688422351305245, 0.05075037366193898
0.16140019900126698, -0.034566349177510856, 0.04407268454835172
0.15454820657392243, -0.04395447568413777, 0.037951510517492085
0.15986031016351737, -0.03305458166812894, 0.04259752015864444
0.1567621421178008, -0.02853690037968222, 0.03971136662356536
0.1621637485751496, -0.024174197178024034, 0.04449413610586314
0.16012961620196586, -0.019611185549768456, 0.04248025470836315
0.16865533671333888, -0.011391788771707233, 0.050580427584656834
0.16156239050806664, -0.011753838815828813, 0.04366878772899808
0.15424570593117037, -0.017329803839713234, 0.03743613182988717
0.1602598790147108, -0.0035245126952654993, 0.042582709608226355
0.1617158916052078, 0.00320631897802957, 0.04420930816448912
0.16745762775738154, 0.008754871190627948, 0.04987841512166456
0.15635758038021022, -0.007167199590566812, 0.03924388113854242
0.16204552268614936, 0.002259427750083094, 0.04445640630835828
0.15295176243753728, -0.0002474085665855536, 0.03687574377409704
0.1609907614344671, 0.01088875018825333, 0.043957892280677355
0.1943896949306692, -0.085796483934766, 0.07383438963287771
0.19306239795426786, -0.07632086373106337, 0.07322424123494993
0.18790124773053338, -0.08514038112342548, 0.06617909926634255
0.19335989696899752, -0.11460448500426904, 0.06947306857095635
0.19301305778283545, -0.10777224866401286, 0.06965294442212165
0.19399587049108027, -0.10426201873937048, 0.07124046652992362
0.19333514246540062, -0.10088458848379536, 0.07075862368961269
0.1880690757956884, -0.11162330884384898, 0.06368370439968309
0.18864714167974936, -0.10272673389733931, 0.06510941677214345
0.19118415315919324, -0.10208059784693357, 0.06799202806594179
0.1838099916738249, -0.10536864119223309, 0.05993168117819929
0.18820728284024427, -0.09004739962063457, 0.06601835651242043
0.18808255107360214, -0.07357573013364933, 0.06751777208942711
0.18167492638636634, -0.09890053617325935, 0.058602854768654275
0.17960140354475998, -0.08355256409725154, 0.058479108167363084
0.1975386075060007, -0.1313823169215056, 0.07390385168891968
0.19691160791975718, -0.12109718476907465, 0.07366845644568262
0.19531470830135766, -0.13021024690096344, 0.07116444089812336
0.19474837604805362, -0.11742087553252391, 0.07105481863912756
0.199759085732499, -0.1589138579065757, 0.0737774556440991
0.1991246908389438, -0.15255048066345844, 0.07433219343746378
0.19592568961767315, -0.15461569393290625, 0.0703539206704269
0.1973593612506214, -0.13882487027492002, 0.0733862067887706
0.19540921941532016, -0.16373189616257808, 0.06871155265277416
0.19165812419830758, -0.15985753533577496, 0.06548593395850114
0.193235793037879, -0.15736731390112493, 0.06720483604248977
0.1940485409654881, -0.13993935721932796, 0.06953671685557554
0.18874108484858348, -0.14047872248187265, 0.06370660624846551
0.191023503615177, -0.13276012461750109, 0.06620925428103283
0.19260276296997805, -0.11774013587141843, 0.06839358685554692
0.19057243119428663, -0.12514112848462802, 0.06581751934846027
0.19023538323405742, -0.11694944517750913, 0.06574040962772211
0.18712887005801482, -0.12723494862016424, 0.06210468402630093
0.18337725371787197, -0.1309899618542443, 0.058163707485423356
0.1841170391721813, -0.12791560669452703, 0.05898298422565569
0.1924107324300835, -0.15895624310764778, 0.0662060422208579
0.18646717872166002, -0.15646050534646996, 0.06090892864977448
0.1855142064891597, -0.15659860830435157, 0.05998570942048127
0.18848165995542226, -0.13778322597329828, 0.06343991017186906
0.1807836982375437, -0.15351241438679045, 0.05598349067113742
0.18520957216828246, -0.1338035575166279, 0.05999998806387498
0.18015312650483387, -0.1429122046865458, 0.05492388615953914
0.18309286437296163, -0.15391116771359525, 0.05801213207743269
0.17145944313772363, -0.1567993554581552, 0.051385198876684524
0.17681140936493805, -0.15094140097229725, 0.05289196188227774
0.18359594958168826, -0.14648138840050268, 0.058156070025917286
0.17306522329868212, -0.14879750226240954, 0.049997164635080284
0.17314878183028606, -0.13902998178627635, 0.04880592715426944
0.1818863358702829, -0.1338004559792004, 0.05661433862128077
0.16778995639488825, -0.14086348029056972, 0.045632677220904444
0.1794926983656554, -0.1276386889546966, 0.05439377657873544
0.17619629318629856, -0.12921374028662205, 0.05124610213351656
0.1683305646145717, -0.13007598847842955, 0.04497839299708087
0.18248023486628728, -0.0872740742671736, 0.06076237804045451
0.1774158169420566, -0.09666548902218458, 0.05473996540038038
0.17723625259011877, -0.08230140516670285, 0.05636831170836658
0.17094640461978408, -0.0886239172819666, 0.049311499333254356
0.17719914876221102, -0.0877640201327586, 0.05573163831516558
0.17806360850489242, -0.07849936522858231, 0.05755959633001921
0.18744107465114268, -0.11624062850814498, 0.06279069214160503
0.17886246574186865, -0.11998677817441412, 0.05401605283374871
0.18196007430460748, -0.1164293602735008, 0.057222968650160334
0.1800588753105636, -0.11355561719308505, 0.05551913185434834
0.18523904189302265, -0.09908635124630079, 0.062044784438837416
0.17999234186664753, -0.10879337994602917, 0.05578166334391061
0.17628218846533147, -0.11382547074149374, 0.051850249302854534
0.17898341742908871, -0.09902898146748683, 0.055945861086751925
0.17056343460904408, -0.11834845444117664, 0.046405171414565974
0.17961567357442954, -0.11419129771139289, 0.05504980409381549
0.17353847780922543, -0.11627429362492211, 0.04917701588523041
0.1699030397487217, -0.1102556851200061, 0.04598323833801189
0.17557954043206975, -0.10674600550537908, 0.05167425254854397
0.17108334240200446, -0.10274366599264842, 0.04767080396882094
0.16569099285813282, -0.11110568731443306, 0.042547556561958584
0.17218688416055103, -0.09859090628162218, 0.0491052391395541
0.17437808204720953, -0.09446064681163255, 0.05196547335909045
0.16227181227731707, -0.10395117256275077, 0.03985246419287356
0.16699704742852794, -0.0940205928490002, 0.044516623134354776
0.1741486884666285, -0.0828239299120732, 0.053362117201338134
0.1643765252037846, -0.07856650726261881, 0.044342937420845205
0.17198612929778678, -0.07006121623357933, 0.05269073762699351
0.16078159714203502, -0.09497986347078337, 0.039174360827535344
0.16607623541271455, -0.08531606115283073, 0.04490350088881323
0.1596984445644729, -0.08221631427485293, 0.03982115077933671
0.16683911949834063, -0.07509377738820314, 0.047205294301740766
0.00802112611448298, 0.02853727840583932, 0.00010715836314872486
0.018132822291526726, 0.011538333851515549, 0.00037947333396546104
0.010512329120536238, 0.04099821215889322, 0.0004634540915438972
0.013047873896738872, 0.025226347594606523, 6.764869539115388e-05
0.01687541234525187, 0.02500270363226833, 0.0001451722419132023
0.013528986248182346, 0.03407322748870281, 0.00024021436676739132
0.0017549682514764549, 0.05090631656440608, 0.0011720279344736217
0.023506316619876892, 0.035009539405479385, 0.000577574369467112
0.01629003901740559, 0.0512768302835261, 0.0013204515978432493
0.016614914986831462, 0.04922846669965474, 0.0011755021369822152
0.028376237324325707, 0.04729357069047145, 0.0015907419113997778
0.032935093111112146, 0.0309000778495772, 0.0010315850322995873
0.029953937681747773, 0.039481491683184794, 0.0011620306696938742
0.03515226342905636, 0.02723035008469057, 0.0012487285361040264
0.0371878874721291, 0.025105495227261684, 0.0014553928236113814
0.025498860857418613, 0.02451162698752473, 0.0004964679941346352
0.021057101857854036, 0.034907811044067934, 0.0004482942128416809
0.018819246772296384, 0.027571092439036188, 0.0002049080096191303
0.028366934871130272, 0.013122060309238579, 0.0008595978215358364
0.02241003919549428, 0.01728450833427788, 0.0003431203791089679
0.03288494579756174, 0.01914545995739726, 0.0010183047957255218
0.02518270650682334, 0.029002802911508016, 0.0004998145847504768
0.014116095951907402, 0.04515465716464697, 0.0008100663718459627
0.013357650917888559, 0.055744165632989236, 0.0016669322776642892
0.015530853970201614, 0.05219792951470907, 0.0013843976666810375
0.0060429156904872995, 0.05733629158707436, 0.0017784573299560887
0.0163370198174219, 0.08314088139022346, 0.005443327648673738
0.003932246641888677, 0.08504049876446029, 0.005649117305406624
0.004349941653548864, 0.06932419949625071, 0.0032009054579924244
0.013147494420489958, 0.06477991998166065, 0.002672840802588066
0.015230926689754308, 0.07293081652160201, 0.0038393333425504666
0.0020384826847627273, 0.07795849702923516, 0.0044830727908471155
0.024084170841253083, 0.09592364512411769, 0.007822022788557446
0.0371960927719026, 0.08428658970048454, 0.006563516525862872
0.02040845631790877, 0.09313679259356225, 0.007224887892308745
0.027631779214068522, 0.0828098380592711, 0.0057770639575755525
0.027216499262332917, 0.08372346088708388, 0.005904113581354921
0.019406936116469573, 0.08686831276754106, 0.006112112639055752
0.024085370395687318, 0.07510339930653233, 0.004459436993281583
0.033628761870386464, 0.07626179270858402, 0.005130790481754258
0.02731185973016865, 0.08808878823821856, 0.006584384733557328
0.035598736274190426, 0.062363862905296344, 0.0035497462506836252
0.029263885842480394, 0.07826913516874105, 0.005164179427536459
0.01400866200511663, 0.07859232993695436, 0.004653806873513773
0.026294335213464057, 0.06414840594675492, 0.0031416206735133605
0.02378634320737032, 0.04338781682427542, 0.001018288999352154
0.030661276496327987, 0.04274606164042066, 0.0013878949205566305
0.020359274090467797, 0.05510489191900994, 0.001839404584453522
0.018749224960091238, 0.06956447051816576, 0.003473128285816066
0.02306646976182121, 0.05544083368700378, 0.001996973934676586
0.03271471243769051, 0.04573447034976191, 0.0017437978279197727
0.027520141442967563, 0.06104800211218553, 0.0028312461041876025
0.02932130407923331, 0.05470782170490866, 0.002291086213773476
0.03341281561252553, 0.05867715941251236, 0.002966118979936539
0.025119272506742348, 0.06917742126220182, 0.0037012522723112386
0.046077146303128466, 0.057265862992798636, 0.00414165806870169
0.04118320435338248, 0.06328761536292488, 0.004170954926231557
0.04667213121634138, 0.06960748127453152, 0.005455993246486157
0.05734045878936783, 0.05594146563908853, 0.005619520656183526
0.06125621386480201, 0.05302497673246327, 0.006037633927969018
0.05356008421158778, 0.09601604053401214, 0.009789026691081983
0.060677721941045294, 0.08062043939406635, 0.008586632088185449
0.0368229932362693, 0.09374276634076643, 0.008050968559802673
0.04370800856922766, 0.08432265073674815, 0.007038277309477718
0.04771860669738446, 0.06439991575174409, 0.005027156595943719
0.03878515635456388, 0.0799701724367784, 0.00602128438037437
0.03955442753309559, 0.08618650012946465, 0.007009983077237428
0.05210190471407596, 0.07135687378207256, 0.006273309170410125
0.0472270246831349, 0.0783477462962145, 0.0065960805871367965
0.060217077890575746, 0.0645653706561673, 0.006823745933596523
0.05218952433270288, 0.08237526848503592, 0.007676215246990274
0.0546218839876937, 0.07317950195385602, 0.006820751155441801
0.0727215699196926, 0.09506316764684365, 0.012403359090339607
0.08011520934761, 0.0805066162486973, 0.012067728511888566
0.06599636053560463, 0.08083702211499103, 0.009430673734271134
0.05784465787065919, 0.09421707947176602, 0.010069194639496426
0.06549088778563715, 0.07444842605002208, 0.00864592349942794
0.06191554009833537, 0.08594110016609129, 0.009442549491937922
0.07584742615224176, 0.07501911529435487, 0.010662626248117715
0.06975101470033575, 0.08461207510092549, 0.010558774417793211
0.0819114627402556, 0.06158051427117843, 0.010962127572824528
0.07436318460303015, 0.06872482308018432, 0.009773948248398905
0.07073719589394632, 0.07699650947532644, 0.009878826531489871
0.06093718314328822, 0.07779540770079976, 0.008299556831065286
0.06873288697646295, 0.0663045811972895, 0.008506289126318272
0.0688291164966693, 0.05487055691579684, 0.007626992202522707
0.06037719648629572, 0.06980163278536602, 0.007326104784939617
0.0680718920330585, 0.06782243702541035, 0.008503460870332012
0.07862851606398663, 0.05298395282695926, 0.009630519480836146
0.07791749427527508, 0.05381592386639861, 0.009520156825194533
0.048536832430118734, 0.012466538100041268, 0.0028887849304503614
0.035552912121437776, 0.029600740702748, 0.0013033760822857559
0.061019667948513434, 0.01049440042000496, 0.004660979748016965
0.05176063824883885, 0.029625980144591058, 0.003315320907534002
0.06286091963149422, 0.041661954616711225, 0.005585560202390053
0.0603248597301486, 0.042113633069775294, 0.005185729992434118
0.05283372945265237, 0.05969838340010253, 0.005196037501702545
0.050190021776322424, 0.04314880858966748, 0.0036395251518539047
0.03814327461453276, 0.05880972850575762, 0.00342987791733317
0.04197921546697482, 0.04104828203151322, 0.0023896385669002302
0.03890637052454966, 0.03793809997347184, 0.0019448464936349834
0.04742686539986406, 0.021043699541014205, 0.002645057865431331
0.04291866444935807, 0.03751447457764939, 0.0023589776762581935
0.03828284073814784, 0.051247598267237446, 0.00271325067135823
0.04779064615744623, 0.03745847028486518, 0.003031101302054196
0.05807392213615578, 0.021371013113751593, 0.004183820315337735
0.05457829257785814, 0.02150715559662486, 0.0036377852179790833
0.0565585833315918, 0.03358659872317771, 0.004194631592228206
0.04882097650243601, 0.0460171534688867, 0.0036417397368783697
0.0819591389568366, 0.04239307064824912, 0.009759838997325574
0.07340896431126032, 0.052862971610939294, 0.008403284463988482
0.06661776595392299, 0.046949985668695474, 0.006649306955573562
0.06704168358738652, 0.0423589471759231, 0.0064604779140688354
0.05755699776592947, 0.061149636976934665, 0.006058743067486509
0.05722853271718931, 0.051410174910982064, 0.005231443901108265
0.06828753063159594, 0.034782584837924284, 0.006343797834872484
0.07677626571262153, 0.03237404946427115, 0.008030966925393658
0.06646212797202578, 0.050527073434260286, 0.006833218130746535
0.06934111543828526, 0.048367816481429064, 0.007288948917214141
0.07435602435076344, 0.020590889558122355, 0.00708490119691469
0.07270978646602193, 0.04017426343236655, 0.007491904761799326
0.06426571081551842, 0.02647801169986224, 0.005299439265386891
0.05765945020086325, 0.0365781105433504, 0.004490784555049371
0.06242061937992958, 0.02970979797174514, 0.005036605091861284
0.05985274398243337, 0.02566018186633786, 0.004530216430992221
0.06632764564697985, 0.011777458042611445, 0.005527399712016106
0.07513284543437274, 0.013031888964380397, 0.007130133156163038
0.06830280395543338, 0.02570402701392674, 0.00603138072761304
0.00594981991176258, 0.016102398621699217, 0.0002167955831046423
0.010158006974885501, 0.0199360650897777, 2.9775898312731986e-05
0.015739308038606924, 0.000647442802451131, 0.0008923597044931828
0.008879687882725067, 0.007819787468560758, 0.00041664701234351534
0.014808486508425362, -0.006477085517225211, 0.001406530055961788
0.030841416485636743, 0.016645278052968553, 0.0009298234221652398
0.02882307791488832, 0.019024338728150517, 0.000727596116800277
0.03220406630018185, 0.0032755896947035453, 0.0015387362415274237
0.02933111398849449, -0.000637761797095629, 0.0015583051291384628
0.020701260620571746, 0.015319863406921496, 0.000332259179595054
0.028401204607188014, 0.004927962798029515, 0.0011974519110007859
0.03181938837521621, 0.0007023285237737062, 0.0016374399776628214
0.03283892006575498, -0.011198661039861632, 0.0024620930857784124
0.02544971623449594, -0.005108123002455626, 0.001621949293434069
0.020579053454368, 0.007893335592318194, 0.0005861225129571919
0.033034848954768305, -0.01636066249937761, 0.0028341185366246766
0.03571651163372218, -0.018509893455080535, 0.003151899026144464
0.027623994762095785, -0.006714823033381044, 0.0018506673078259937
0.023936667321430904, -0.013597845308758873, 0.002200863068302636
0.038566926059123555, -0.031131878738831952, 0.004188644721332428
0.025283203609252083, -0.01943173732263398, 0.002742499898475046
0.02180377230772919, -0.02100577631400359, 0.002770062479603732
0.014240789559499398, -0.0027225681900378065, 0.0010873795799876517
0.017495666380987845, -0.01271761942179454, 0.0019845717210998435
0.022017777638995165, -0.03089917888007998, 0.0036528966352332767
0.010455394085494413, -0.006482298784304547, 0.0013634154294790263
0.005749657885275554, -0.003558435477752248, 0.0011922390631315819
0.013271279686280332, -0.014911459500932651, 0.002127201669079336
0.012691641388712191, -0.029547471848678952, 0.003576685306464026
0.008191950871950607, -0.01908431577016916, 0.0025814327728554227
0.05191831657877451, 0.011592638802185886, 0.003326837801968929
0.05254478489263593, 0.019749502094692273, 0.0033200340154569147
0.05565181679847841, -0.0004497532668065232, 0.0041499152787318
0.04548202224659517, 0.004483660648307925, 0.002748056618280952
0.03824651480166597, 0.015282577080215699, 0.001650668365790519
0.05456103179353865, -0.008156260600476185, 0.004297219838142874
0.05870447590545807, -0.007884501284704729, 0.004798989278145512
0.04740590595214034, 0.008305345465760358, 0.002847471616406154
0.04195029786400262, 0.005800473896350876, 0.0023102029855498014
0.04652166030180234, -0.010309182927829947, 0.0035307359785407377
0.07368973481776661, 0.003853206741654371, 0.0068246705758786465
0.07732041831338918, 0.00443659977944772, 0.0074805936849407775
0.06785171621285542, 0.015530475407619124, 0.00578538936249476
0.06931526327952496, 0.002027679437912434, 0.006092487302513724
0.061342435813860834, 0.018931441908656158, 0.0046867005084697865
0.07276340254336457, -0.00025056940884569283, 0.006676255638643627
0.06627667808845518, -0.010282952433485634, 0.005924421902866853
0.06689557026572672, -0.00974204036358867, 0.0059985830099839555
0.06252331193352531, 0.00673486700114819, 0.004946457557115466
0.0643542096030322, -0.015925519299868823, 0.005853055601062338
0.07715303477186986, -0.008506419933424984, 0.00760795012875103
0.07011522295059958, -0.0074303839717437935, 0.0064069435898660996
0.06913691173286161, -0.0059441821760309295, 0.0062233235210371225
0.08019529728662778, -0.02121956386878015, 0.008360759416496841
0.06697683256502925, -0.025559188492904613, 0.006597823206598032
0.06793051481506217, -0.01706809238169757, 0.006412773592245954
0.055123503852514334, -0.027517247804087156, 0.00529174897336646
0.05286239250297227, -0.02514441848778501, 0.004907916417550308
0.05664145608043364, -0.0012417641335014879, 0.00430771106315796
0.05462476961528444, -0.018070502949594423, 0.004767280827452455
0.04935688395039815, -0.006703895227789313, 0.0036340847036124054
0.045848406984105416, -0.018492882323603032, 0.003905951180292392
0.037828898898165535, -0.002688743768641175, 0.0023254974840555918
0.03690476243735884, -0.002880298342900064, 0.002256323830022399
0.03522791787650843, -0.011583417049029944, 0.0026610660329459486
0.04448816219245355, -0.011770459783169781, 0.003404514901674011
0.057721193291731955, -0.017099237585921082, 0.005094685227574985
0.043487794696447556, -0.024464187396938553, 0.004066441380853739
0.04636224271772297, -0.022802601673813365, 0.0042129246765329085
0.04446082855500142, -0.03933792016663352, 0.005116024209562237
0.05923314854089118, -0.027429515423850925, 0.005736992571621643
0.04839366749196615, -0.04461983466214352, 0.005741651358058804
0.0629707012560279, -0.04243355735402861, 0.0069375217957726035
0.061988062321755286, -0.03991264877656605, 0.0066928959599901324
0.05561538926469812, -0.03745065498354681, 0.005890877600872645
0.07172725770601444, -0.02924743951130577, 0.007385541668735223
0.0826520104644583, -0.028264956617788443, 0.00899344158470751
0.06428521416270411, -0.03336317404837852, 0.006594690426296163
0.06453277736677379, -0.03968316332078082, 0.0069840826818712756
0.0582330862870429, -0.0465680705220895, 0.006739672594413361
0.0692510408252817, -0.037020211569491576, 0.007450658518408073
0.06349143126282594, -0.04954099611940206, 0.007470126439495128
0.08131719337683027, -0.03993636080075, 0.009327408238428703
0.07859711044106638, -0.03750487992531958, 0.008793589117604202
0.07715401638990294, -0.05032189807508794, 0.009339721373819746
0.06556803109676813, -0.056156262935579904, 0.008243699758037785
0.08054704823595313, -0.06377879827558676, 0.010951360936757764
0.06533644218366826, -0.06993971148704048, 0.009564992396897997
0.0675479462242121, -0.06675288582625975, 0.009488655817237469
0.07373897858588266, -0.05427634848638118, 0.00910350818598212
0.05516043269729987, -0.06600575913840255, 0.008100910039372843
0.06936068865227665, -0.04767216517702759, 0.008091924349614239
0.07078916186776579, -0.05311836765229884, 0.0086331692589851
0.05761121124274549, -0.05852822195302538, 0.007618641155020043
0.06288555387173317, -0.051309352237296005, 0.007521875288736395
0.04548608173220764, -0.05420684554347554, 0.006260936853444623
0.06258891019895402, -0.05401963620429779, 0.007693663397775498
0.05942217809900111, -0.06234533566084098, 0.008146661497320861
0.04821773414231903, -0.0648015072909883, 0.007432641380081099
0.00982200441208088, -0.022201395540130484, 0.002867824933409667
0.015074250791194843, -0.03938570592635659, 0.0044855128461564345
0.015897171706452096, -0.05066227052047518, 0.005531289098844535
0.012474398494688635, -0.04893483378971175, 0.0054445697350393035
0.009906393689853524, -0.03928355530078444, 0.0045771400562156644
0.048837427314057526, -0.03159387619568306, 0.004931289377496508
0.03980340148129516, -0.02897813699010328, 0.004095953516786816
0.04190776552798299, -0.022094898184374386, 0.0037825687830563034
0.052251856213244456, -0.03677331312378139, 0.005507780667216739
0.04151339643766727, -0.03523652693511059, 0.004622451507094423
0.040099679909984226, -0.043325861126486065, 0.005142112714563897
0.037996840058333294, -0.04115677884198516, 0.0048889573327904005
0.03223318730174148, -0.04005171793823421, 0.004582973799664342
0.028034202809388876, -0.02204627932775425, 0.0030537140108324824
0.02496289991025289, -0.041597178262707715, 0.004624217996171704
0.016340069641816304, -0.025089666712166385, 0.0031106119684592036
0.030457070198336177, -0.03987804219978017, 0.004527346210934316
0.026155342096434997, -0.03285934991969137, 0.003896118573859327
0.025917209051572344, -0.050780260262915364, 0.005422078557411309
0.019933735351226403, -0.03444521308287981, 0.003971582588935563
0.03229809350322077, -0.06734358817972022, 0.006990509147016042
0.051949168847922264, -0.06034609949025051, 0.0072584955067651145
0.050103309947433367, -0.06327642200456039, 0.007405926631757632
0.05124757576279577, -0.05183363293454339, 0.006452906447201114
0.038107633828154616, -0.05578128478863539, 0.006062678835720008
0.028279608441882657, -0.048177903021566354, 0.005196267855291323
0.028862048456216823, -0.050584498895661106, 0.005397038184409471
0.041325325021689896, -0.04782302781620031, 0.0055281312329437575
0.03898622859084108, -0.061405853304634515, 0.006603867843754183
0.028673950763135093, -0.06045502718455925, 0.006296593307758751
0.020354215516515707, -0.04783808928676327, 0.005179818850217878
0.01859071841755558, -0.0459620406668563, 0.005040314710488939
0.022825169436183484, -0.058913861733857625, 0.006179974401283948
0.029375387741278215, -0.07406459472529789, 0.007721790645225413
0.01929846640955554, -0.05905351808946633, 0.006242892459081361
0.00763559546777319, -0.048184023042195864, 0.005522700212058223
0.0016273613706664655, -0.04449272642794618, 0.005383870967208637
0.01600583897547622, -0.06260181337140926, 0.006689764655168956
0.015785363654266884, -0.07425762951647877, 0.0080207183922319
0.005666572646223837, -0.05937636196258777, 0.006749110736869872
0.0057681971777330966, -0.056745418277497725, 0.0064700906860275485
0.14780656158106215, -0.0051656929172125155, 0.033070683185369154
0.15735181183457916, 0.0048535103411403106, 0.040579809496888206
0.14934477608563848, -0.0016029103718796277, 0.0343029261905699
0.14185766020314544, -0.006511788146431934, 0.029232028752527107
0.14932001149680332, -0.027674446298095776, 0.03370397127112314
0.1563711606863081, -0.019369721813682843, 0.03919029722392658
0.1583286207110447, -0.011668221365440054, 0.0407904206097442
0.14807652491816475, -0.0143596511785683, 0.03290130162337912
0.13961035603486616, -0.031311979374678556, 0.02734301954853793
0.1515245730605053, -0.020233167660444515, 0.03533794504931749
0.1487462747349491, -0.012431048118364268, 0.03342280571152133
0.14083993436086206, -0.016756947444309268, 0.028220391260586404
0.1452017843798752, -0.02201180054871633, 0.030806241508208664
0.13108050543153651, -0.02329321040218518, 0.022855412348284955
0.12452619182811386, -0.028644323529332955, 0.020076218259377047
0.1372030036110035, -0.01842407632781541, 0.026093829858660444
0.14400069843940572, -0.008304685550032973, 0.03045264656382647
0.1304940750544954, -0.019524948781341374, 0.022634006753244576
0.13212433739911125, -0.016547114898585735, 0.023538387003465472
0.12756718439226353, -0.01446490745538849, 0.021501811590794666
0.13754153788679427, -0.0061403005466856495, 0.02671739077620841
0.13383308538721028, -0.004914404332941318, 0.024896438963471473
0.14496674473426607, 0.006193161982643353, 0.03186159795107562
0.1331015089804799, 0.001506498332385623, 0.02491379949190965
0.12256215152879382, -0.0057517008132035785, 0.019729008071522246
0.15875272006960628, -0.040235357696737986, 0.04170319835992135
0.14791573895053828, -0.04994977620380618, 0.03279492920701995
0.14708419192346384, -0.04047296753528221, 0.032105440472204455
0.1591833380184691, -0.028639729589773184, 0.041853696723082756
0.15368699595028817, -0.03995385468039317, 0.03718852251286486
0.1401470624681459, -0.05089137894873646, 0.028023833886775665
0.15135326435136834, -0.028979590004902658, 0.035255167050581945
0.141268982886733, -0.037129656571819575, 0.02843882434376299
0.14513391815132204, -0.03436327389577181, 0.030791534920468773
0.15200225022685482, -0.07199429227196716, 0.035275876381907864
0.16046887950213864, -0.06563169297158142, 0.042348373742524884
0.1498496360403444, -0.05964536376837201, 0.03416602789269198
0.15060088520862133, -0.05816356916107396, 0.0347544636676639
0.14337310485351215, -0.07143737028463301, 0.030259965948975488
0.15245922355964012, -0.06163077687671169, 0.036031434809414155
0.15349407195727524, -0.05533271595946825, 0.036968639082343616
0.14509693076458707, -0.055797538883435346, 0.031110886059443323
0.14623255741346047, -0.06101573030278194, 0.03181744968167673
0.1357271082377597, -0.06816916838272093, 0.02653342125978843
0.13018914977955717, -0.06499978042082717, 0.023990170182738926
0.13522477130334898, -0.0645990398342344, 0.026124399507027184
0.14490341100963214, -0.05464187564202143, 0.030971990723915092
0.13603560520323416, -0.05732189501912339, 0.026224073565697028
0.13796251751906308, -0.049925847391431855, 0.026891884110925954
0.12692605300616036, -0.055658828278498426, 0.022127890426260063
0.1425263200354362, -0.04338912850565155, 0.02932102601436405
0.13539604919815082, -0.0444733396702327, 0.02539069163820521
0.13258233906300215, -0.047370902620860925, 0.02408100157150484
0.13291807250080434, -0.03506188629541715, 0.023875685457128454
0.14638731334965976, -0.03149894578021044, 0.031551956127536224
0.13495999693229735, -0.04264202037783838, 0.025117284084789762
0.1246524054719985, -0.0485139300578943, 0.020798502503533
0.13420386128868914, -0.03264373664869155, 0.024492836318307554
0.12497022222427577, -0.03838147216924229, 0.02047617458424826
0.12445469926432992, -0.04248693122267094, 0.020399116555015737
0.1147325804175725, -0.05106089540942225, 0.017584859155258162
0.11370309110393845, -0.04851581277610714, 0.01708516050755554
0.10650809551226202, -0.04595917045866692, 0.014920105026958959
0.1211903116219345, -0.040731053819528865, 0.019089163484209797
0.13240255927670128, -0.06424319892365878, 0.024794167568948207
0.1174459566741784, -0.06634712026290862, 0.01965296390629412
0.1273865727452232, -0.04918110882716721, 0.021964438770420647
0.11613297654281585, -0.061456617804489785, 0.018831023144072027
0.1183501815546589, -0.053938134635625135, 0.01893354689414105
0.10731216443242, -0.06879736022050298, 0.01702882236243452
0.11963008162643268, -0.059705695651414196, 0.019804770812289093
0.10605773469702859, -0.058943041247037906, 0.0157635614092005
0.12158186352722355, -0.04542933634170859, 0.019447625801448185
0.09757202340531486, -0.06593121585422777, 0.014371237151778515
0.10855884199604596, -0.06160743221976897, 0.016676753777854044
0.11044453393509629, -0.0603933677883946, 0.017090076345758886
0.10099232215524133, -0.059820536397745316, 0.014590468443594604
0.08749893770580001, -0.06923922791334866, 0.012711895139529557
0.0926752059910475, -0.0599295618526062, 0.012755892286798489
0.07454058849756645, -0.06723732156874306, 0.010409241057562399
0.07453402030136973, -0.07421547482016631, 0.011172245130979863
0.09309187807657812, -0.04388605023996767, 0.011619210186366125
0.07459265106520266, -0.05855016433135379, 0.00959519652742449
0.10108885265182276, -0.05654309434035267, 0.014325651959549318
0.10798028119233077, -0.05104152889452847, 0.01566555255111251
0.11122841012123298, -0.052075055125259256, 0.016630032957306903
0.08871803660049576, -0.05569333637379545, 0.011651112233423197
0.10275412290767448, -0.05246663276455821, 0.014377707916943963
0.09683300694843025, -0.04713059097528037, 0.012655847057527467
0.10389844307606523, -0.04301926022090519, 0.014006522693958575
0.08397007932471987, -0.04827765224063754, 0.010243076844563971
0.09042422539516867, -0.045215287742085095, 0.011219304270824619
0.09622731749232762, -0.04131907517520471, 0.012163676181355765
0.08048555100597991, -0.04364265990181021, 0.009403495085680344
0.09178349478207352, -0.040259040521511344, 0.011185878300567234
0.11382940013600541, -0.005998212568145787, 0.01653203104296637
0.11192988243771447, -0.0026577311864622592, 0.01596730311623888
0.12248213031620382, -0.000994644336145856, 0.019925064869987234
0.12051367979942929, 0.0014043111605930572, 0.01926662320015555
0.10592422607239935, -0.004518967628140196, 0.014117050125918679
0.12541107520650355, -0.03069979394720904, 0.020461539777679557
0.11309714781887914, -0.035639085404377185, 0.01622748299408146
0.10476545621949879, -0.03591579895616445, 0.013921064922613951
0.10797556347640436, -0.03428913756036159, 0.014738615638970692
0.11800416949520948, -0.031096543826758923, 0.01771037506976028
0.11355248944222535, -0.02346996844140658, 0.016114127671321893
0.12447141514496467, -0.020076910895555296, 0.02006711592523195
0.11772855924408622, -0.015424181044515737, 0.01762614399928153
0.12734936351727438, -0.008015099832466411, 0.021663179948931126
0.12006883784932149, -0.01933766319005789, 0.018348863692484133
0.11664057792018435, -0.018602663187902657, 0.017204089800057113
0.10540203822538018, -0.02805886745456184, 0.013853908475802423
0.11695431357810085, -0.009742862272658874, 0.01748558911264868
0.10381838114682461, -0.020772652398934742, 0.013275950687743104
0.07399091782916513, -0.03701900082559025, 0.008070299571939051
0.09094135055824895, -0.029512954006655216, 0.010556924546117077
0.09042207174800138, -0.027360040020100222, 0.010397038363095426
0.10754610956502227, -0.029288572307120245, 0.014483003679348242
0.0965650824558579, -0.03306298793632498, 0.011848123946072715
0.08342033798519874, -0.03438912667877399, 0.009361779951663114
0.09997681916781878, -0.029405817716461315, 0.012521048394381468
0.09959648116954847, -0.023071263936501555, 0.012269287568775931
0.09784514953090556, -0.02288603394910771, 0.01185712607063309
0.109450017071222, -0.020551797317772423, 0.014882102982912409
0.10014024060686, -0.018746453034921756, 0.012364235330278764
0.08474883245794493, -0.030663018716505105, 0.00945124408281373
0.07618521390624547, -0.022643494750389806, 0.007781120545439255
0.09228232511604001, -0.02115234579284082, 0.01056201601308451
0.08876316788454745, -0.015649808268030647, 0.009839963788084386
0.07390273500640879, -0.018282029045093077, 0.007293030100172488
0.08810076523480481, -0.006078320977431607, 0.00966846916004353
0.095917643943642, -0.014210048928162758, 0.011341595167169684
0.11183325564763717, -0.009594835330913378, 0.015704551028059795
0.1081500864466004, -0.005718340901636466, 0.014756301690803176
0.08538359887893204, -0.014409245621459033, 0.009137750995749849
0.09731829651874728, -0.010234445539343976, 0.011681713231343788
0.09438953048026133, -0.003395204973661928, 0.011049948304951544
0.11026691982934508, 0.0007278476626095945, 0.015610376539962766
0.09882908294446308, 0.0013224554437342587, 0.01230938950287842
0.10108001473894178, 0.00024095024697481872, 0.012846340978001126
0.08656055585463766, -0.00132778700650655, 0.009315144365242427
0.07642289673771882, -0.0030129289894098212, 0.007390752414662021
0.09198108758393124, 0.005690295547032085, 0.010658165320765916
0.08175138538444493, 0.0034380918823777233, 0.008334021520365125
0.153441850089657, 0.09733949680977211, 0.04001653146601838
0.1538819003790319, 0.08895662716827109, 0.04000092782159856
0.1535585508424319, 0.07669566926903557, 0.039543358866816786
0.1449906087300794, 0.0955314829590416, 0.03509899045228737
0.14714444201245364, 0.0823812881015663, 0.03585777947222714
0.14971619022493693, 0.07436005005449747, 0.03720615549849685
0.1460429439690647, 0.08329491358291319, 0.03526442965586264
0.14937375647998763, 0.07791775934734622, 0.03707336686785305
0.15317356561896311, 0.0664286281064904, 0.03916280945044361
0.15314691491422078, 0.05311124823563706, 0.03900046505331644
0.14554188333208273, 0.0747028162802682, 0.03477322900597583
0.14725462111640808, 0.06276104328095064, 0.03553269192018277
0.1442265393654129, 0.06739641418705807, 0.033897097123722006
0.14722385061825383, 0.05495944102479414, 0.035370796582053214
0.1383061008374708, 0.06408057463903297, 0.03060991491937462
0.14490528743595865, 0.05117772952016251, 0.03390319152063498
0.12621564931304108, 0.070333719063924, 0.025214032454899688
0.1346249388839872, 0.0520807888185618, 0.028477084729888937
0.13494721791587394, 0.06201038738202469, 0.028927953681299433
0.1303257292913299, 0.07923195702312658, 0.027215044170636873
0.14278915716273574, 0.06382762617665244, 0.03304137040279122
0.13847142336866086, 0.07584363407234995, 0.031002167970881317
0.1437512858263362, 0.08320255745910418, 0.0340183384152737
0.13930809360387808, 0.09585045496225081, 0.03207497967344335
0.14326604464140935, 0.07302544648967263, 0.0335006318542322
0.13820638439806351, 0.0838088297874337, 0.031103068032726815
0.12937615653447093, 0.09328498996473569, 0.02733307412359608
0.13691058118882032, 0.0730293696880439, 0.030168388699128395
0.130491501194347, 0.08650528015482517, 0.02753178432696223
0.15164771659633786, 0.05757427998621266, 0.038085758340488385
0.15386078269751, 0.04206882659802522, 0.03933925983262271
0.15293383680021017, 0.03352455761994039, 0.038493076650061755
0.15080579459587784, 0.04470367909742213, 0.03734093807797795
0.1433187441277165, 0.06053788427524996, 0.03325417119530617
0.1464447299294258, 0.04235095918356471, 0.034579375543628374
