-0.2609139923213158, 0.09311216333990105, 0.038535243434058536
-0.26611269885309446, 0.09193708498497766, 0.03943821292012143
-0.2638920100819527, 0.08678502636942013, 0.03862600331810209
-0.27266142279512284, 0.08140432001392062, 0.040062780888944875
-0.25605439152701437, 0.0960453820768067, 0.038016159888316726
-0.25170898437940625, 0.09326944286415549, 0.03714002999479839
-0.25069027000514676, 0.0917869994957061, 0.03686067715657073
-0.24484273116249572, 0.09977034908301508, 0.03716719131702555
-0.255904073149271, 0.09770177714641162, 0.03826072843108913
-0.2639777410701113, 0.09632006411334923, 0.03930711549177614
-0.2744314122716123, 0.09375877196660837, 0.04095829869431115
-0.26099609338865226, 0.09925779708777091, 0.0391367516690106
-0.2656715719083632, 0.09763523445566889, 0.03965635609040479
-0.28243539779021576, 0.11193436531908095, 0.04297282101470735
-0.2888487742889967, 0.10763244784191447, 0.04363888184154306
-0.28937152737911054, 0.1094709086001478, 0.043654166757171056
-0.2846367715302882, 0.09434945659440314, 0.04297461284452581
-0.27886797459137047, 0.10138157117989086, 0.04196310686693563
-0.2851476857543225, 0.09904653702045732, 0.0430354632645427
-0.27019998135020096, 0.10865649257750754, 0.04142555226224746
-0.27218252374561464, 0.1110145188262357, 0.04196289608756264
-0.27160494407641356, 0.10576052854830126, 0.04134616902326487
-0.265929925538097, 0.10520294586774034, 0.04063809848106861
-0.2723659331900224, 0.10763499300953475, 0.04154366855795205
0.08936245814862309, 0.1319310694794637, 0.0557890894552195
0.06367908971740445, 0.13159209051480483, 0.05347047508912081
0.0742239569044492, 0.1286955299456427, 0.04831537465588894
0.03490336059876977, 0.12740421075413005, 0.047762639422911285
0.05595317250264738, 0.12769942984453614, 0.04757534614876817
0.03892161144487262, 0.12871913773750782, 0.04921810587670626
0.06843518566402489, 0.13127687170394947, 0.05227079807194516
0.054351051771362485, 0.12982870322121284, 0.05031056061667091
0.07619710934388721, 0.12994300176528692, 0.04996382041796575
0.07780449313737459, 0.13118945830464207, 0.05187608019810458
0.10439817514930333, 0.13176968358117014, 0.05193830712147581
0.09160042983320166, 0.13219555136690475, 0.05421823314449284
0.11941742797549257, 0.131653603895445, 0.05077566073808469
0.12596726542510628, 0.13216268277368354, 0.0511545728505213
0.13847404355075124, 0.1339487317476291, 0.05325404506694734
0.1646219733702379, 0.13550227962555933, 0.052520128989755444
0.19183937151833408, 0.13779616897718475, 0.05162568041888671
0.14821774069316457, 0.13475443782263868, 0.05423143575836053
0.15302560164729254, 0.13465506312523895, 0.05666997003797061
0.27003795031925404, 0.14861197348656474, 0.057917327817927605
0.28754883796982145, 0.15295037183314045, 0.05860310265642721
0.2903581753628668, 0.15593182458990684, 0.0556021002841774
0.2865725672553511, 0.15476943450536274, 0.057128212702402446
0.31596480790280107, 0.1495907089208959, 0.058701976225611505
0.31872441629487047, 0.1382898923184708, 0.05783239806476586
0.29820558546796816, 0.1570376524998299, 0.05811361010786598
0.29378221310800695, 0.15653148697829722, 0.05821770129045151
0.22021594754213114, 0.14232009509930604, 0.05881068018314957
0.25819623424053123, 0.14967951798718312, 0.0594221512216313
0.2433221820663658, 0.14444942924241824, 0.05709361891122004
0.22378691650805985, 0.1412614430036792, 0.057514225474363766
0.264386889839797, 0.1483883708160048, 0.05696115530955381
0.26593830035202254, 0.14769671917136745, 0.0571443646385201
0.2760873952765142, 0.15050913502749466, 0.057003578245800504
0.2120891421584945, 0.14100168982092806, 0.05866414220711892
0.16701887073154592, 0.13448274129008814, 0.05799488702859884
0.1968538813262527, 0.13766957936863172, 0.05792717269114595
0.2376503567776887, 0.1430127556277943, 0.05702002028663314
0.23852224323583587, 0.14222264895268028, 0.05726672277901808
0.21630798126416778, 0.13818195423264154, 0.05784648464949862
0.17973116576619075, 0.13484740924110564, 0.058354167184061875
0.17916931855514817, 0.1351243608104882, 0.05841906552040829
0.16381087693836513, 0.13528085644307003, 0.05701134513606078
0.16252595116066837, 0.13545033341339702, 0.05652047806698805
0.23691631436883354, 0.14502649578651558, 0.05339919190241056
0.2033004164779763, 0.14035550376075848, 0.053823745172058304
0.19819019717261932, 0.1393258529517931, 0.05667320815515039
0.1871573952560459, 0.1373093757230152, 0.05745121830315488
0.18182011514866206, 0.13778258470016672, 0.053920520547086806
0.20881030020316868, 0.1411831411113886, 0.05492830898921144
0.2019466614069428, 0.13839700928849147, 0.05806863983897976
0.2415994642043899, 0.14407596837545186, 0.05777133130544085
0.21482144685635257, 0.14191341750926526, 0.055516571188508904
0.20467611074032083, 0.13993954387678695, 0.05711828272939571
0.23885748831209935, 0.14479660884287798, 0.05706406787069012
0.2478598378314132, 0.14716723651654595, 0.05480993193945946
0.25782017035621796, 0.14856219467111625, 0.056456317660526195
0.27127457154591494, 0.15039852919991709, 0.05760533218713666
-0.18881986763202022, -0.1352392923491212, 0.06560842705815521
-0.16884792743046906, -0.13042823523966304, 0.0607143319338846
-0.17257523098302316, -0.13275803645040168, 0.06193979866196496
0.1415888407498846, -0.13037532361876492, 0.06269660169553516
0.16670669709445907, -0.1331583748100693, 0.06345149187847425
0.15549419613944174, -0.1322004933227106, 0.06418448252251936
0.18542811120028718, -0.13537196558582357, 0.06626875354069262
0.15739347967881945, -0.1324286353096007, 0.06660957927796955
0.18060553787211933, -0.12981342659659253, 0.07366035305859042
0.16603574654085168, -0.12731767602860145, 0.0759948252269188
0.16256188768886223, -0.12986300745786047, 0.07202917461036017
0.1761321287466527, -0.12992663806915117, 0.07320033103334449
0.14077401684167143, -0.10974401173108095, 0.09862944999106103
0.1350069373418467, -0.10610657796199348, 0.10266079042535917
0.11964224916857807, -0.10085092251962224, 0.1082842719019758
0.11780526162905124, -0.09844376976361305, 0.11011659829268258
0.14133462449816406, -0.12205862917895066, 0.08098029157953436
0.13195167915547118, -0.12206318878748973, 0.08007997599179639
0.13447577862070623, -0.11988517403712842, 0.08381876647525632
0.12003451770744453, -0.10940938644304776, 0.0999628732475821
0.11094277597876982, -0.10835607186471582, 0.10156252450139511
0.11898597391362825, -0.10690616557426114, 0.1025843163042186
0.1007917381319774, -0.10123681990049035, 0.10892126239935597
0.0949937978771996, -0.09939470557754465, 0.11049238135769063
0.12587018466204317, -0.1048187971268714, 0.10440584512821995
0.12001776063064684, -0.106731975742953, 0.10270997968595437
0.10224162227198563, -0.10311258387396455, 0.10728377474864415
0.0993652447252162, -0.10452004928562443, 0.10594596518081487
0.07154185834562524, -0.0992240628859215, 0.11110867906123655
0.07739694717333986, -0.0967609191633788, 0.11301349024351548
0.10107243619960363, -0.10697679053878384, 0.10338100863922946
0.09905596031520031, -0.10875661894840137, 0.10159715093012918
0.053250876560874544, -0.10902446749482601, 0.09994325898551058
0.05455127739929727, -0.11239320504967487, 0.09500978275146135
0.06268207640061219, -0.10885070076362488, 0.10077933241325318
0.06298452212849004, -0.1100410347421957, 0.09914340172419621
0.07684246594617447, -0.11808181047708576, 0.08782889881986458
0.07867751196321242, -0.11861102148128866, 0.08706664838779912
0.08388954984399483, -0.11786940285883668, 0.08844291116013872
0.0804051380047676, -0.1153863919651694, 0.09232505799637312
0.06270534924077752, -0.11408457142897016, 0.0931609454926112
0.06524284970059395, -0.11654776419636127, 0.08953428433779267
0.08071539566993058, -0.10906592644757157, 0.10127511081398585
0.08584605322715114, -0.11333044644034711, 0.09568904969072682
0.07698539424309314, -0.11350803606256608, 0.09502670946372727
0.07575730900432243, -0.11335487222390209, 0.09517908811190148
0.09323757549859135, -0.11709462371848156, 0.08989454615111073
0.0994526351690934, -0.11891291007126052, 0.08678198549624705
0.10399262161773849, -0.11791691771268609, 0.08834436792009517
0.10414343253217129, -0.11589981491979062, 0.09165148965256377
0.10237669718243261, -0.11237183416842902, 0.09675526490063588
0.09848541433350516, -0.11056740522629635, 0.09931155315836271
0.09921046504454828, -0.11445653275729377, 0.09398715933664814
0.0943070173056295, -0.1145129132189773, 0.09403194729205538
0.12166586730620751, -0.11783731246728553, 0.08674697615521522
0.11575691519501226, -0.11757381198700098, 0.08779764861732217
0.11964166161402609, -0.11889780982539674, 0.08517326468416063
0.1104944758213177, -0.11319283025928882, 0.09520955541768604
0.12047465253045217, -0.11348648638823633, 0.09391748063637766
0.12073375543485837, -0.11137303578683452, 0.09705611709408243
0.1151479670067024, -0.11087377112348042, 0.09809941107605052
0.13890082296053258, -0.11648698602357643, 0.08939300895555444
0.12829656040916065, -0.11508800563802137, 0.09131896662848188
0.13324536410119675, -0.11762900512380992, 0.08753587195458998
0.12593878792912502, -0.1187621714134511, 0.08498815358724411
0.14359487601191706, -0.1155338947355659, 0.09086877947953305
0.1437685576512944, -0.11255071874891227, 0.09483662175358948
0.13597136003857416, -0.11528537899910293, 0.09113221645168167
0.1352904773387533, -0.11468465998588137, 0.09201200411364321
0.16031830451356255, -0.12148007072125962, 0.0834248405892111
0.1465406327670498, -0.11854773079661957, 0.08664428060927988
0.1619710842993275, -0.12106659910133014, 0.08406554038665215
0.15873588917167641, -0.11972570338501753, 0.08572089740755177
0.15062166374082056, -0.11196423483037987, 0.0956502875131772
0.15227823710936994, -0.11197190598383491, 0.09556730178321089
0.15157403080668228, -0.11420979542820411, 0.09270686974596781
0.162364756420951, -0.11651293263641489, 0.08981459454456354
0.21174959302132434, -0.1107988190811878, 0.09092799395360371
0.21959862532258148, -0.11182662393390587, 0.089290851651973
0.20684216147246276, -0.10925188916789458, 0.09258717831574338
0.2167076323313028, -0.11413176670809075, 0.08812570198443624
0.21418041815915376, -0.1123176531125508, 0.08960852693364661
0.20030624022159538, -0.11206724246547999, 0.09131301203048246
0.19780164828931035, -0.11421287027726695, 0.08963763361279911
0.19298699558449456, -0.10911546625174953, 0.09492287042925887
0.19046023520495822, -0.11065098779936172, 0.0940553756095937
0.13256519319455662, -0.10114204885937325, 0.10729076089435313
0.1336361199946572, -0.10206048559330505, 0.10656921953642462
0.1325350434236092, -0.09698631492790458, 0.11023366097970698
0.1448430646404191, -0.10931030586840058, 0.09887738489790615
0.14447588185405147, -0.10874978178305392, 0.09945669781263736
0.14104338978032735, -0.09947593848072031, 0.10789082545408321
0.13253387498827324, -0.09597521983252323, 0.11094422733787962
0.143699254230616, -0.09269137478207391, 0.11196449058160798
0.14126720860161107, -0.09231770799988047, 0.11233015957344003
0.1298329820905486, -0.08924627130457058, 0.11468328385924498
0.13319179169267575, -0.08522185307723347, 0.11627495371479941
0.14759663456958688, -0.08525837447220883, 0.11505830384765688
0.1372403670089394, -0.08673765852724866, 0.11529198734518699
0.14861363417068196, -0.0909335515866424, 0.11238389685853475
0.15668739306861454, -0.08115556445465165, 0.11539930217294907
0.1578305389089915, -0.0831523501778786, 0.11459593725786983
0.16101306105784952, -0.09009817592035191, 0.11140444566075498
0.16449941789017838, -0.0878958779419181, 0.11196809296242756
0.16871548340685527, -0.08772791846938709, 0.11153258255507745
0.20352347449968153, -0.06398791319187513, 0.1085519266113496
0.19847000375045087, -0.06069415704006312, 0.11040691538461125
0.19255463578227955, -0.06691546886628107, 0.11167280596361216
0.19320051601557692, -0.0604273629032885, 0.11205857185199904
0.24305886570553747, -0.07462917596739961, 0.09399421088080609
0.24165146210316416, -0.06888202708900686, 0.09489519373982641
0.22992891667597315, -0.06941570749522075, 0.09898031659525271
0.23625544717816757, -0.0724459742219322, 0.0965327221511865
0.21395631094251744, -0.0745503019868346, 0.10390545893442812
0.21749541344250128, -0.07237328320406151, 0.10300364288618738
0.22575488402712898, -0.06755220072078716, 0.10058944117814887
0.21628422604310793, -0.06884915386059712, 0.10381226729196764
0.2182912343549248, -0.08246704048368175, 0.10111089453025544
0.21828930700098007, -0.08084421028288957, 0.10146603838135274
0.21467124333977367, -0.08771457512764652, 0.10101808781683679
0.20983289581778036, -0.0853049290575999, 0.10309236687731624
0.21707519652590052, -0.07630816174273702, 0.10261409406289296
0.223539525504227, -0.07627989405194793, 0.10044226218914809
0.19986795906265842, -0.07106179852962884, 0.10886475949366359
0.20692747357714272, -0.0675834341693893, 0.10715106897873902
0.1924493137278652, -0.06857719288209965, 0.11148145996239112
0.19777999852479342, -0.07294915623912177, 0.10918843964791171
0.17137127638363597, -0.0779078013692655, 0.1144643236447074
0.17157548616320378, -0.07990370466890248, 0.11379804273127053
0.17696863337631114, -0.08259812679682967, 0.11190812039151815
0.18577237385859946, -0.09274878720590936, 0.10643302257607089
0.1862670630628368, -0.08773020521662259, 0.10832373456160269
0.204774838463479, -0.09097388394430389, 0.10267881710129739
0.20843686649197665, -0.09215436251025999, 0.10129699796030608
0.1956449952725585, -0.07969656848057097, 0.108478313278171
0.19177383253463323, -0.08100912249402314, 0.10918624528562892
0.2065654072340498, -0.08187355920412277, 0.10481780056858789
0.1966890003544181, -0.07676266107388048, 0.10885101655267057
0.20555206709354537, -0.08201283108572348, 0.10508660949828276
0.19787941160109318, -0.10558262684748629, 0.09683161616465583
0.19621275536308996, -0.10539768759752696, 0.09727963513787727
0.19699137019772717, -0.10118164195259058, 0.09984121521136129
0.1899401253342054, -0.10061054994036944, 0.10149315378020698
0.1907575212186918, -0.08781194833456477, 0.10737988789520707
0.19964682733841355, -0.09349226434224504, 0.10301098583664307
0.19761417584688606, -0.09630373717621254, 0.10224646362626774
0.20260849273251821, -0.09694549369477837, 0.10076570666809945
0.20662537203940146, -0.09946256002888758, 0.09863790393629174
0.16574322048763745, -0.09635421472890306, 0.10769504350113901
0.16055146630437414, -0.0955705665400471, 0.10876471597856337
0.15517118214524658, -0.08933975455449279, 0.1124279380208715
0.15678214512228705, -0.09261442778047269, 0.11070670764120755
0.18394615826051297, -0.10070470795802342, 0.10248938700119374
0.18785355461972575, -0.09662038624891382, 0.10414018925010915
0.184210028381326, -0.09484635788113921, 0.10575281181880014
0.17595052477475087, -0.0903942028890303, 0.10916730745542227
0.17776783252346987, -0.08983682286359232, 0.10911672282936974
0.16166151271201673, -0.10834835612628553, 0.0989188742281038
0.16461284988503888, -0.1093098790296442, 0.097798923899451
0.16265197898241512, -0.1056299269222251, 0.10132098467036055
0.16511476020740165, -0.10289876415009805, 0.10354149645536262
0.15228206206063846, -0.09933517932699974, 0.10710327648227808
0.1799875544032765, -0.1018905940953942, 0.10233166327295688
0.1774176809229513, -0.10118046775476147, 0.10312346894476139
0.18656756510327244, -0.1047268978643316, 0.09943437407609437
0.18580062083722176, -0.1071874724722022, 0.09755273760914002
0.17458941678136497, -0.10387512132739789, 0.10166133927594932
0.16776205847647593, -0.10819904885517011, 0.09855725050945313
0.16707789113461852, -0.10940172946084503, 0.09751442796570309
0.18850338025140398, -0.1152625096743137, 0.0896394132809899
0.18799039430248604, -0.11637968655953941, 0.08847668521445418
0.16505235151843314, -0.1124329904383351, 0.09445932393134046
0.16993675406296313, -0.11559765225720217, 0.09055465075154602
0.1815900929062209, -0.11448697310714123, 0.09111471151559708
0.18366331287733062, -0.11490159458131768, 0.09050729824840084
0.17894375110736402, -0.11106197920208627, 0.09501754619681496
0.15833241621882455, -0.10929617849726812, 0.0982127488216499
0.14890314302641117, -0.10634902341093085, 0.10159623209167074
0.19396784158063274, -0.11994906454601785, 0.08418908531211203
0.20223908194670287, -0.11878648572153847, 0.08451639912494437
0.1826120938686549, -0.12219841380663424, 0.08235554493925465
0.18364507394207344, -0.12049851535680708, 0.0842562931595437
0.16971893929162835, -0.11985202787219068, 0.08553109577356482
0.1706602533374006, -0.12134889279894132, 0.08363035491786182
0.17991695817166398, -0.11817529371090942, 0.0871088964501042
0.17372650480622415, -0.11795822779694023, 0.08764668452917798
0.1979000178802976, -0.12560326627813437, 0.07789883543328655
0.19727633607145562, -0.12415434426928465, 0.07942721084017171
-0.3139944495319219, -0.14677886267159615, 0.06994812692050294
-0.3186247457511524, -0.14815552492408163, 0.06992143025490581
-0.29644539460175723, -0.08914634040305408, 0.07670479113439284
-0.2930881731739754, -0.08128843004489326, 0.07789196285273123
-0.2978197445774825, -0.10294190191015015, 0.0758904870771632
-0.2908360426670746, -0.10245322554770545, 0.07797963830625895
-0.29428168752093986, -0.10831029582818161, 0.07666398073606595
-0.29483299916579, -0.09239778967848952, 0.07726314063826731
-0.2244679487098486, -0.12192246298302417, 0.08081836917673038
-0.21921836011547424, -0.12081175325184317, 0.08182253251762159
-0.22211642863227232, -0.11921335183984104, 0.08311962524192873
-0.20574191393339775, -0.11927882038397601, 0.08402405175920592
-0.20297118580168305, -0.12220778274785649, 0.08136238738420605
-0.1922509550335959, -0.12274740366398124, 0.08119825767817469
-0.19805500452697872, -0.12343928606792484, 0.08029123927639165
-0.21281683813648336, -0.11597582497320214, 0.0861755417378141
-0.21267339670115418, -0.11726753235730478, 0.08526739351780195
-0.2095727742838593, -0.11752979518685913, 0.08532089385235
-0.20931053169048677, -0.11315089380187124, 0.0890079707769287
-0.2083726235726143, -0.115357526196361, 0.08716646210034887
-0.1725950439080303, -0.12140719793493387, 0.08326218578464349
-0.17607715622151793, -0.12149060137870604, 0.0830700019160678
-0.19097153535516623, -0.11808124817194783, 0.08627691339384369
-0.18942725911335972, -0.11752503684768328, 0.08706344285275952
-0.19422756389062093, -0.11723456699927615, 0.08696249733141384
-0.18993887587253255, -0.11666279241695686, 0.08786655485515621
-0.1462383452110964, -0.12692418586899146, 0.07462613714032142
-0.17692159692644138, -0.1267801440722922, 0.07628745469034968
-0.16529294440386672, -0.1292162705677177, 0.0728533633579987
-0.15084188398907009, -0.12899642018894375, 0.07177609018125336
-0.18280281863333625, -0.1323182852603636, 0.0691793924140699
-0.20270690145198716, -0.13232497944012883, 0.07181808105421662
-0.17541719081540377, -0.13117839224644526, 0.07042256062611368
0.15641087187134084, -0.13101934850338837, 0.06188977076830238
0.3198038380845882, 0.1361848958476163, 0.05656282631662591
-0.20558826705181435, -0.13792725947094503, 0.06374354979285457
-0.18791704012790375, -0.1348783293930274, 0.06249663207027403
-0.1220613722201776, -0.12964733926396768, 0.06423650161709868
-0.10699977106388966, -0.1288830134235897, 0.06523648084234976
-0.12572820192143463, -0.13000239728501167, 0.0650991979612411
-0.16378023412522277, -0.13292591102095971, 0.06439274794219899
-0.1441493088215974, -0.1306807136220252, 0.06281504226173765
-0.16984015072222855, -0.1334120939833524, 0.06504331660394738
-0.1539453334251484, -0.13213077058392186, 0.06478865338201019
-0.1515020570930104, -0.131819585759949, 0.06667492393385377
-0.1694264925872373, -0.13292946485669616, 0.0671690143461516
-0.13829869556497482, -0.13013553544841244, 0.06828338067303391
-0.11520359454138082, -0.12852246871362005, 0.06859142865926737
-0.13560062328349382, -0.1298459187143385, 0.06855548763050347
-0.06943128388069547, -0.12524918048421055, 0.07433667696836525
-0.07743533143311253, -0.12496805548985504, 0.07472955502000743
-0.05825937042747938, -0.12342237150406891, 0.07804976742906419
-0.08387186883001059, -0.12218498294553494, 0.0798600428842375
-0.07342686198954126, -0.12348345482413006, 0.07782262303679771
-0.06955281559816187, -0.12257318450864464, 0.07982054470116484
-0.08517648436568202, -0.12564995473275384, 0.07320361873789435
-0.09004023813647982, -0.12322961963480447, 0.077611539566806
-0.09163056345256583, -0.12220628735394613, 0.07940570972823552
-0.0838952392625833, -0.12385576153567987, 0.07668450721362069
-0.09997944650022057, -0.12005781969859274, 0.08270791810478521
-0.07172169237270126, -0.12110155124127325, 0.08264807353648573
-0.06274990250312981, -0.1213191892851059, 0.08230788860495665
-0.048395505951683536, -0.12218176890245597, 0.08063436962043627
-0.05752721680989795, -0.1109398671349408, 0.09928462760198456
-0.06705835857006479, -0.10995209982629872, 0.10043873054702733
-0.05235076593205007, -0.11380119905423701, 0.09540550261145023
-0.04835106387238281, -0.1106164404172699, 0.09980313165456509
-0.052654288294111215, -0.11990178898570433, 0.08511186401896444
-0.053864866231284454, -0.12014471074545713, 0.0846562195098257
-0.03852586127052107, -0.11870132230357949, 0.08723314700830012
-0.050053210048384235, -0.1170760854721129, 0.09002973140602107
-0.06109042253837384, -0.11576726184653663, 0.09210135293910127
-0.059129084278051976, -0.1163457327957365, 0.09116460893257895
-0.06992417762003834, -0.11951884515444386, 0.08565229449198676
-0.07805399967975991, -0.11995343155883365, 0.08437070233770243
-0.10247121059513536, -0.11861114358312924, 0.08501031541497715
-0.09269819028141005, -0.12148074443001057, 0.08063610850887248
-0.11239950561992432, -0.11845772169247916, 0.0852870089568845
-0.1008188067512444, -0.11980419789091751, 0.0830867755348529
-0.10391919271636223, -0.12534568676648047, 0.07322748283164068
-0.09739654823446449, -0.12439480123022943, 0.07516630771607428
-0.10783020882265801, -0.12226550779827391, 0.07851541958709528
-0.13486978039276779, -0.12946951929970496, 0.06922291641635687
-0.10965772763388733, -0.12729745508858123, 0.07016997874084066
-0.12252868993087435, -0.12764527521689917, 0.07095549092879518
-0.13702634909886657, -0.12763959495955107, 0.07249764981055229
-0.1458848119474163, -0.12756931773145483, 0.07354298609765644
-0.11764958143664003, -0.1266603366115773, 0.07210573089961217
-0.12670774682066777, -0.1269024381489409, 0.07264820969058292
-0.1323896264140365, -0.12511483943825008, 0.0761527868420692
-0.14711866099817605, -0.1243795380826347, 0.07867231462478283
-0.15089069612290051, -0.12520939520811986, 0.07762412250518708
-0.1224344900599025, -0.12354754592782062, 0.07775131369432614
-0.13434767468124048, -0.12346078485545373, 0.07902924712492904
-0.14362326354899968, -0.12248260201314465, 0.08128873149159258
-0.13332261135238888, -0.12237956316241444, 0.08058490533921771
-0.12460630357466994, -0.12232596137923334, 0.07994983936448195
-0.13502580077747078, -0.12062639020459842, 0.0833472639312046
-0.12035960829782792, -0.12006580803524403, 0.0831966213587012
-0.13112748108184613, -0.11952988502948385, 0.08477014795506159
-0.15013009691815982, -0.11960997914252608, 0.08546747234331986
-0.16290655541465282, -0.11719692353435253, 0.08873751863651866
-0.17224565334604872, -0.11712257154217393, 0.08850268334504788
-0.1716297311440354, -0.11827399268430744, 0.08708288669840894
-0.18357929332823972, -0.10379120881641384, 0.10026629228722078
-0.17803316357241988, -0.10418428761286966, 0.10068033854327413
-0.17606730666050424, -0.11067982472394719, 0.09526536862408287
-0.16508499723134631, -0.11604745259488874, 0.09011883159897714
-0.18314968725509695, -0.10568623606182959, 0.09873409738542255
-0.17293781311325102, -0.10956861101632587, 0.096581835476379
-0.1856786751372071, -0.10942293638894438, 0.09549915895668984
-0.16194684274679705, -0.11277290511232217, 0.0938734472973672
-0.16120363886332126, -0.11137590992825898, 0.09544625421335383
-0.14397044904822576, -0.11944483493309624, 0.08562184784361655
-0.14054972203435548, -0.11988469365784615, 0.08483296747204416
-0.14914806537289185, -0.11644160894991402, 0.089745701104919
-0.1223212513989026, -0.1169395873454889, 0.08807367683861328
-0.10849743068393708, -0.11798588248086679, 0.08578354112373739
-0.1432184245669491, -0.11543416330837014, 0.09106530291895105
-0.1364553772448273, -0.11668033949926446, 0.08899904806539174
-0.15203889248496144, -0.11190753401831605, 0.09519749597534077
-0.1549195821180243, -0.11237198099788273, 0.09448722999892709
-0.13220563027330987, -0.11356047401739955, 0.09318176969800596
-0.14226675618392576, -0.11224451107070471, 0.09499553083079622
-0.16598520301867578, -0.10561042755988478, 0.10095412542172845
-0.16640905628796004, -0.10389261336643146, 0.10251704905275427
-0.16087290121746348, -0.10959010972123222, 0.09756510499588897
-0.15415063144504024, -0.10452384556313514, 0.10287625748518489
-0.15719771317158862, -0.10355987599689075, 0.10359533347240905
-0.14497793994184574, -0.10923576118240395, 0.09874773308000843
-0.1345075686215494, -0.10710794293948801, 0.10109838435190936
-0.15726558154518588, -0.09454992630506029, 0.11051650285605688
-0.15447558962731578, -0.09444216022868401, 0.11093105366334341
-0.1638137745714336, -0.09584283618210612, 0.10874451067218818
-0.16748404090623417, -0.09657606286483746, 0.10784234951861182
-0.16317581572155704, -0.09965048993867331, 0.10609541227761349
-0.1507557767443766, -0.0902243013882071, 0.11360526337170357
-0.1498408117414082, -0.09164160906116424, 0.11297310077375651
-0.1652640934870579, -0.09239588329546769, 0.11069400954588192
-0.15348266701954566, -0.09393782074912886, 0.11131730396136395
-0.1624902843604665, -0.09097439279761374, 0.11174382774544664
-0.12517188962862213, -0.11406445753583991, 0.09246894475133263
-0.11658048069410393, -0.11357485165731201, 0.09300405434585399
-0.1329339514234419, -0.11089488625867588, 0.09667565533495329
-0.1287788644587296, -0.11176547047247751, 0.09554344547871982
-0.11186081985900159, -0.11686131071120516, 0.08768025144184587
-0.11818383615269347, -0.11518110534751888, 0.09057037659674134
-0.09907387977440094, -0.11690596062452166, 0.08810320284761325
-0.09660381059859485, -0.11616786945977788, 0.08949942481755434
-0.10144640877918479, -0.11406644256273644, 0.09259810237083602
-0.08744473488324225, -0.11770287998353456, 0.08764948385938437
-0.08178294427059554, -0.11719301906815699, 0.08887039706414734
-0.08450550403786448, -0.11502084320767386, 0.09227073879889656
-0.07853827341973861, -0.11623091122044853, 0.09067888734728191
-0.0703862703866319, -0.11597367774788972, 0.0916255855105414
-0.06578918662020922, -0.11688120862983953, 0.09017705880530597
-0.08679752703247853, -0.10866034899826443, 0.10127217668470478
-0.08304551853591888, -0.1092248303945903, 0.10070769459788075
-0.06418411330545107, -0.11185293382944486, 0.09788020816234516
-0.06828689453417795, -0.11418321825224226, 0.0946078814583755
-0.07458871439349873, -0.08716578777805101, 0.11924986672592329
-0.08352308307904066, -0.08552776722736952, 0.11985983730766044
-0.082777922494395, -0.09344755721307849, 0.11541831731318142
-0.09101954131810285, -0.09144742738701718, 0.11627430730466062
-0.06328390438206162, -0.10816072625589407, 0.10285253618399004
-0.06726050832016423, -0.10431313426288107, 0.10689617273728916
-0.08314082058939276, -0.09597492409137477, 0.11359040658190986
-0.07372356005074206, -0.0944979104229251, 0.11502596768396409
-0.08173005162308555, -0.10115606591708311, 0.10958060058025167
-0.08390204429313455, -0.09861949707275346, 0.11149938043326423
-0.08771227106467626, -0.0973272545073719, 0.112370262009334
-0.0775418378188798, -0.10580964089929193, 0.10495764283546583
-0.08016732719821465, -0.10314048393055748, 0.10772289414246483
-0.10961304919300072, -0.1094549296432179, 0.09872832129607537
-0.10924908099279804, -0.10928112170059558, 0.09897776908498658
-0.10223077309428613, -0.11153897231700936, 0.09620917938430029
-0.10010950046596791, -0.11236963435133314, 0.09517746205799477
-0.07800633495998044, -0.11396917131992308, 0.09441775611281707
-0.08337308981730279, -0.11342704780230159, 0.09482928869972042
-0.09545899812052433, -0.10964213891614301, 0.09935036673722226
-0.08977295887594423, -0.11326509230218784, 0.09464005806674995
-0.07407986245333523, -0.10821283797080118, 0.10249583201965436
-0.09000518115402104, -0.10535985211508256, 0.1048171268805154
-0.10175674551315042, -0.10285719323042511, 0.10695832703442654
-0.09207630678567258, -0.10625686389709986, 0.10370394966306912
-0.1018251172795704, -0.09905789681145687, 0.11038566354446458
-0.09556680621046854, -0.10162337082026061, 0.1086044891571381
-0.09342203775669007, -0.09793125229282315, 0.11166651022693784
-0.10004649846355562, -0.09668298489904505, 0.11238812630223527
-0.1012705857687484, -0.09687877051035229, 0.11218446258403875
-0.10363038671628355, -0.09180251390986513, 0.11555903477833647
-0.10807209773547576, -0.08930150008659332, 0.11676742818632954
-0.10165942268509977, -0.08658939615527286, 0.11854840767758613
-0.09316375969505464, -0.08704855667213775, 0.11865433727364534
-0.13381884094317198, -0.1005659498676514, 0.10771579543644323
-0.14802825385898516, -0.09793327074443897, 0.10896187502539106
-0.12319726521226841, -0.10468974895759878, 0.10408335284990078
-0.12468271860671622, -0.10605259397011887, 0.10257016624335309
-0.12388214575753251, -0.10601738250299145, 0.10262126786713115
-0.14228457481591916, -0.10418360583683044, 0.10390715319633037
-0.13059238619593327, -0.10734444526839902, 0.10097510889199035
-0.14101881047227113, -0.09532868631036329, 0.11139840226467472
-0.13818001284773668, -0.09805273534028822, 0.1094113524380346
-0.11146610759778637, -0.1044531174823349, 0.1046465275676301
-0.1240980917149779, -0.10284130944892927, 0.10611680125698858
-0.1004352849191027, -0.10796385751888987, 0.1012662651292413
-0.10380850723791252, -0.10395291454154221, 0.10561947814469522
-0.12336230843715854, -0.10151836800379288, 0.10746723226153816
-0.12269450465145307, -0.10109232974554355, 0.10782876527898039
-0.11507950787159316, -0.10163467183785119, 0.10765234775444468
-0.12024900999470263, -0.09480827164905078, 0.11299871360237959
-0.11601653782505808, -0.0953700080545447, 0.11272207137300864
-0.1366946721253376, -0.08745317978283092, 0.11615822987316302
-0.13173606495915383, -0.09286208711937644, 0.11363370594190629
-0.14314344782473956, -0.08896889334674485, 0.11484376231419861
-0.1393048814050274, -0.09381074117557557, 0.11259078760053784
-0.14134624864526935, -0.09404465105008689, 0.112323684837039
-0.11262943206213465, -0.08962468744111646, 0.11637840543402408
-0.12109202770663229, -0.085988510088241, 0.11793459239551059
-0.12718336047888, -0.09215621648843916, 0.11427656936040592
-0.11726877488434899, -0.09252399927348792, 0.11453672487470569
-0.1466246420022393, -0.08195379685714314, 0.11772224859485918
-0.15002502856024505, -0.08159680199206001, 0.11758598329189068
-0.13431413950835697, -0.08358420958564147, 0.11809543402842562
-0.14827273515842848, -0.07720164660641729, 0.11933193815221987
-0.1325110252127901, -0.08149884434356112, 0.11902444728701536
-0.14150366352858385, -0.07164366061404298, 0.12141062486827245
-0.1330872862850042, -0.07556818255940681, 0.12109729997107421
-0.13871785604017514, -0.0755261755630311, 0.12064341243200058
-0.1472575022546794, -0.06976160985026734, 0.12141723505662583
-0.22727674681888527, -0.07148172331574701, 0.10060974730770972
-0.2233746948762476, -0.07404989348706781, 0.10165574049721735
-0.2000906521946761, -0.07308648535969278, 0.10964203573726994
-0.2060858214927201, -0.07308967169105146, 0.10772145886552814
-0.24093747469585575, -0.06632993080028834, 0.09644139482570832
-0.24252390454522016, -0.06258055254716804, 0.09598871263933648
-0.24137306242986734, -0.06669066848473944, 0.0962648918475001
-0.22754420331878017, -0.06904558065378255, 0.10079382424216518
-0.2168108874903979, -0.07181636762125275, 0.1041650739677984
-0.22029603267605394, -0.06706444734711008, 0.10362032900588758
-0.2143539267055472, -0.06505140434363964, 0.1059492326073509
-0.22437359184924038, -0.0652537135436766, 0.10230705225675017
-0.2344480285328082, -0.05560759565319349, 0.09919369436079024
-0.2373966411589323, -0.05421125193830584, 0.09815105313768509
-0.2281537695639322, -0.05983524686027948, 0.10130169492896644
-0.23553996040427647, -0.058823590706714876, 0.0986496388235339
-0.23016267954982877, -0.030543757964111518, 0.10292379968500137
-0.2407721119090755, -0.027959394275327593, 0.09852291416588724
-0.23398185103166025, -0.023789608865411184, 0.10175700222016681
-0.2335877202666261, -0.024320387281258352, 0.10188886746005793
-0.21420993910891795, -0.012587850268142233, 0.1101087490901909
-0.22408441683083485, -0.01451503915968774, 0.10632331668616823
-0.211728779307473, -0.012438134823766512, 0.11104938140214886
-0.21364262192272576, -0.00837886711802055, 0.11042605386942986
-0.1877683133768497, -0.016139969924070092, 0.1185797782560093
-0.18684486406601045, -0.015712125171570935, 0.11880491436334661
-0.1837082780099094, -0.014805462091642938, 0.11955505756154897
-0.17252278059797224, -0.02010662966918847, 0.12202525887577148
-0.17560185000559325, -0.023286987023172792, 0.12123118499991546
-0.16958463481806027, -0.024829821529812224, 0.12257640559397115
-0.22328753100221166, -0.02282223301730303, 0.10634757116822927
-0.2209898449739779, -0.02139320578152422, 0.10727499659331774
-0.20786430866881492, -0.014863122515008076, 0.11244488041673836
-0.21920628655402508, -0.017014116523403604, 0.10810160478525793
-0.1954401489365757, -0.023894767729292412, 0.11607393395703824
-0.18936711885392093, -0.02582466682137856, 0.11786847997151337
-0.20457284636878287, -0.02315155584141068, 0.11328236605235695
-0.19404378653016388, -0.02266597960990247, 0.11654763533368284
-0.19011518586973336, -0.01678350223693588, 0.11790728006073972
-0.2247779784893745, -0.03843428371544693, 0.10445321821214083
-0.2216609349819708, -0.037276431669605044, 0.10580489176658142
-0.211979668001552, -0.041284960673079726, 0.10920103352244502
-0.21464051308072457, -0.041263656464146405, 0.10815300608018907
-0.21930621350008964, -0.023981442488497692, 0.10781259986604876
-0.214896077453322, -0.023363667983718132, 0.10953344729064592
-0.2174484360688338, -0.03028141717740712, 0.10810323812221878
-0.2115852786585859, -0.03132402858759608, 0.11030602707700411
-0.2099071957332614, -0.033836257148192106, 0.11073704169256592
-0.21976130978535896, -0.0332063154870711, 0.10696392777604852
-0.19396888454071007, -0.03143617383337911, 0.1161772053025994
-0.2044788447613177, -0.029255047631404005, 0.11297834168443757
-0.19707266849161548, -0.03202116772432628, 0.11515732680953632
-0.19186524594465426, -0.033302697762557724, 0.11671025561647029
-0.18949824572509222, -0.04444500816701223, 0.11655022116448566
-0.20261413041143228, -0.041788395043609566, 0.11253350029458956
-0.20250776377785307, -0.03557476996562646, 0.11314561477872986
-0.20106622981152344, -0.03612118441712776, 0.11356361322295462
-0.2235954457520022, -0.05287581008936882, 0.1035068138871529
-0.21782429666484746, -0.053572962978091956, 0.1056335732312532
-0.2217548299113461, -0.05939419247370088, 0.10367949668418738
-0.21937983140479161, -0.061050752196503105, 0.10441287262245542
-0.2237997365483288, -0.042431438578683485, 0.10441745027443222
-0.22148789842526545, -0.04695769705209936, 0.10485198091318756
-0.21230062914483863, -0.05013485754424701, 0.1081133965314292
-0.20876900518281655, -0.053024110302859195, 0.1092057870602482
-0.2058318577097196, -0.04467990945729916, 0.11114529897836843
-0.203949466625732, -0.047655304694733946, 0.11143612871705663
-0.19321736174463605, -0.05284576174200405, 0.11452499341860882
-0.1913295539212013, -0.05207403756398222, 0.11522844937897096
-0.19092809498887411, -0.06997948350295904, 0.11326878188541897
-0.20719854480855124, -0.06706504824891844, 0.10831249712202577
-0.1989606129742854, -0.06359934517902394, 0.111475067042946
-0.20513134698817448, -0.0619300076771421, 0.10956422669690405
-0.20347394337234695, -0.05792820510176757, 0.11054805014143076
-0.19612363670710503, -0.06281496472130793, 0.11252097952470189
-0.20285632808023482, -0.05263738582662646, 0.11130081622986343
-0.19864149727984548, -0.05568597466710856, 0.11242458705547825
-0.11258729342229834, -0.03445108772458988, 0.12886913342667766
-0.12062295470584555, -0.034268669636234615, 0.12825313608048838
-0.11965333854679845, -0.02363362779068363, 0.12880900877093962
-0.11818870083382044, -0.02711955758069634, 0.12877855444195652
-0.1246045683625198, -0.02764476691466046, 0.12824689033667988
-0.1272702021877443, -0.0295306014701684, 0.1279705562692356
-0.17090139778255703, -0.039576478829540775, 0.12159079783429899
-0.17853037848467096, -0.032907920680654956, 0.12016079392662841
-0.1765285275084988, -0.029478132230259614, 0.12079558595668809
-0.18438488123915298, -0.025672634939978314, 0.11910320619245478
-0.18330868947957618, -0.03461057502803569, 0.11893124912630038
-0.18623267681151137, -0.03859577803727171, 0.11790838159312218
-0.17883172451485976, -0.04204493194251935, 0.11946346180038518
-0.17936065059979778, -0.04226044410221143, 0.1193170885277651
-0.1514553023351535, -0.04390735172210648, 0.12461977948466901
-0.15272013571366305, -0.04130402055206931, 0.12460468238293089
-0.15764589494168407, -0.0389932579713246, 0.12392444579559236
-0.16945838226333843, -0.0334508859030875, 0.12225402118193196
-0.14571244993595162, -0.03416814317779287, 0.12586981280355553
-0.13435910833108924, -0.0393071896014172, 0.12684432918355512
-0.1453865874539803, -0.04236620835228272, 0.12542142373042345
-0.13742199852859865, -0.04521142862044203, 0.12603998365125352
-0.11482348720987133, -0.04766714406593008, 0.12768387057368744
-0.12027948841229517, -0.04211000927273546, 0.12778159110513082
-0.12445166884893069, -0.03771453702845629, 0.12776914102857562
-0.1311542101543599, -0.03576280097440647, 0.12737390858753186
-0.1282550571101235, -0.08357650276496945, 0.11852692699847535
-0.1308883713455504, -0.08267389314213028, 0.11871757899515545
-0.12116674848755707, -0.0783111894977212, 0.12091800524367671
-0.11851196943272527, -0.07993384002735185, 0.12045449304987896
-0.09648574813786127, -0.0767949255098229, 0.12283031375482359
-0.0968085233577263, -0.07882238801359381, 0.12200530431618589
-0.11040112008196637, -0.08189665831040867, 0.12017461323259661
-0.10326860828799532, -0.0851354917740195, 0.1192332697260374
-0.1306823225351223, -0.07142723719292035, 0.12239729873566357
-0.13063280936246202, -0.07365445844974741, 0.1218054991476912
-0.1271814104506076, -0.0691214259449067, 0.1232309105265105
-0.12362070277263987, -0.070640582769554, 0.12304630649611298
-0.12815820597204067, -0.06859684792973005, 0.1233117752377744
-0.09461863600817855, -0.06924457172331847, 0.1251049290912364
-0.09591741713379964, -0.07434356779393395, 0.12358835816282807
-0.11192735446872022, -0.06904295519593628, 0.12428124425132377
-0.11192022894320952, -0.0745019768194137, 0.1227557420885413
-0.15083712149607173, -0.05992841473852163, 0.12300880373271285
-0.1478543206004312, -0.06120452348022576, 0.12305435221059721
-0.1383819392620848, -0.060174338263711075, 0.12413178988241183
-0.1352119828629793, -0.05980095992590084, 0.12450680158010355
-0.1307169732760991, -0.06603762191367096, 0.12374399694983736
-0.12846765977696484, -0.06717064890886609, 0.12368353795318916
-0.11402235016047263, -0.06304651822618686, 0.12545936360503765
-0.1205977458266535, -0.058575771625360734, 0.12586362415410518
-0.10669255785083942, -0.06725160749171567, 0.1250489360044179
-0.10927238209718901, -0.06318372783147691, 0.12570879565816212
-0.1062360754303179, -0.060966244347606884, 0.12629611178896222
-0.0994745465517505, -0.06171351301992071, 0.1265069990901156
-0.09328680250175163, -0.06311455620002553, 0.12655722462327484
-0.09927749917099163, -0.03990789288135505, 0.12921902421550016
-0.10199551384575886, -0.03641702421564725, 0.12929373843227504
-0.10451015568818849, -0.03455340529740181, 0.12928436641200858
-0.0771562777042701, -0.03982107898942708, 0.13005711963818103
-0.0829263271548174, -0.04009424399284304, 0.12984876168012469
-0.08443771524931032, -0.03272384591961189, 0.13034854967318937
-0.08606110392822863, -0.03296036004789369, 0.1302658335805483
-0.07226539042366295, -0.034350622299905605, 0.13063747334620707
-0.061475111841463106, -0.039160684394282705, 0.13046369380120296
-0.06460841430395066, -0.03319368376994837, 0.13095471797098823
-0.05951765380665193, -0.03318966812213306, 0.13110335628794206
-0.055799485899233246, -0.03717316161686169, 0.13080504221350991
-0.054393733453346235, -0.037197763279671114, 0.1308287241186607
-0.0424423296987749, -0.03264566035961743, 0.13162574234363864
-0.05080219886326158, -0.03262794206427827, 0.131394195281616
-0.07114751144864055, -0.04454068380648908, 0.12978199084975356
-0.07184927806962213, -0.04673554400262598, 0.12957551888140625
-0.06567404054582895, -0.040656495501786405, 0.1302570431314088
-0.06112202181830581, -0.04254819304389926, 0.1301604679863671
-0.06084584848729197, -0.05604176836306554, 0.1287009903012516
-0.06994136535207952, -0.05403022151677533, 0.1287987724991312
-0.06114488387233424, -0.05197346590185282, 0.12919027057885404
-0.06379240250078858, -0.05010880060662842, 0.12937579097408003
-0.085138798730163, -0.04885350574455195, 0.12899422565103671
-0.08107387028327463, -0.0473634067089831, 0.1292662294009352
-0.08402354681814943, -0.04397113546848118, 0.1294740648250943
-0.07703411751640679, -0.04733442636054212, 0.12940336835848001
-0.08348337860782265, -0.05263924979877388, 0.12859466422459492
-0.08734014119709062, -0.056096980821491144, 0.12801602743071136
-0.0925771828748298, -0.05083898587232252, 0.12850651916875216
-0.10647439655617522, -0.04368838367661089, 0.12852324915174268
-0.10045866026365026, -0.04741635394995961, 0.1284911072560998
-0.10301322663757376, -0.04298688654769266, 0.1287635674211521
-0.10068450721104091, -0.04048087160542368, 0.12911070337346747
-0.10149486525814709, -0.050726609616199535, 0.12808112916032588
-0.09440109531872778, -0.05753052825675961, 0.12756219117523013
-0.10547615098112637, -0.052582431970934235, 0.12763787644965122
-0.1011428122626936, -0.057864884646180434, 0.12716146162305336
-0.12118275927769007, -0.04897560861969483, 0.12710651726407285
-0.11982687807820021, -0.04655968425694338, 0.12741514179797075
-0.11257712596727332, -0.05119763153516964, 0.12744518558062565
-0.1174296516681394, -0.0556927527607987, 0.12649117609123237
-0.12588963428092909, -0.0575176399489224, 0.1256524521242917
-0.13014623798822475, -0.050942222226514386, 0.12620600019779224
-0.14400425811040596, -0.057239697562308414, 0.12407266637484883
-0.14460117452461357, -0.056450146049732995, 0.12410264692982258
-0.14924073873519172, -0.0520989018546668, 0.12413804689771588
-0.13346539547586952, -0.05133560162140803, 0.1258535716052663
-0.14156995684398863, -0.051859661456978984, 0.12493462432179542
-0.1394387915499317, -0.048409341334374204, 0.12556682482324094
-0.14705053974730303, -0.042599733805461955, 0.1252248680317149
-0.18691239026741693, -0.05000945082006128, 0.11670233370516264
-0.18399512319303285, -0.0496084844283298, 0.11748267901476098
-0.18839594479244068, -0.04826263769794055, 0.11648548925270928
-0.18691110388013252, -0.044229243061222064, 0.11725496186307335
-0.1542953988396194, -0.051437533419221346, 0.12348891059811139
-0.15188759525436396, -0.0538721249046704, 0.12363629112794022
-0.1623391844941276, -0.047064191138126696, 0.1225303589023841
-0.16802530611061137, -0.04179083568001475, 0.12198332548221846
-0.1843450279591734, -0.05195567596405505, 0.11718326965498617
-0.1848300281213796, -0.05707828570800533, 0.11655897966448668
-0.17798084341955955, -0.06221911749013554, 0.11769576252954561
-0.17355367188415016, -0.06321967302969485, 0.118715368958895
-0.15981630270125657, -0.060415959102514724, 0.12149278909731503
-0.16261811024407716, -0.05931328723340841, 0.12121791668924456
-0.16462246340382253, -0.05783018040353007, 0.1211179439941347
-0.1640688965298494, -0.056172889948292254, 0.12136495142349685
-0.17440284755781088, -0.0668255961606981, 0.11803853925963506
-0.18556171284967954, -0.06278397849993692, 0.11569089227269064
-0.16492233382009286, -0.06527082644466392, 0.11997289825451887
-0.16552924705858763, -0.06656325389032883, 0.11970521838056292
-0.1803085516898616, -0.07953570981102893, 0.11339854885460438
-0.18219864808867486, -0.07976151698823755, 0.11286872462078723
-0.18425405765956065, -0.07908599992991243, 0.11262051158443533
-0.18759380778755283, -0.07853697424958883, 0.11207191432635086
-0.18297868783186266, -0.08412043825783241, 0.1113825097349283
-0.1779748430344284, -0.07054715802546811, 0.11631447884332231
-0.17766302300965686, -0.07075064053993557, 0.11634707617883758
-0.18072954660995935, -0.07315269686913721, 0.11506968565036874
-0.189966596956617, -0.0748665893323425, 0.11256458696561517
-0.1531420068251666, -0.07506559915345953, 0.11944641914192616
-0.16021950362531517, -0.06873402705492715, 0.12001619960896347
-0.1563760790936092, -0.07336039517072282, 0.11940029379563602
-0.1559130709555863, -0.07540195302659211, 0.11897668302943984
-0.16887640633853196, -0.07214246604396984, 0.1179486541513618
-0.1712770566203006, -0.07813671715792853, 0.11603160131329875
-0.1696105795949862, -0.07870871387849582, 0.11604597544894805
-0.15128039105755628, -0.08371362180603094, 0.11668399817087133
-0.15488344867312043, -0.08280604813305471, 0.11652428069182577
-0.15785147640965314, -0.07658721479896839, 0.11841146709050221
-0.2010533206550093, -0.09806734516054577, 0.10042340641594727
-0.19435251976895251, -0.1014743849613477, 0.09999750701855407
-0.1934897820385223, -0.0976288081180886, 0.10244173390489472
-0.1888308414911056, -0.1006777204313226, 0.10165969847974558
-0.20678826543279913, -0.08720618309384838, 0.10387709315435892
-0.20655745336175502, -0.08808271363321574, 0.10361976939353318
-0.193141982424199, -0.09086250576304485, 0.10606134668904563
-0.20165647416898447, -0.08787727045125032, 0.10495655584056901
-0.19388098901543616, -0.08797344070372604, 0.10720274942610081
-0.175772792703434, -0.08688652569996719, 0.11175269839994403
-0.17390834270002345, -0.09131248058181718, 0.10984829393841505
-0.17899643320725067, -0.09361537821640414, 0.10778193397786182
-0.18723078562853887, -0.09217490364090723, 0.10691599739468514
-0.17826980240508183, -0.1025260856812848, 0.10213281706087277
-0.17994562999938984, -0.09837188462315266, 0.10442412184090549
-0.18627076948666196, -0.10119063729271033, 0.10179517067715918
-0.1781757285945412, -0.09714282612639955, 0.10559165468071072
-0.18218911507124158, -0.09537948571532195, 0.10611089049524695
0.23221493464749182, -0.1425271902084181, 0.0614624401950413
0.21215608038733422, -0.1387292959903017, 0.06230668524511945
0.1853850419069698, -0.1354660692900835, 0.06422051694744801
0.16989907418800992, -0.1327153277344972, 0.062098081416393586
0.18929658089541987, -0.13451533438720517, 0.06154989149627776
0.3107848536544795, -0.0770516819257712, 0.06925156910248331
0.3058093268398709, -0.08452214658162724, 0.07287187437955706
0.2559723510500493, -0.07187786559955534, 0.09001123362238686
0.2513669402065946, -0.07043195036352223, 0.09159302797021532
0.2500649431885709, -0.0757366563179109, 0.09162123613672271
0.2530557838706322, -0.0750644230295967, 0.09071426696836932
0.27525824333510474, -0.10541134794784723, 0.08153866667224477
0.26552555428657815, -0.09748742669982194, 0.08502878122038757
0.26893868021133854, -0.09127431171251961, 0.08486777266384027
0.2661190078171194, -0.09486247290038907, 0.0851850467386462
0.27865338984360455, -0.08879664340144666, 0.08220948288526408
0.279042394549835, -0.09688181457487766, 0.08154244031345542
0.2352205652114396, -0.11261552836928446, 0.08688724194684237
0.23187381265376267, -0.10682536360279575, 0.0902140811316962
0.26012299561857755, -0.11274760663833995, 0.08294669053645568
