-0.4954501304973291, 0.3964794874191284, 0.36509963144370283
-0.49320774806930257, 0.3964794874191284, 0.7563380132654172
-0.4979897930664877, 0.3940205348998351, 0.8789105123228209
-0.49798976565522807, 0.39484906587654667, 0.6705452202730139
-0.497989773618835, 0.39457758406595095, 0.7310801721810611
-0.49798974394798273, 0.37781306103495155, 0.45926901736462666
-0.4979897439479828, 0.3781307409952359, 0.38572874096465004
-0.4979897439479828, 0.38345533835635703, 0.4362387315487455
-0.4979897774793935, 0.3784040564181761, 0.7604259379334797
-0.4979897846348739, 0.38270612783402874, 0.8148180065835344
-0.4979897449666175, 0.3797535514098492, 0.5132817611924385
-0.497989755758717, 0.3813002495535489, 0.5953173656301355
-0.4979897637445069, 0.38305748927062194, 0.6560209514803177
-0.4979897439479828, 0.37048969661376696, 0.4010742283017456
-0.49798974394798284, 0.3698100609749042, 0.41059326887675635
-0.4979897439479828, 0.3691653972027624, 0.3701241927243977
-0.4979897803063943, 0.3729026906831815, 0.7819152167586356
-0.4979897870993153, 0.37416320583828105, 0.833551252712173
-0.49798977201230554, 0.375276472392185, 0.7188681326614286
-0.4979897649518966, 0.37496609899354816, 0.6651988008456361
-0.49798976781762877, 0.37492129030744736, 0.6869825151264849
-0.4979897439479828, 0.3650897816926786, 0.492648121007921
-0.4979897439479828, 0.36040823397105753, 0.21787996463794224
-0.4979897439479828, 0.362704888341411, 0.3073256568812008
-0.49798979851630676, 0.3663830443625828, 0.9203369144089875
-0.4979897979720834, 0.36317057138399433, 0.9162000286762209
-0.4979897912833782, 0.35913888744427724, 0.8653561767623306
-0.4743770360946656, 0.3585898080902581, 0.4599228533899258
-0.4797833412427772, 0.3568588197231293, 0.05946627505001198
-0.47645166822145496, 0.3568588197231293, 0.38718277779650084
-0.48456608545413155, 0.3568588197231293, 0.08718733409208965
-0.48427803364854666, 0.3568588197231293, 0.09522389516185702
-0.47982584785403865, 0.3568588197231293, 0.015015702712560745
-0.4743770360946655, 0.3594692648773353, 0.8299588054493197
-0.4747762344221781, 0.3568588197231293, 0.874371319291823
-0.4751880664904813, 0.35685881972312933, 0.8362521400356332
-0.47863786842092354, 0.3568588197231293, 0.5856441825744219
-0.47664445158950663, 0.3568588197231293, 0.6942656425514178
-0.4743770360946655, 0.35733866667103303, 0.7400213811359305
-0.47979081390530365, 0.36097994446754456, 0.8062228605058352
-0.48297966479982807, 0.36097994446754456, 0.7860898274204255
-0.4823113854211365, 0.36097994446754456, 0.879525510157191
-0.4867330089668333, 0.3609799444675445, 0.9466715049305934
-0.4834694695583318, 0.36097994446754456, 0.9241810528868355
-0.48893263936042786, 0.3777969023597006, 0.8887707959417812
-0.48893263936042786, 0.3805467403136113, 0.6763927084657453
-0.48893263936042786, 0.39035598981960834, 0.3352068524996568
-0.4889326393604278, 0.39519066162592, 0.18834764870337162
-0.48893263936042786, 0.39400959650775963, 0.4453088309322911
-0.48893263936042786, 0.3917053190712648, 0.881534537227383
-0.48893263936042786, 0.3945053415683676, 0.951074656588369
-0.48893263936042786, 0.39519907974074003, 0.8602254693033939
-0.497989768082031, 0.38907009930653486, 0.6889924386938795
-0.497989766661069, 0.3885322753676217, 0.6781910685068173
-0.4979897988785607, 0.3860686672122451, 0.9230906883940753
-0.4979897439479828, 0.39186097520588903, 0.3363079702189795
-0.4979897439479828, 0.38949724985880746, 0.21639682864590837
-0.4979897439479828, 0.3875894616259222, 0.37295182684628786
-0.49798976283061486, 0.3953499466710458, 0.6490740316904146
-0.4912255456687149, 0.3568588197231293, 0.8310324767284752
-0.4971913090415455, 0.3568588197231293, 0.5805602080430119
-0.4899191778757543, 0.3964794874191284, 0.18263576197694115
-0.49565986673095, 0.3964794874191284, 0.5675549027595401
-0.49710060749242724, 0.39647948741912836, 0.9254790135742486
-0.49749035862995805, 0.3964794874191284, 0.916526480263912
-0.48893263936042786, 0.389527471307357, 0.6518593826251502
-0.48893263936042786, 0.38801889039048243, 0.6095432551050706
-0.48893263936042786, 0.3962628973951814, 0.4975828593676791
-0.48972958177173465, 0.3964794874191284, 0.766844231760865
-0.49069658500697333, 0.3568588197231293, 0.6207175694943499
-0.49000974469603237, 0.3568588197231293, 0.8701486321034961
-0.4979897439479828, 0.3568820877936464, 0.017496942578097464
-0.497989750457926, 0.36162023559959816, 0.5550235955417947
-0.49798974447935673, 0.3646024505285804, 0.5095778322447919
-0.49719336906053346, 0.3568588197231293, 0.7253005264703496
-0.4971323346556028, 0.3568588197231293, 0.17084937320545068
-0.48422502353537067, 0.4211395856952166, -0.9521440365508308
0.3150510646673058, 0.5938958933430529, 0.9818533429143944
0.3235842283688802, 0.6009196143105279, 0.9742603069736564
0.32014952868459423, 0.6870338727844127, 0.9839269848558628
0.31930420711176016, 0.8046028063278086, 1.0329439293917493
0.3169784076519907, 0.7973455201069075, 1.0186797817713145
0.3242978479839852, 0.6732645692657073, 0.9906245197536183
0.3140339562638274, 0.6420364272170871, 0.9846695195377335
0.3164503374721586, 0.6681802906554541, 0.9813193897024962
0.3243466534696797, 0.6262003567778954, 0.9770915195218348
0.32075689340689567, 0.7247745301383997, 1.003743026231988
0.31370493137705896, 0.7415852997024229, 1.00401907449417
0.32558684599388327, 0.732339876302112, 1.000855911869773
0.32038937060501177, 0.2859684772473266, 0.9756730330924014
0.32359727561949914, 0.29146677127164766, 0.9652134205520784
0.31637515744656963, 0.2975544963752237, 0.9748056601376659
0.321421992875498, 0.2784327433463235, 0.9639206115708627
0.3192976117947844, 0.2557911999738242, 0.9757449866828638
0.32568077174468146, 0.35129156253338834, 0.9700491807342217
0.3198721638617196, 0.3857503549072461, 0.9765006618444105
0.31530276418181497, 0.39167959203969227, 0.9747384334620917
0.31478720054988396, 0.38638388958822567, 0.9668007980292253
0.3207252687808776, 0.3799553438652108, 0.9644743630148321
0.32541731032527943, 0.4693004152290253, 0.9707430721777436
0.3178868034620272, 0.5840141904853168, 0.9830966854162314
0.3165568770123978, 0.5225422513618838, 0.9794427061747417
0.31540391221870673, 0.49988918109114866, 0.9776653353142271
0.3154315776566882, 0.587883642427599, 0.9734694736267264
0.3205435834352063, 0.47118795128120644, 0.9665944033494471
0.3228335009363731, 0.46215367140531816, 0.967136499881175
0.3154391580453178, 0.23582956875562586, 0.974339646976476
0.31982645634324397, 0.8271785881216971, 1.0340219784983997
0.3148721007171333, 0.8689489837919475, 1.0963772660568785
0.32873444655473694, 0.8418784937003639, 1.0736809235267908
0.3125493127822954, 0.8495179280411427, 1.0426909393056623
0.3151710250571234, 0.8677286680936247, 1.0676858252468375
0.3159235574850926, 0.8554511969675982, 1.0464839272286155
0.31224205694581575, 0.8388204380942401, 1.0860771383043375
0.32811446525686966, 0.8460417238755229, 1.0623347953831257
0.3268940258614891, 0.8275518968142634, 1.092601425664876
0.31444513342202207, 0.8702643410024455, 1.0782745281070056
0.32370907331418164, 0.8451667354011632, 1.112471561525413
0.31100824048910497, 0.8626317126413872, 1.0916236452443966
-0.5021070120292921, 0.8334931543787539, 1.0944217282661093
-0.49612301000305015, 0.8364926136851445, 1.0796342416056648
-0.49543079347644525, 0.8466997034869197, 1.0926669459657004
-0.5056090538629991, 0.850094462891857, 1.090924096296587
-0.4999670811195631, 0.8610153855560219, 1.0825026462390215
-0.4804877681102264, 0.83091431427795, 1.0299471571281713
-0.4867293468257131, 0.8317713160975151, 1.029844298834858
-0.49572229048863803, 0.8288486605975516, 1.0211418210734438
-0.4886428194936683, 0.8165988793309562, 1.0362868191235421
-0.5056178777803297, 0.8218694549016532, 1.0341237434909887
-0.48976293215734723, 0.8376208989978553, 1.0309266157646737
-0.48956751159964906, 0.8276344669705387, 1.0333968367319037
-0.4776674228175912, 0.829592682756815, 1.0375064089153045
-0.48932114641907565, 0.8218431337040739, 1.0476848798369793
-0.49688774949637093, 0.8282691869829235, 1.0773519300665144
-0.4810893549882442, 0.852798589750685, 1.0723741113323053
-0.49695918671183026, 0.827310974176998, 1.0356459881426812
-0.4979804573978247, 0.8342492644103962, 1.035324134044077
-0.49300847753441257, 0.8362897860864277, 1.0595118435340551
-0.48580626415783756, 0.8648688189840181, 1.0618172925744886
-0.48152176831228194, 0.8520633601340917, 1.0580353864144374
-0.4910589064977409, 0.8555483161244589, 1.0455997845611875
-0.48267433346977595, 0.8567860384970816, 1.0881244366164056
-0.4842983421481891, 0.8421797037494243, 1.0859751346570492
-0.49870224447034306, 0.8357509008943516, 1.0862920398767675
-0.4812228401191101, 0.8529094194858949, 1.065261945536669
-0.48311867565766403, 0.8668984972196684, 1.0830210562440519
-0.48405102797051286, 0.8300412606214954, 1.1016607237489817
-0.48875003880658396, 0.8328588851696761, 1.067456792472999
-0.49580425857860067, 0.869813648449643, 1.0760386886956737
-0.4970848586660441, 0.867551173722027, 1.0921516705985113
-0.4882134434790215, 0.85346689784929, 1.1121454383434983
-0.48725262889532883, 0.8228466294855274, 1.0930775554642678
-0.49966909884107347, 0.8600946929238371, 1.0807072757389016
-0.4974185914397089, 0.8258388750747624, 1.0880427800310084
0.49543079397760015, 0.8455092510641701, 1.0855292314850729
0.5056090464484888, 0.841243832103876, 1.0916903057460319
0.48157338699993874, 0.5799682364266232, 0.9667389666143769
0.47553595053982833, 0.5640739534948463, 0.9781603615135128
0.48676199001277376, 0.6132608846905196, 0.9936201405433474
0.5036647888068607, 0.5732003504187959, 0.9830447809574985
0.4998157508958633, 0.5820969955553952, 0.9681681425146305
0.47909664214623665, 0.6965702343893428, 0.9829637387152297
0.48248513577087304, 0.7266356696322112, 1.0079437373790459
0.4944311638313462, 0.7120067490398233, 0.982164850509244
0.47930080869134056, 0.7998251985903782, 1.0171690216924851
0.49646572909177134, 0.7942905620055627, 1.0301594401775214
0.4891637187379853, 0.7999781126470376, 1.0102464969086218
0.476554457536672, 0.6469156722168472, 0.9798177565495958
0.47991986920136215, 0.7123206229676806, 1.002201726532109
0.4873967647295471, 0.6817254968206844, 1.000533628734937
0.49581132557746294, 0.6096404443707694, 0.9926145963665359
0.5022859298986446, 0.6541837216091294, 0.9902074542379184
0.5037347006323003, 0.6855879895768615, 0.987918568899812
0.49311983878394217, 0.6634640152921026, 0.9723642060192662
0.47855698165361027, 0.7100464510541029, 0.9873428398426247
0.48335057326396746, 0.6559167265473139, 0.9725905745081562
0.4775127176340638, 0.7542122663872782, 1.0039434674211307
0.48758183053156345, 0.7354531525230649, 1.012189227341493
0.49671760577512153, 0.7649831939931757, 1.0193898494970783
0.5010366656921527, 0.7702472613601634, 1.0165666017786945
0.5006385860760272, 0.8010499498310939, 1.017151907775191
0.49242772988160005, 0.7516568337689521, 0.9924768403974391
0.48620949068648034, 0.7814033627252301, 1.0031235847751188
0.47631734958850613, 0.16186925576216749, 0.9664385696421978
0.4754479850416379, 0.22325550323003657, 0.9725510547187785
0.47988090979828046, 0.256838437758621, 0.9820380887031324
0.48588865077962684, 0.25921141098063794, 0.9857332376826109
0.4910944976141385, 0.2545058077023738, 0.9862347392276469
0.5030609367804284, 0.2598709254258629, 0.9647446244001588
0.4959017183725818, 0.20016001115361054, 0.9580959974414792
0.4850128172048032, 0.1976279172139076, 0.9577453204535888
0.4984082417560325, 0.23261428551333807, 0.9593856978691995
0.4756586393120191, 0.3163166322576709, 0.9693076492510552
0.4768590027386279, 0.31060494216446205, 0.9653650700495459
0.475523410116741, 0.21172713920782754, 0.9701400844872016
0.48092080206776416, 0.3298139330415203, 0.9830697108602859
0.49227783156197824, 0.31395203504874747, 0.9860521726073417
0.4883651801855809, 0.2058878313936445, 0.9861154463372857
0.491953713341696, 0.3400235640028937, 0.986162389868669
0.5025953162749344, 0.3146195557104249, 0.9793335358587869
0.5031491490171931, 0.31917885444595584, 0.9649193935206613
0.5038646435107259, 0.3717150100747566, 0.9666702532235443
0.5012280431040992, 0.2952682417707699, 0.961986319842002
0.4875913795654414, 0.2827801017466644, 0.9571593939061189
0.48601507033653224, 0.251482772943193, 0.9574026250149061
0.48529051974772647, 0.39253990997610455, 0.9583733695043504
0.4764236687053764, 0.38197937661511383, 0.9667264204078952
0.47614978675393077, 0.40751554888458336, 0.9775417776145442
0.4811481619541621, 0.34479070879074614, 0.983396481166195
0.483646312708127, 0.43317238144357845, 0.9865827288787969
0.4974741831267985, 0.42144960675762777, 0.9857669438389942
0.5022846173709298, 0.3875098446774707, 0.9805904482206387
0.5042442086172185, 0.3352861697453061, 0.9758992956142708
0.49527454821067707, 0.3623102483424283, 0.9580251035272253
0.4830675087385159, 0.41992980229218013, 0.9602237016992249
0.4980420287264933, 0.4463510162221548, 0.9615197806521236
0.47945239270104684, 0.45049042971928377, 0.963978010679728
0.4768216812798207, 0.4445129652775326, 0.9676791995768417
0.4759791661058806, 0.5262195257253108, 0.9801386611078549
0.47673015358276083, 0.5046261647282344, 0.9813851926712771
0.47912202263058484, 0.5185019764611463, 0.9854679842605147
0.486329476659905, 0.5817933509149735, 0.9920062209899846
0.4898242175735186, 0.4527604589042811, 0.9888172132053055
0.49925922169223796, 0.525259611583359, 0.987472797656423
0.4998544001172234, 0.45285496290250127, 0.9850144582773358
0.5025082584677195, 0.5094558775239635, 0.9834641943130544
0.5025470333347922, 0.5251713993410378, 0.9684507893770651
0.5034015373681977, 0.4538692879798795, 0.9679670961299676
0.5014281500081084, 0.5464936448254152, 0.9677383771223182
0.4890438875078537, 0.5791235393273324, 0.9642590845925536
0.48556255968866574, 0.5002364896708449, 0.9613506394303858
0.49289051680398466, 0.5070856176791874, 0.961343228282684
0.47668061951213275, 0.029067697837332002, 0.9774366737550736
0.4756799932140714, 0.17958260885618463, 0.9691761984352635
0.4762512442286097, 0.032602659292101106, 0.9665697085709003
0.4841586173921951, 0.1369133571765832, 0.9581848493276917
0.483213268395343, 0.08986910895383327, 0.9586712552222045
0.4935075272498956, 0.1526125881457967, 0.9572930372190469
0.49170338161948185, 0.026246957476161556, 0.9570145895394137
0.49852349757406195, 0.06917575822426099, 0.9594450014780511
0.504429022862315, 0.13634065112384203, 0.9684130532025605
0.503993649342511, 0.061959308715309504, 0.9665933021317066
0.5044986190031193, 0.20254532276103937, 0.9743138324520002
0.5021149527654653, 0.08557869122945914, 0.9802856451030595
0.4963526233716279, 0.16416507465678118, 0.9848274037665398
0.5003431698069941, 0.05946425000012549, 0.9820468872386046
0.49118040412550834, 0.11160836749860135, 0.9862214800535346
0.4818036826829578, 0.1496104250223527, 0.9837588843897316
0.4880808305725399, 0.050225369181366074, 0.9860715672287543
0.4800099911463587, 0.017745854198289484, 0.9821661129690966
0.4765751330453676, 0.8217748734168255, 1.0310495054772015
0.48738017768051717, 0.829634196308874, 1.0204559055779323
0.4780978627658699, 0.5719193017649971, -0.5280950766446414
0.4772193427833573, 0.5777755544890748, -0.48303666191994293
0.4765389227927501, 0.581786599190587, -0.4922276093931669
0.4769128230819095, 0.581403955823188, -0.36721522533049233
0.4785217898229807, 0.5682459354436208, -0.1987013764146121
0.4775832914048782, 0.575258288668603, -0.27259784093830974
0.4758034307946956, 0.5856717688758089, -0.6469885717772224
0.4755897322515344, 0.5868776377116931, -0.7326277444814838
0.47738787380844766, 0.5768867801550658, -0.7869573940675325
0.4764757820751535, 0.5925388361785988, -0.8584765958377423
0.4684131718384732, 0.5825056758845631, -0.9071795095324995
0.36271036587631467, 0.5874109249744344, -0.9466398676784258
0.40967181783574214, 0.5748936296275995, -0.9505514871768386
0.477875527627841, 0.5752865615485102, -0.6535951915872394
0.4789265402785089, 0.569506166988196, -0.6710016773199202
0.48052833721416155, 0.5132584542729202, -0.6680215265624141
0.4804853515552173, 0.5222503717719471, -0.7397140914990374
0.4802794592427107, 0.5279683669499835, -0.6791688739392244
0.4805828532558356, 0.5094094327217429, -0.6588005909729616
0.48069289168157636, 0.510754781290449, -0.7387568433284607
0.4805843177878649, 0.5117872989959181, -0.6853865959588923
0.4784384160618164, 0.5731432106375919, -0.7519481382080542
0.4780804024450929, 0.5748200454581605, -0.7526862229909919
0.47964145917969864, 0.5656047460363114, -0.7451481666268145
0.4795157579789051, 0.5257919150059641, -0.8244984904916601
0.47940640671699497, 0.5463189003172334, -0.7996511894194599
0.4093569943855924, 0.5239526878303931, -0.9547215700258127
0.42466856333705705, 0.5808783917316453, -0.943737269552964
0.44025791723466506, 0.5126092383114738, -0.9459456727537854
0.4167217918785592, 0.5530552678680065, -0.9521663032485133
0.36029239809246283, 0.48026959571995137, -0.9585227671910511
0.3760836401960732, 0.49305849338314567, -0.9580269534039327
0.3629248898492568, 0.4793831822887066, -0.9584227734439712
0.3610384325109832, 0.395978839824326, -0.9562518896341654
0.43708211492269855, 0.4679205351598811, -0.948401667138245
0.428850518754828, 0.45497923797701667, -0.9512501980791255
0.4299381001893233, 0.4548581450451209, -0.9509428381394198
0.41066260964382384, 0.4095028681313903, -0.9550089477611121
0.40317786027738217, 0.420760697890935, -0.9563149461869842
0.4303451260959442, 0.42364213734496187, -0.951894234185427
0.3962629619943964, 0.5201749306984423, -0.9568115080521692
0.40010530643412356, 0.5341700570513621, -0.9565084692598768
0.35855499101679317, 0.37858300684830604, -0.7631600127176557
0.2474501256232827, 0.37858271263750426, -0.8099139308419476
0.36875061541205695, 0.37858304178108515, -0.7744374004827954
0.36213711443770774, 0.37858304199608217, -0.8120040505605248
0.35903194772741004, 0.37858301035832603, -0.767368152433547
0.3320864437063076, 0.3785829551140577, -0.8103137056099459
0.2710546311333061, 0.3785827820819107, -0.8135950748146143
0.4050048211615481, 0.37858370509669526, -0.7887172103509932
0.4128597948929522, 0.37858389355204747, -0.8005362653551832
0.3979632906936679, 0.37884361545606143, -0.8216220642705714
0.38145651421369553, 0.6352587286609785, -0.7766696153868841
0.39987644933095234, 0.6358194038150808, -0.7374253991722252
0.31417836236702096, 0.6407851275594046, -0.7500779914748985
0.33014155111980686, 0.6428665980780907, -0.716566392744364
0.31473518163648595, 0.6394752032655016, -0.7680332382882366
0.2533989844329486, 0.642274183608086, -0.747448217084774
0.322631340432466, 0.6393432353275474, -0.7675244076891952
0.3436698563094018, 0.6426498707717931, -0.7155650081948463
0.3376203384197955, 0.6420780601342269, -0.7252631176962024
0.31699706575897674, 0.6400787513897217, -0.7590158352534347
0.3501086732226169, 0.6358220477115417, -0.8005170607087491
0.45770228948499136, 0.3831716561380301, -0.8052367091889362
0.4713821967301952, 0.3870526899527843, -0.8048406925973292
0.47284017671220224, 0.38716793565135693, -0.6048152504751227
0.46108676190278197, 0.38381110998056034, -0.7979349927754102
0.21568596228369025, 0.5866491266365226, -0.9465407709592478
0.31746825494496733, 0.5974830658061454, -0.937017579662281
0.42272667924443064, 0.602833330224202, -0.9248401776077891
0.3781285952359525, 0.6091624183615852, -0.9188486388158889
0.41096699139248805, 0.5992940136677766, -0.9324073246788133
0.4020366530166779, 0.6135614828902403, -0.9051065898583734
0.38196344210611155, 0.6201822786586988, -0.8902771155347786
0.4672111943142647, 0.38472364555087335, -0.8034809839757467
0.41887459265566196, 0.6337577852098462, -0.3315902516316358
0.4269026128024115, 0.6313799606152758, -0.3090467498629882
0.42744627303042176, 0.630961205935937, -0.22449727890160412
0.4274589764411109, 0.6313715109809844, -0.35784687646895846
0.4011729271886658, 0.6386886228456252, -0.30468419034465066
0.38209843041744684, 0.6409469539016377, -0.15695997057760921
0.3853354935511185, 0.6406550446552683, -0.21225091193199064
0.3944606645494589, 0.6396633655918642, -0.3122676106313917
0.39696043327376423, 0.6389204881890094, -0.18376455544707423
0.38632524140380103, 0.6407329824042076, -0.28447149819441514
0.3924156757059405, 0.6401180415685189, -0.45618925214023753
0.39986048403220525, 0.6391059228213414, -0.41223000470278975
0.3643708355731512, 0.6434683149381237, -0.379129335932152
0.37987500161364873, 0.6415627566230211, -0.3937030604578605
0.38892154032414566, 0.6406102360353061, -0.48583020446920444
0.38738545720818285, 0.6406112254878067, -0.38583359434066533
0.3847151212876481, 0.6404328486936741, -0.6104171711894322
0.36461856715800484, 0.6420336628291159, -0.6581054532390808
0.3656465152131495, 0.6426989597646631, -0.6014237254205852
0.3672224839085366, 0.642978259427188, -0.5682944777022972
0.42754993727449064, 0.6316494948623765, -0.4893057837786996
0.4305169406889159, 0.6308257020559409, -0.5067869007988739
0.43169321236867364, 0.6301835017523512, -0.3701165312089278
0.4297857542256738, 0.6308963259658261, -0.44224105284451587
0.42547216625574696, 0.6320804387245095, -0.4106557362555082
0.3690221288944542, 0.6404586104842934, -0.7179218102592799
0.3873758832934168, 0.6383655588861834, -0.7176054598371837
0.4193753804184089, 0.6327860256614519, -0.6578156989585372
0.4103827317328611, 0.6344977153713817, -0.7139113615526117
0.42276012760205206, 0.6314846279003439, -0.6772497707465078
0.42866336271992433, 0.6299895881092687, -0.6633425901743218
0.44833959416338853, 0.3805384087923602, -0.7710432506190839
0.4259184321976638, 0.37859370290457456, -0.7638718910313024
0.4061360395642573, 0.37858307361602783, -0.6837200460159776
0.40520514968459853, 0.37858307361602783, -0.7402141988529776
0.3987277296006685, 0.37858307361602783, -0.6459764662456527
0.4293633669010543, 0.37858917777731077, -0.6845885972153039
0.43074793145758616, 0.3785908886504683, -0.6950026554645805
0.43978162085876304, 0.3786246261858152, -0.6821241205555477
0.4364626271112011, 0.378601169002681, -0.6925586820086829
0.4387131864894937, 0.3786082512420467, -0.7016202336224752
0.41698683421999055, 0.3785830736160279, -0.5589009129523047
0.3980956538142393, 0.37858307361602783, -0.4804419790194796
0.4127667947807606, 0.3785830736160278, -0.5522384433761278
0.4220650218590384, 0.37858307361602783, -0.5715435878059266
0.43387868695905774, 0.37861368134514173, -0.43366527021681256
0.43927282165535014, 0.3786397406566891, -0.4602828128484281
0.39617977213926553, 0.3785830736160279, -0.3855465410869482
0.41399759602485675, 0.37858307361602783, -0.3801467561640228
0.4191493488598558, 0.37858307361602783, -0.3468646407333006
0.4185053383828052, 0.3785830736160278, -0.37066173498975713
0.30699276030792905, 0.37947102180798464, -0.8347719210026293
0.31164323229477464, 0.37930540152414793, -0.8319064047165062
0.35313845133764377, 0.38008956073865496, -0.8455336354668904
0.3334302628165429, 0.3789292354507975, -0.8254086739097154
0.21818112803658934, 0.3785826539260742, -0.7936025637510373
0.3006972040383088, 0.37858287496777376, -0.7595547389971607
0.22376325338230094, 0.37858265131663155, -0.8070826714434746
0.35850741907762074, 0.37858300623789487, -0.756901362162653
0.2190862925936831, 0.3785827050147128, -0.7494952994179113
0.24232064659373515, 0.3785827491416477, -0.7561859313931585
0.25312697293386566, 0.37858277140187735, -0.7577369626386521
0.3218291498260098, 0.3785829189529859, -0.762178925803222
0.23086532163166412, 0.37858270441175956, -0.7735335604946177
0.20094018646277073, 0.3802060892007269, -0.8500536519413894
0.16454514967924017, 0.3797132644330029, -0.840391224239778
0.19926281620330166, 0.38021153247121736, -0.8501426689306801
0.13165300193512586, 0.38018938715624395, -0.8491467357716889
0.2073319491420255, 0.6327442533452089, -0.8405659362540894
0.20112034346437233, 0.637524642938511, -0.8069505536319587
0.2733744229061971, 0.6346403929439461, -0.8225308640510958
0.2779625179985014, 0.6344498139594607, -0.8235731199459135
0.38436321932917156, 0.38017181008692, -0.8452910715264893
0.4163890978739433, 0.3811133797072982, -0.8559163777702853
0.3810020393920158, 0.3785832910386896, -0.8132933492809177
0.3858653066963914, 0.3785832639168347, -0.7803399869124763
0.4171964144085464, 0.6289642205727024, -0.7839030871428757
0.42179178089005676, 0.6278273841015233, -0.7887411553604518
0.44284561597945726, 0.6200297480432494, -0.7972162312557753
0.42754566391074006, 0.625624403272734, -0.8025421837742508
0.3777044052380383, 0.6271232091320613, -0.8571124699897139
0.3885887646722988, 0.6238814986484628, -0.8723839554190385
0.37362112602250175, 0.6346147177958001, -0.7970176840035854
0.378279983779589, 0.6336629658141701, -0.8040580437991363
0.45372886861271283, 0.6136258986576477, -0.7992166869615005
0.47361867906103855, 0.5917457829528303, -0.7584539224423261
0.4611351904902887, 0.6072265164064269, -0.7784154904084479
0.45215681293946186, 0.6135768309246432, -0.8355055494200871
0.42127459546765395, 0.3832473855242461, -0.9039389496156186
0.4032115116106448, 0.3827065172398885, -0.8844247411596651
0.41723112284813346, 0.39141733128621137, -0.9503225923390284
0.3764233760345808, 0.389505931573645, -0.947359806579923
0.3905490779353778, 0.3835673683873824, -0.9183204297627561
0.06625389707921914, 0.37858398610852145, -0.8096390886964516
0.06858238922011076, 0.37858398290775586, -0.7969864346301564
0.18074226587315306, 0.37858284348560123, -0.8167704369988705
0.07857285262933489, 0.37858387880760863, -0.8004142539703176
0.14516046952277706, 0.3785831996125796, -0.8139079896558175
0.19359576466449288, 0.3785827504677639, -0.7950495874108856
0.19512403369724077, 0.3785827814878573, -0.7655920611762179
0.17387672191181627, 0.3785829907702681, -0.7660384241501536
0.06701862359095098, 0.3785839978022423, -0.7973439449818034
0.07480686013839416, 0.37858390242271683, -0.8091021206975856
0.2138725345361958, 0.37896956891329486, -0.7243407589070893
0.26751912070010303, 0.3803252520724095, -0.6284589132241511
0.2411149621524294, 0.3799927068918226, -0.661954653280121
0.31269831592073033, 0.37895377899946436, -0.6505497217967764
0.2128876945745386, 0.37966852534653056, -0.6964813493276056
0.33084497118886225, 0.3786786568683018, -0.6481393329594625
0.2165751673688702, 0.3795438035760005, -0.6988074845793268
0.21251177961166673, 0.3807798075145551, -0.6512909720047455
0.22645334375767306, 0.3789550231293894, -0.7154599038828696
0.2810037006792071, 0.37929131386775755, -0.6606107295347089
0.3229267319526528, 0.3799278895637655, -0.6029850371209415
0.30318739089399965, 0.3798305327581936, -0.6218368522370894
0.2774177947987597, 0.3797856061648238, -0.6430853143475305
0.3294315257322733, 0.37970575477832696, -0.6071752491315022
0.23112907165717494, 0.37929122383983976, -0.6981807813269376
0.288220909074418, 0.38049973849535057, -0.6057260334445815
0.21178535181353042, 0.39217013323909206, -0.9555900651002662
0.2454323808250761, 0.5788539221755142, -0.949985202320588
0.23412143437940786, 0.5827564902703627, -0.9483968524359051
0.19603148039972718, 0.5806991434207432, -0.949190558995556
0.47963228537042624, 0.392232906369845, -0.28445292207441947
0.47884902406985097, 0.5668523523561637, -0.5776336309735003
0.4778921053458041, 0.5750411842322145, -0.43423924485484827
0.4792748011936777, 0.5688327622452536, -0.38582799175412436
0.4807430067557337, 0.46187000082436747, -0.4773142399122426
0.4806715811172691, 0.47973035639186745, -0.5411299930532667
0.48087406354277257, 0.4228450796872424, -0.5857074491525323
0.48078441409638406, 0.44781586857707883, -0.5737327345175054
0.48067212705733914, 0.4788294046772754, -0.5682061144609771
0.48067854447423086, 0.4783743227109529, -0.521019420406506
0.48072691035686616, 0.4653041508917275, -0.5130000316526564
0.48095129536527903, 0.4016347262027279, -0.585146541436395
0.48076545379467506, 0.4538199563629922, -0.5451332249057741
0.4806544548904185, 0.4863076670871212, -0.4736858350375649
0.480667341245196, 0.4824909015358807, -0.48360752290593134
0.480630210208537, 0.490915287642604, -0.5478075216826991
0.4807057487251873, 0.4720453389141298, -0.4796372684174354
0.48074662442364324, 0.45942255498913465, -0.529713019258965
0.48094596800275435, 0.41324560451539705, -0.2977526077261101
0.4806986842837322, 0.47241458118723945, -0.37173235951816497
0.4809134751331833, 0.40439507743358516, -0.33509839670300634
0.48081779592468993, 0.44250060598512025, -0.3384464181625504
0.4807415923915326, 0.46814282589523565, -0.34893396010712613
0.4808060736395427, 0.4452482423554374, -0.34204844857176164
0.48083425720448225, 0.4479883960469453, -0.31785831308342366
0.4810063203275615, 0.4161873547141417, -0.2508137520395274
0.4810363392192924, 0.41744076340499264, -0.22781525004628136
0.48071757889415084, 0.4814015829485941, -0.3436344559738707
0.48090889311801216, 0.4185205706518855, -0.3148197238980033
0.48111982523599395, 0.40829660875712703, -0.18484007160707513
0.48105227757378205, 0.4209141406300183, -0.21093868622325485
0.48082688435654597, 0.41433600225277434, -0.3789129020872805
0.48077714019862733, 0.4357531430180823, -0.3779852226778916
0.4808193933292066, 0.45186307093003997, -0.3217765512813552
0.4801037332244135, 0.543337998391854, -0.461238557892892
0.47940452284270074, 0.5609705514424266, -0.5022772427450238
0.4803771331863398, 0.5120851060213, -0.5861942806076819
0.4797307252520097, 0.538412980699221, -0.566091541013316
0.4800950867255805, 0.5407937373731404, -0.47773612150832795
0.48026850596622483, 0.5212538361123871, -0.5553523274850427
0.4791666849135441, 0.5594399036974602, -0.5598160391184356
0.47953471241548606, 0.5569018051391833, -0.49918390975339877
0.4804198583104488, 0.52156349983495, -0.29273442275128403
0.4801481182617618, 0.5434621116194638, -0.34765257180692255
0.48053139917531507, 0.5114235236608342, -0.3126431444336165
0.48006229420220004, 0.5504464696847355, -0.36248687225297005
0.48065697310811284, 0.5045345634379752, -0.16814241795735874
0.48053297180344895, 0.5138599292354686, -0.21781481536213484
0.48062581712899155, 0.5044331587099458, -0.2707570500709461
0.4805146971683516, 0.512433885774395, -0.32839301289631984
0.4800484013681774, 0.5518143647633654, -0.3561383469643979
0.02817576436149385, 0.571482919493596, -0.9520266709620826
0.15078686571675293, 0.5864847577922557, -0.9466176056085354
0.14144589871227578, 0.5853275150057745, -0.9470355208851071
0.0882713592444191, 0.3967720736234853, -0.9619540495257832
0.345199923369446, 0.4151733488206277, -0.9581483443092766
0.34536656494172935, 0.41691409195405144, -0.9581642500555752
0.3274282026712129, 0.4571560759307186, -0.9590792667436601
0.27409755914313483, 0.44212227909358925, -0.9602452426269249
0.31710827431335203, 0.4144790091712164, -0.9588459012960867
0.32817109749550444, 0.4486584571235688, -0.9589625301577915
0.29818659173204526, 0.4338458456973471, -0.9595446798356191
0.28479985578364675, 0.44448391236205104, -0.9600036931382487
0.26192448510932037, 0.43590985456858805, -0.9604792883503201
0.20194654831226225, 0.39783592938895773, -0.9615462989787686
0.48066531120158684, 0.418666349682796, -0.7708626614968088
0.48030682242540046, 0.4245851829466147, -0.8052155585682519
0.4807147634821115, 0.3983565233733784, -0.7665302286771281
0.4802072857881243, 0.4038685224368691, -0.8152200540471242
0.48062983996882724, 0.4060602982643382, -0.7745368053096264
0.480804987043951, 0.4135770468759098, -0.7575359757011673
0.47701547527847565, 0.39021099141264926, -0.8362623721936857
0.47465936158167654, 0.5546069680811159, -0.8868106968550613
0.47508622260274713, 0.5684271613774492, -0.887072623163035
0.4779441313942416, 0.5724352019288212, -0.8475793550746731
0.47992272587056695, 0.4337727682610514, -0.8735455453510144
0.47991161293650364, 0.49293407759198926, -0.835185118410365
0.47960511965609975, 0.4636237899051404, -0.8599121240279102
0.47987956039106694, 0.544605817113842, -0.7605561044604959
0.47982296957600606, 0.5321124061279123, -0.7858991428227599
0.48014738993187434, 0.5122666492439127, -0.7927209362540155
0.47838919494550275, 0.549419478276242, -0.8676461891507244
0.47871038108753755, 0.5630593856426795, -0.8317564695778411
0.4802368671015641, 0.5345792709836852, -0.4196004153828591
0.48044640520798576, 0.5154818910378465, -0.544508244853368
0.48059283897971156, 0.5035121419849606, -0.45982377247946904
0.48040866118051306, 0.5198739681369637, -0.40304085055474714
0.4802305066178591, 0.5352333253125916, -0.4065174009348771
0.48055292945495137, 0.5060782489053028, -0.5698945690452334
0.4802939470158214, 0.5295060694847965, -0.43749658371771594
0.48000461492458013, 0.5549155493618297, -0.3850252365010044
0.48055510934550194, 0.5070934886870778, -0.4195071848277397
0.48019383958648165, 0.524960824139119, -0.6280509295759188
0.47962667199993414, 0.5447641777598575, -0.6208739061629815
0.48003171536174694, 0.5275887023970212, -0.6110201500105538
0.4803805556038666, 0.5149186687627464, -0.613015101241414
0.47950012654172364, 0.5546361264636033, -0.646206852062105
0.480048093553512, 0.5369046879163165, -0.6600628412476838
0.47926344701855894, 0.391259377083102, -0.7112142184711037
0.4809155012129047, 0.41523701459797785, -0.6001941427090698
0.48080607361292615, 0.4442870386280056, -0.598747355079419
0.4809264293343651, 0.414150703865916, -0.6041995883446376
0.48079492248851763, 0.46247664434978514, -0.6309999102541354
0.4808431862577954, 0.49923871704794076, -0.73710731878389
0.48090610180937865, 0.43556367269484797, -0.6380057414490258
0.4806368745246842, 0.5022130663557693, -0.6241852174113128
0.48090064079282874, 0.457717204883173, -0.6819803979344926
0.48074706138757006, 0.5020634849404548, -0.6875559461366644
0.48081617783122277, 0.46760103955779125, -0.6541877246774617
0.4808474975537034, 0.4690429164410651, -0.6753583578129625
0.4807856368803961, 0.42975291889557965, -0.4033897991393921
0.48080543211537974, 0.42337032686255244, -0.4116460959295215
0.4807348343359483, 0.46286127284436024, -0.45592980695665003
0.4809159533027991, 0.40569910394164865, -0.5369201672714186
0.480699731619409, 0.4659339430612416, -0.4049467915933621
0.48085010436216746, 0.4260207356101821, -0.5054443298524091
0.4808716009404878, 0.419411402541985, -0.5158286741892308
0.480666507564131, 0.4771625563054824, -0.393364499065389
0.48084539870340454, 0.4016726492670961, -0.3894800519973089
0.4808201585732579, 0.43364894775161583, -0.4840193587821659
0.4808133588095962, 0.4401968237807004, -0.5003798327126298
0.4808424014008498, 0.4113937791525209, -0.42681634651486783
0.48077242079346616, 0.44741476042685685, -0.45694065354656754
0.4809277541609025, 0.4034076973825727, -0.6602862816173946
0.4809195685466847, 0.4007155245068862, -0.677786919305658
0.4808882156200319, 0.4648792537557156, -0.7035863572877045
0.480904778719915, 0.40359561448106324, -0.7051196529753726
0.4808721988648655, 0.47875154191289393, -0.7272331410528754
0.48089447144124337, 0.4416575142058793, -0.7042070759570711
0.4809217943654547, 0.42833093803074246, -0.6581445558199425
0.48091918669722755, 0.43059254194857993, -0.6619927578976196
0.48091435792722464, 0.4025897722924943, -0.686940659326075
0.4808943902364966, 0.43461709124561854, -0.708263740697596
0.4809054760139411, 0.44061751332184185, -0.6832591375284889
0.4801119681742678, 0.47309304970806954, -0.8143978028763463
0.480604240683016, 0.47171663854763296, -0.7753959870459293
0.48010270752133705, 0.4143361979312511, -0.8236335567002233
0.48067826875084335, 0.49671252209817357, -0.7658856636925668
0.48005646270929336, 0.4528061739359338, -0.8217520370101867
0.21831743240566934, 0.4417091679035142, -0.9627716577900494
0.29698143098758817, 0.469481619046295, -0.9600340812527641
0.2549157325418899, 0.49922987415636966, -0.9638643712010019
0.284571053264151, 0.481554616885937, -0.9613390163031998
0.1945749481176579, 0.42877259110275245, -0.9633562775442577
0.29042263505517385, 0.48489857170885065, -0.9612031865795085
0.2068738816221263, 0.4339042040815424, -0.9629701506997552
0.260544194441617, 0.4967071019227145, -0.9634292089675358
0.20794406183288694, 0.4511528388872199, -0.9638280387181979
0.19961872413701814, 0.4611684512517701, -0.9648051281750096
0.3332701274014307, 0.49437093545880173, -0.9594120124055963
0.36990683828500703, 0.42259442869279684, -0.9576287654143026
0.36035209927320827, 0.46642190533165273, -0.9583678042834975
0.38370837537255664, 0.41599822218111027, -0.9572155340784182
0.31803860402008843, 0.5748745709833494, -0.9515386330062852
0.31271183583299034, 0.5754726851411841, -0.9513145427773635
0.27202551159285765, 0.5705263787276246, -0.9532891041999515
0.14693298331610222, 0.5205916999308153, -0.9634378889041229
0.017023366806622448, 0.5653048825549675, -0.9539633344331074
0.06709357460639871, 0.5484461673552264, -0.9575460060634434
0.09851091175758048, 0.5594406498080148, -0.9558199204713769
0.12908182165421309, 0.5451543043096282, -0.958742955750173
0.04387139558077369, 0.5576476728611542, -0.955629697455727
0.11668872274435861, 0.5481669519123684, -0.9580699092604525
0.031038515286115734, 0.5652438192297835, -0.9541080982865154
0.09798972420506429, 0.4560841558624124, -0.9656592014429541
0.016113337683733096, 0.49706033379123366, -0.9713635194749592
0.05764681769960721, 0.45062054090600046, -0.9661955281209554
0.04760061389225303, 0.4324877048322514, -0.9648421227213084
0.08506987322642773, 0.4591862614545401, -0.9662611040483163
0.06597324461880712, 0.4487023185935118, -0.9658148010821352
0.020019219166632077, 0.44453633839118406, -0.9666081365697117
0.13326836160927824, 0.48109159165798715, -0.9669836794798428
0.10566616091080527, 0.4546216310626154, -0.9653353199469423
0.09481635156738606, 0.44797424080729387, -0.965020498704033
0.07439383428796133, 0.47448329487747243, -0.9678873884245762
0.020223596845362093, 0.4224555166862942, -0.9646453710104537
0.034933249282226346, 0.4436378907125638, -0.966151146841988
0.2591613406479026, 0.5180137926509261, -0.9629655968845645
0.2843471187967654, 0.5319502180709152, -0.9608790410978958
0.3069291400319859, 0.5341366653389674, -0.9595735209377059
0.30775739329044643, 0.5102436979704028, -0.9608402481353522
0.34840551673358994, 0.5528445801697861, -0.9563700078331723
0.294142284103664, 0.5077346417229721, -0.9616926698938403
0.24746692640812962, 0.5381701878014498, -0.9605835238135532
0.20075524278479592, 0.5136218900537136, -0.9651531789368463
0.1936978903291737, 0.5183371814541099, -0.9642910169615678
0.2009137561177749, 0.5316417259944864, -0.9618319828721225
0.2800328826615393, 0.5431703862184174, -0.9596303237686659
0.26046312145420925, 0.5345648494838217, -0.9612353473245819
0.3677126189505047, 0.5228477198208068, -0.9573441729423677
0.35826855852077033, 0.5333032120376691, -0.9570968863570155
0.37416485973996927, 0.5758320018880696, -0.9512098810192094
0.4805555404225438, 0.4280395850411636, -0.8647769164925219
0.480551511092829, 0.42381648560864577, -0.8639995253269203
0.48019157813859215, 0.4648658638906849, -0.8450600850635231
0.47996319343494454, 0.46866627146690787, -0.8303566679670841
0.47917272567933744, 0.5202749964777839, -0.8342963857504733
0.47871686177854966, 0.5412511298524059, -0.8333036101012765
0.46920606315182023, 0.45750425213438173, -0.9125672165396813
0.4689487396625657, 0.49592211184003426, -0.9057569422823317
0.46756731155833986, 0.44394197754934306, -0.9208112441829711
0.48015065096131476, 0.41351244979663376, -0.880041052086753
0.47889559196990866, 0.3997511601546956, -0.8871057138292464
0.47967560642922596, 0.43056339034496405, -0.8790284801550661
0.4637845250911624, 0.48232694351185285, -0.9223589083821552
0.464733186603754, 0.4853425484725311, -0.9209324400327485
0.47363239218217257, 0.3900743085907186, -0.8988028703135909
0.4570463902387569, 0.42645795865380554, -0.9347630105760735
0.45364058859268663, 0.4244851271105024, -0.937781775134636
0.4463466957182154, 0.4091306215757117, -0.9445885767242703
0.4593004786692825, 0.5436719809569496, -0.9258457669776892
0.4450531297086767, 0.5644741660661816, -0.9407724947156774
0.47644680863570593, 0.5189816937884367, -0.8791844764040306
0.46263840656989474, 0.5768608920657949, -0.9219086422464676
0.44672448986534713, 0.5516219346498222, -0.9388326852115828
0.45273473507146655, 0.5195874295959582, -0.9325144363312856
0.33285277100990873, 0.6454336364330826, -0.23045538159112278
0.31951833358140996, 0.645974629218184, -0.2486221447755329
0.3118764840616194, 0.6463286056122541, -0.21414376103696264
0.32446998565239954, 0.645747014004572, -0.26917591021157417
0.34247842492228253, 0.6449827865749181, -0.2789742540981929
0.24602822908663297, 0.6491374643727159, -0.16355879723286076
0.28510538974259675, 0.6474721630224084, -0.1919483902905386
0.33437042391938665, 0.6454163045398374, -0.18318879074860994
0.31813137246389117, 0.6461195609528405, -0.1599306624368156
0.34041415596985675, 0.6451592648246351, -0.18705006509039424
0.31340006260138537, 0.6462993438458569, -0.17881168506867745
0.3249805641848713, 0.6457571688598325, -0.23694226201503493
0.3066670171961832, 0.6464982869294238, -0.2638159675048235
0.3445160743106417, 0.6449745331854329, -0.20017047258897264
0.24977287869329734, 0.6489823896246801, -0.16167551895827537
0.29235721395979225, 0.6470919660471247, -0.2699129085155637
0.32578070325582864, 0.64576794799758, -0.1916741409833536
0.312440591119161, 0.6463647935555348, -0.15302163893629986
0.2358611176601187, 0.649557783633446, -0.16941252384630628
0.26301584664871946, 0.6483963667346379, -0.19342993743589298
0.22391653725860097, 0.650046350012415, -0.18163834713643348
0.3748153686043208, 0.6422326824008425, -0.4862298424519941
0.37065666628836846, 0.6427198182664374, -0.4627298348566182
0.391047074941872, 0.6403554326963362, -0.5530072275403269
0.37579947168543776, 0.6421314248445588, -0.47726798348289284
0.3836698432311973, 0.6412504364069552, -0.4793453663724713
0.3678093310910178, 0.6430166889727147, -0.4846195405055538
0.47274278810463044, 0.5942572763339691, -0.19926309864899702
0.4758143206176836, 0.5854544856684297, -0.19930803327644075
0.4537364375021683, 0.6181732866447911, -0.4148997285610244
0.45750458933599836, 0.6150790616513508, -0.3860997367227632
0.46533409541673526, 0.6060356881471025, -0.5414309681599401
0.4595560934643037, 0.613357264803627, -0.489741474854356
0.4703619971677643, 0.599197972179612, -0.19088664727847715
0.4619549906018156, 0.6095837962651073, -0.1714462050777759
0.46623254953066035, 0.6043361458511475, -0.19849211173554968
0.47256579351015743, 0.5949204399724338, -0.4862602573625997
0.4752174808129912, 0.5876261756330705, -0.5628340174889757
0.43651931786721765, 0.628482757330566, -0.5023769005890899
0.43808797284280754, 0.627673694067036, -0.4941889315626411
0.45692199739164996, 0.6153606853061699, -0.316617370806761
0.4522378554621443, 0.6190982666207824, -0.34444244823980674
0.43628149976538133, 0.6278595114566825, -0.3117751691035174
0.43624923866970805, 0.6278925671088051, -0.31809562158207305
0.44016620100648723, 0.6259323175319902, -0.3079514848366851
0.4224939418628915, 0.6328337396686801, -0.3709829215467434
0.4180757745872592, 0.6342128056261033, -0.41214979617520525
0.4042575552048498, 0.6382456022657326, -0.43512065694600993
0.40273191248389656, 0.6387932655329929, -0.4762973875005686
0.24404147641522922, 0.6482955122130282, -0.41901693844496285
0.3051316731576974, 0.6460334959752319, -0.47203414846705
0.2518717273360632, 0.6480459772024847, -0.3901697623712799
0.30425992269662766, 0.6460375344787642, -0.49619269789609666
0.32172293946462804, 0.6455473281788873, -0.3733585543339831
0.3108384021661801, 0.6458125553875746, -0.4854870767334336
0.31774862004480525, 0.6455590044540623, -0.4894398937651622
0.31948619299766534, 0.6456029654310489, -0.39540049112578657
0.3058732203733109, 0.6460737022831038, -0.4129808032646488
0.3268330921364583, 0.6451917489691587, -0.5245682294833769
0.3044184730705134, 0.6461576546547074, -0.38517409831884675
0.32009835087106975, 0.645578347096353, -0.39765362467514376
0.31491138877766256, 0.6457883363683737, -0.37733404288474426
0.3253692942571209, 0.645365077685469, -0.4181965346073342
0.34824024156487743, 0.6445018757270252, -0.45246853442436347
0.293935560166638, 0.6464762025123707, -0.4374885703188384
0.3267276814923289, 0.6452804237229538, -0.4496864588411929
0.3354190632451034, 0.6450437576173909, -0.382101777117985
0.2318562717426747, 0.6487870497731639, -0.37284288475506133
0.30398526616791577, 0.646048688381935, -0.4950861414511198
0.33062738754030374, 0.6450818005611115, -0.5009127860889362
0.03147884509443591, 0.6437078206733705, -0.7276953946573116
0.07580264954638258, 0.64266373926887, -0.747117894842325
0.06393864747780038, 0.6434829026488069, -0.7343440962634649
0.0062407876921925926, 0.6400396234249723, -0.7764662285265248
0.061324177263333696, 0.6409944128243983, -0.7689905890614446
0.03687494525370266, 0.6423348135972526, -0.747547011912096
0.04148644290589905, 0.6441496964114473, -0.7225699042334646
0.008439951148852962, 0.6411944993775334, -0.7604932874999064
0.12268127192610716, 0.6431336241004756, -0.7455656231713681
0.018424799254673833, 0.6435278539757655, -0.728817086547466
0.3222390181822987, 0.6381236575600024, -0.7838040181218545
0.26289882747805365, 0.6411583059844367, -0.7589349803600532
0.2072651548536462, 0.6445100093474139, -0.7298947087405562
0.194846934217959, 0.6389247212068403, -0.7949798797854203
0.19487137656933176, 0.6438036161703325, -0.7398448346892407
0.3014432715828139, 0.6389114322059392, -0.7782042526306416
0.3194561399638618, 0.6376066262114908, -0.7900883118817068
0.21832343254412645, 0.6392338388486946, -0.7877591804392625
0.3823913773513248, 0.6399718386307606, -0.6576366838609158
0.39886396744577945, 0.6386010001088878, -0.6205443750821612
0.398326440303023, 0.6376234680693952, -0.6852521986758255
0.36096542869014525, 0.6417946982133532, -0.7034102539698915
0.37697773339439367, 0.6398952756064242, -0.7025663972546263
0.3514549713339321, 0.6430558939997262, -0.6690270120765035
0.3388573977855604, 0.6438893841512459, -0.6252828820963414
0.34372123381522274, 0.6435854844912804, -0.6405714984796013
0.34504370844299925, 0.6436336754160393, -0.6330332672351704
0.3529828720445154, 0.6427794917435636, -0.6900051602932202
0.3477228135294941, 0.6430622386581095, -0.6775753076962068
0.34754940451883565, 0.6438003316636698, -0.6120144996471413
0.3482391685183779, 0.6432778117241625, -0.6570422610925726
0.34792122366663236, 0.6436943100480537, -0.6205845255318876
0.261813911712335, 0.6461844564120847, -0.6082796321346191
0.31011429993924133, 0.6447294169425268, -0.6203880069837597
0.24322712596734108, 0.6469012769871127, -0.5895937510414062
0.28548082294265176, 0.6454452345155156, -0.6165603542203075
0.3080576963738579, 0.6451821153131019, -0.5849405799401013
0.3179154308926568, 0.6449523688656419, -0.5814028174577288
0.3304109400871005, 0.37979044315522126, -0.1974853713720392
0.25533467800494375, 0.3811726022568572, -0.29447840079378884
0.33904990785260086, 0.37963139916988325, -0.1654011879412179
0.2699519842350241, 0.3809034966529421, -0.2206696495579843
0.2688544626218572, 0.38092370210064036, -0.1984197688267076
0.2330200660464438, 0.3815834157838301, -0.3035561590468036
0.3728000093911766, 0.37901005750037353, -0.18007125546753056
0.2518742761338602, 0.38123630849114204, -0.22166260263651255
0.3385559279559465, 0.379640493373447, -0.18012149776395667
0.3026380201139897, 0.38030174450474546, -0.23919555406501603
0.25147013313356753, 0.38124374879132106, -0.2865970061826599
0.281561742738855, 0.38068976020764195, -0.1660010141296785
0.3210425807670566, 0.37996291528878895, -0.16792285320447684
0.23885505716967972, 0.38147599319957676, -0.16454004536922734
0.21262488300063292, 0.3819588924937048, -0.35450430227591956
0.21239902950947398, 0.38196305047186974, -0.29772069976347226
0.26924802400101355, 0.38091645660882756, -0.18693267019073506
0.2157063498521598, 0.38190216247895575, -0.30780411516863637
0.2255988350930237, 0.38172004115146474, -0.2781234493005979
