-0.3698659015683473, 0.3648901581764222, 0.43851707753936997
-0.7015776110266686, 0.3648901581764222, 0.4308128063602031
-0.25100335979254756, 0.3648901581764221, 0.45645525836690004
0.37181338063667735, 0.3648901581764221, 0.46969992468740535
-0.020642509857695224, 0.3648901581764221, 0.4722002793167714
-0.6161438008613866, 0.36489015817642206, 0.4380399367448547
-0.5481570255843958, 0.3648901581764221, 0.4428505865172423
0.33794178706818373, 0.3648901581764221, 0.462344398330744
0.6148887744909425, 0.3648901581764221, 0.4687138331440374
0.09767388441729433, 0.36489015817642206, 0.45800038646353847
-0.5105634471623938, 0.3648901581764221, 0.446685380840001
-0.6492321047985329, 0.3648901581764221, 0.4376708949840123
-0.8912579576571314, 0.3648901581764221, 0.4643175823017191
-0.1994009856398009, 0.3648901581764221, 0.4541525838476301
0.5230157041328126, 0.3648901581764221, 0.4634434753822501
0.47224013716875296, 0.3648901581764221, 0.4580091921579353
-0.22843583759089714, 0.3648901581764221, 0.4343991644474868
-0.5490821133324374, 0.3648901581764221, 0.452983228907242
-0.032923878290867126, 0.3648901581764221, 0.4633931478117584
-0.9285238532275065, 0.3648901581764221, 0.41283147567897815
0.34705584258608924, 0.3648901581764221, 0.47185794180378254
-0.8363545758904514, 0.3648901581764221, 0.46918252225172186
-0.7920079025917661, 0.3648901581764221, 0.44151146931756025
0.06032008858973522, 0.3648901581764221, 0.4428877947061075
-0.6464496872799758, 0.3648901581764221, 0.44628750077254153
-0.26374486337000813, 0.3648901581764222, 0.4468756537920899
0.23057527952249088, 0.3648901581764221, 0.4597776582960798
-0.01894364687049735, 0.3648901581764221, 0.44027336002678086
-0.9739807127236743, 0.3648901581764221, 0.4259846004166824
-0.287144870514182, 0.3648901581764221, 0.46934417509427395
-0.7164298454357639, 0.3648901581764221, 0.45793974492906386
-0.8027821037852331, 0.3648901581764221, 0.45951123991153153
-0.557663223859142, 0.3648901581764221, 0.44689879551480544
-0.5863410441701798, 0.3648901581764222, 0.4280325394608806
0.1543194469751194, 0.3648901581764221, 0.460998973470342
-0.8287822932107431, 0.3648901581764221, 0.45374767011761546
0.2848764077951741, 0.3648901581764221, 0.46042796150607823
0.4341164189544452, 0.3648901581764221, 0.46752361989150126
0.45253673239411973, 0.3648901581764221, 0.45738322669788495
-0.7022071350304024, 0.3648901581764221, 0.4564181724056781
-0.6782653037827902, 0.36489015817642206, 0.4155673311952023
0.602465867775468, 0.3648901581764222, 0.4702743613687567
-0.8701612287732446, 0.36489015817642206, 0.47480943215988886
-0.26943197387652007, 0.3648901581764221, 0.4629828598788821
-0.8886320330740767, 0.3648901581764221, 0.40500912304582926
-0.38425071815794254, 0.3648901581764221, 0.45374860293410435
-0.7684019972805077, 0.3648901581764222, 0.40985138048569947
-0.9563772135095768, 0.36489015817642206, 0.4054094504528624
-0.7908652249317918, 0.3648901581764221, 0.4268744244651095
-0.5322351323484549, 0.3648901581764221, 0.4280816736303287
-0.1457791585733209, 0.3648901581764221, 0.44041086261716267
0.12618641607203163, 0.3648901581764221, 0.4691224638170618
0.6500302842725603, 0.3648901581764222, 0.4091786501370566
0.09948658034891572, 0.3648901581764221, 0.41959564932141347
-0.18209229008007793, 0.3648901581764221, 0.40823845730007025
0.6745106454529565, 0.3648901581764221, 0.4190373080330818
0.002708306653013026, 0.3648901581764221, 0.4125148805873649
0.46223904144048217, 0.3648901581764221, 0.41062802441498736
0.6448849406357242, 0.3648901581764221, 0.4560920795554766
0.542397333209574, 0.3648901581764221, 0.4122299742175003
0.19674192544637645, 0.3648901581764221, 0.41691764636229456
0.9335859554063288, 0.3648901581764221, 0.4366182353438657
0.7949097840032286, 0.3648901581764221, 0.4313200800827009
0.671241041130619, 0.3648901581764221, 0.429893682275879
0.19585193982508564, 0.3648901581764221, 0.4439984919929195
-0.3221896361578707, 0.3648901581764221, 0.4013717870069837
0.961831329195031, 0.3648901581764221, 0.43376643233395595
0.2190516684725358, 0.36489015817642206, 0.4454954427264865
0.18345477453734527, 0.3648901581764221, 0.4019014634277956
0.4262747567009163, 0.3648901581764221, 0.4354285153159696
0.2793445660127649, 0.3648901581764221, 0.4297786836446045
-0.054434791382602155, 0.3648901581764221, 0.4122522745042919
0.2953466044533558, 0.3648901581764221, 0.40121056998313387
0.786552010440225, 0.3648901581764221, 0.45698930635505086
0.4004591779816188, 0.3648901581764221, 0.4027210922018142
-0.21853225692458272, 0.3648901581764221, 0.4209238266725396
0.7160268573668183, 0.3648901581764221, 0.41549032180413714
0.7167110603417811, 0.3648901581764221, 0.42386812477759916
0.3772091926941177, 0.3648901581764221, 0.40836109111696295
0.5655012943836978, 0.3648901581764221, 0.42168944330028657
-0.030271514080411704, 0.3648901581764221, 0.4224945098543954
0.6320339541937877, 0.3648901581764221, 0.41750782509111695
0.7121797652956353, 0.3648901581764221, 0.4491709638246098
-0.6998231867560102, 0.3648901581764221, 0.41024231309893017
0.46909391515636184, 0.3648901581764221, 0.4268140071809904
0.9084534195359337, 0.3648901581764221, 0.4174998552042234
0.4578650423607344, 0.3648901581764221, 0.42777805405703073
0.5841423556663651, 0.3648901581764221, 0.43189738169324904
0.13469433076340495, 0.3648901581764221, 0.4271785036653265
0.29836677703777426, 0.3648901581764221, 0.4357179946813744
-0.44358445039266037, 0.3648901581764221, 0.41483888327211804
0.23520994689533042, 0.36489015817642206, 0.4364447920881732
0.7510932658649705, 0.3648901581764221, 0.43266757297458813
-0.7916422653240575, 0.3648901581764222, 0.4018073456424595
-0.4959985121003899, 0.3648901581764221, 0.4066192448047228
0.4969191994720391, 0.3648901581764221, 0.4172346934825597
0.9092053945297739, 0.3648901581764221, 0.46332421994082457
0.582041199276664, 0.3648901581764221, 0.4123138372989113
-0.2849394564303418, 0.3648901581764221, 0.40482906483020886
0.5196142174403395, 0.3648901581764221, 0.4283991370606306
0.5583094057427853, 0.3648901581764221, 0.43305254182747965
0.4566528592120595, 0.3648901581764221, 0.42968146882297725
0.4591140376595744, 0.3648901581764221, 0.4279844944506532
0.8150095418262412, 0.3648901581764221, 0.44128793516519693
-0.19157265451289623, 0.3648901581764221, 0.4079992342016077
0.6162488263009548, 0.3648901581764221, 0.4457386819314121
-0.7518481861944124, 0.3666373567634566, 0.39847119738875136
0.13055270376781727, 0.36752725290823296, 0.3981025823303732
0.615581751614559, 0.37167485314627, 0.3980558301486019
-0.3106250552142906, 0.3684817604609329, 0.3978127539157868
0.5633124662572186, 0.3704521624820072, 0.39781275391578674
-0.918927307361651, 0.37093776643344384, 0.39781275391578674
-0.5915381311493452, 0.37077107396322656, 0.3978127539157868
0.29870532196072397, 0.3701395721855245, 0.3978127539157867
0.9799954091531153, 0.3740034763901031, 0.47600088474008817
-0.2258944110742781, 0.37403771168991873, 0.40021501094673634
0.049139087869744524, 0.3737374734458285, 0.39949018744900433
0.39486696524930837, 0.3744248151779175, 0.42802719718831134
0.830493554290769, 0.3744248151779175, 0.4503375115794449
0.16607485036951825, 0.3744248151779175, 0.4748814570852272
0.9429963010253211, 0.3744248151779175, 0.4122886937515021
0.5815827916522831, 0.3744248151779174, 0.42567287460025444
0.9010808617447214, 0.3744248151779175, 0.417432513710156
0.9489139967415198, 0.3744248151779175, 0.4627994021290122
-0.20518278186464647, 0.3744248151779175, 0.4508629169414546
0.910808239857026, 0.3744248151779175, 0.4367401379692898
0.6847219976629653, 0.3744248151779174, 0.4262972393109337
0.8725627765904271, 0.3744248151779175, 0.468243031723619
-0.21411990866778063, 0.3744248151779175, 0.4674250481369948
0.0061216291546436485, 0.3744248151779175, 0.46433930444155347
0.26670767397373685, 0.3744248151779175, 0.4716830030707746
-0.6761407716907842, 0.3744248151779175, 0.47361269518186894
0.13219802616811943, 0.3744248151779175, 0.4471687415440983
0.3545431090514925, 0.3744248151779175, 0.4524164305821111
0.8995745681679355, 0.3744248151779174, 0.4725522430557292
0.762442337756736, 0.3744248151779175, 0.4473375770453879
-0.7360310994692384, 0.37442481517791754, 0.47185737969275937
0.28362619208635487, 0.3744248151779175, 0.43799132641142535
-0.3067992913179083, 0.37442481517791754, 0.47486609136345836
0.4081271921928963, 0.3744248151779175, 0.4462791536804971
-0.8880947536770945, 0.3744248151779175, 0.4745491218259872
-0.04565763613353229, 0.3744248151779175, 0.44226875986666053
0.029123089021171444, 0.3744248151779175, 0.4446258336031613
0.2106650633034452, 0.3744248151779175, 0.4654779404514322
-0.245901823323803, 0.3744248151779175, 0.4535023433007721
0.27602170992881375, 0.3744248151779175, 0.45452123019606905
0.7450647616911008, 0.3744248151779175, 0.4629512865648333
-0.07649543738733133, 0.3744248151779175, 0.46990583019038257
0.5879617750182299, 0.3744248151779175, 0.4419824599073145
-0.07342000843566115, 0.3744248151779175, 0.4451995607243979
0.5909913925338939, 0.3744248151779175, 0.4255275947292806
0.4227910375472653, 0.3744248151779175, 0.4387774415875279
0.390877289477186, 0.3744248151779175, 0.47040125247691567
0.6350670109703144, 0.3744248151779175, 0.41932376724742
-0.38801334243639773, 0.3744248151779175, 0.46580398378374543
0.9192436039270329, 0.3744248151779175, 0.40591431492166935
0.5115714424810625, 0.3744248151779175, 0.4676858940169847
-0.7689661674673675, 0.37442481517791754, 0.4714938429794355
0.039105540269576966, 0.3744248151779175, 0.47391977915942074
0.12036505961501576, 0.3744248151779175, 0.47183002057095735
0.9419668315207821, 0.37442481517791754, 0.4737349285647904
-0.21622899803466766, 0.3744248151779175, 0.4696076671198306
-0.6713850147745534, 0.3744248151779174, 0.4669721643121913
0.34504999698934496, 0.3744248151779175, 0.44494446497164963
0.5804453485189126, 0.3744248151779175, 0.4459545799390713
0.5484120558889347, 0.3744248151779175, 0.42372989648405374
-0.04548798398013963, 0.3744248151779175, 0.4490443853108166
0.8154914499176174, 0.3744248151779175, 0.4556742244460536
-0.4978083335219298, 0.3744248151779174, 0.46464845793076465
-0.46199769277105884, 0.3744248151779175, 0.4603852800508592
-0.38130947721479097, 0.3744248151779175, 0.4728831373781116
0.26358801471303833, 0.3744248151779175, 0.40164284317546123
-0.9529706977208818, 0.3744248151779175, 0.41648600152268045
-0.4530248198216409, 0.3744248151779175, 0.4326483852399663
-0.7784074536509891, 0.3744248151779175, 0.43186500381461324
0.42921689305382704, 0.3744248151779175, 0.40188712561072026
-0.34710674988371365, 0.3744248151779175, 0.40316766089533246
-0.9626800725121722, 0.3744248151779175, 0.4166984929462763
-0.04044840790740617, 0.3744248151779175, 0.42143935053440573
-0.7392443300852796, 0.37442481517791754, 0.4049380932043402
-0.46630803745229377, 0.3744248151779175, 0.449140129754222
-0.4287169453612343, 0.3744248151779175, 0.43134795848480545
-0.31880198066260357, 0.37442481517791754, 0.4265695582849276
-0.21045053650891912, 0.3744248151779174, 0.44400791479197943
-0.4094191017593348, 0.3744248151779175, 0.4479517500365848
-0.6992786475545758, 0.3744248151779175, 0.4365221340375799
0.2602666856318162, 0.3744248151779174, 0.40646741774506284
-0.9564159587280674, 0.3744248151779175, 0.42958673741975106
0.8495138459779361, 0.3744248151779175, 0.40313408685410373
-0.6772969095043492, 0.3744248151779175, 0.4084285847092577
0.31985532150569357, 0.3744248151779174, 0.4229688131317983
-0.30657090598252573, 0.3744248151779175, 0.4144601924190605
-0.8927906247266335, 0.3744248151779175, 0.41881262786911083
-0.27057563480935637, 0.3744248151779175, 0.4249291684164569
-0.669933760399342, 0.3744248151779175, 0.441946856747649
-0.37599275305211155, 0.3744248151779175, 0.447475678216667
-0.47544239422175466, 0.3744248151779175, 0.4297935924617493
0.4652315684611233, 0.3744248151779175, 0.41463525550126284
-0.8557566669818456, 0.3744248151779175, 0.4309981364559199
0.27445421886431565, 0.3744248151779175, 0.4140325446986961
0.6210801614860816, 0.3744248151779175, 0.41273185259642026
-0.5495966914083018, 0.3744248151779175, 0.4491664435274485
-0.5321716291879004, 0.3744248151779175, 0.4067875126051511
-0.5100343399668218, 0.3744248151779175, 0.4221871005696603
0.02336278990564096, 0.37442481517791754, 0.4306451877548101
-0.33639916532591896, 0.3744248151779175, 0.4370570875708159
0.37190850254542096, 0.3744248151779175, 0.4066315416717087
-0.8877758498694456, 0.3744248151779175, 0.4038790547855998
-0.7525100211112244, 0.3744248151779175, 0.4014415374695579
-0.42084187045820265, 0.3744248151779175, 0.45357044778028877
-0.7148974409401007, 0.3744248151779175, 0.4483256586794053
-0.5048198798898482, 0.3744248151779175, 0.41910438013927587
0.10044353175760745, 0.3744248151779175, 0.4053130818122891
-0.6722852185101635, 0.3744248151779175, 0.42391174950504473
-0.7315710954473794, 0.37442481517791754, 0.41099307552863884
-0.36146956966877275, 0.3744248151779175, 0.4353028510392585
0.9052001769194298, 0.3744248151779175, 0.40187347400196133
-0.8496223168640035, 0.3744248151779175, 0.44673273604167285
-0.4201389949839749, 0.3744248151779175, 0.44098753865597246
-0.502187303081206, 0.3744248151779175, 0.4101180135080928
-0.0007218133232739787, 0.3744248151779175, 0.41527510038835835
-0.8133643123705735, 0.3744248151779175, 0.45015313876815366
-0.2139582847070696, 0.3744248151779175, 0.41912540901108775
-0.643447571397824, 0.3744248151779175, 0.42983108257402636
-0.9229433979865969, 0.3744248151779175, 0.43465871656428073
-0.4447177001903366, 0.3724883430237479, 0.4777404549888256
-0.723751549774986, 0.3721617321740043, 0.47787574044538295
0.7474958173866347, 0.3663509960064951, 0.47754344252968584
0.2608245375690552, 0.3678018462550147, 0.4781443991066682
0.3260173209490163, 0.3707569351727603, 0.47832047939300537
0.8844065194782302, 0.3696622951479374, 0.4783204793930054
-0.40225060331889007, 0.36861678502123213, 0.4783204793930054
-0.11732298332393087, 0.36911454224835943, 0.47832047939300537
-1.005306601524353, 0.4839148069929218, -1.0311273801378866
-1.0053066015243528, 0.8253008715820129, -1.0311173129969167
-1.005306601524353, 0.18276832876898527, -1.0299938449924586
-1.005306601524353, 0.17523934335153873, -1.0301934155424832
-1.0053066015243532, 0.9983554065926563, -1.0212052269601952
-1.005306601524353, 0.4932980406219531, -1.0285124670535413
-1.005306601524353, 0.6327552427133836, -1.0254504838174976
-0.6242165232020255, 0.16347536444664001, -1.019125991929876
-0.8959643273660001, 0.16347536444664001, -1.0229107485755122
-0.6043972625803606, 0.16347536444664001, -1.0371771361090794
-0.7548839800185352, 0.16347536444664001, -1.0354162298183687
-0.3828559362681976, 0.16347536444664001, -1.0186136288921253
-0.1594327274256936, 0.16347536444664001, -1.0169022192080488
0.13051011078778602, 0.16347536444664001, -1.0227155263965346
0.024996118736100394, 0.16347536444664001, -1.0229944617192979
-0.11475247635325132, 0.16347536444664001, -1.037996572379949
-0.11472848051872372, 0.16347536444664001, -1.0345009357204025
0.32769472559485713, 0.16347536444664004, -1.035300631719668
0.4442262723479016, 0.16347536444664001, -1.0370205010814013
0.5184989251092954, 0.16347536444664001, -1.0240833616144607
0.7586547920504695, 0.16347536444664004, -1.0217308083246932
0.7440537569252419, 0.16347536444664001, -1.0387437385669305
0.7822437497205097, 0.16347536444664001, -1.0388028553559376
1.0089855194091797, 0.6168381616758727, -1.033503920194261
1.0089855194091797, 0.7625983448727388, -1.035712659217269
1.0089855194091797, 0.8463665670801281, -1.034296055322333
1.0089855194091797, 0.6722728436139187, -1.0333790017366324
1.0089855194091797, 0.9659415877473695, -1.0187538572901218
1.00898551940918, 0.4575663929971191, -1.0253780513913222
1.0089855194091797, 0.3295352841403132, -1.0219026555269888
0.8973898065224986, 1.045114877283715, -1.021954680324694
0.7838255255650901, 1.0452634645923355, -1.0228761604008507
0.353796313932473, 1.044713930401138, -1.019467123487603
0.16552282667544926, 1.0448336029076364, -1.0202094208759744
0.5647321177181385, 1.0463043016179956, -1.0343254757687448
0.7526683868690589, 1.0463871974527774, -1.0366412625674708
-0.19915922833297242, 1.0443215637362704, -1.017033375259739
-0.06765326977199643, 1.0457313215617614, -1.0257777358711684
0.036831523224339614, 1.046315420225333, -1.0346354916256826
0.13144205854635452, 1.0463403563680387, -1.0353317332108878
-0.8584257167247932, 1.0444030118197078, -1.017538041045543
-0.6202029692043758, 1.044766908969275, -1.0197955533237741
-0.25983680906496315, 1.0464384476235575, -1.0380705373652732
-0.20949787657103505, 1.0464106195474483, -1.0372935501603182
-0.988989633359527, 1.0460987056294286, -1.0285844513242641
-0.945178003900152, 1.0463070209898975, -1.0343993724914502
-0.7872984427238963, 1.0463505080960092, -1.0356142647590358
0.04345823273070801, 0.17707673102176297, -1.0024678407954535
0.1884421529292217, 0.1705375949999379, -1.0051764288588192
0.41691694635829474, 0.16347536444664001, -1.0257675685463619
0.32377410216766095, 0.16347536444664001, -1.0219742077609721
0.549531733764843, 0.16413091110844594, -1.0152028944322418
0.5731814866495962, 0.16613382857175002, -1.010367490046065
0.040252680228366255, 0.16374758248991947, -1.016128318927923
0.4812043509083751, 0.16553252478161334, -1.0118191459617587
0.6383500959790728, 0.16347536444664001, -1.0455477098517938
0.7529505638203028, 0.16347536444664001, -1.0401709601041045
0.34316710817898227, 0.16347536444664001, -1.055728042009215
0.4449603630719121, 0.16347536444664001, -1.05352250755326
0.24461976610626085, 0.16347536444664004, -1.0456366847555938
0.4204009584853703, 0.16347536444664001, -1.0494498102073022
0.6632903357182404, 0.16347536444664001, -1.0344463792906216
0.6719306731930647, 0.16347536444664001, -1.0281691306141336
0.5727297468740244, 0.16347536444664001, -1.055237160491878
0.5854140377704389, 0.16347536444664001, -1.0507825941250524
0.48397018623234905, 0.1639974770933069, -1.0625267915943637
0.2944379649033122, 0.16689501616111185, -1.0695220536112635
0.6264343237210617, 0.16424441152844477, -1.063122942684776
0.6111964516054886, 0.1643059550934487, -1.0632715216521627
0.9431984672284862, 0.17690849981273027, -1.0755144005385557
0.7790414420052058, 0.17308409936230737, -1.0739302882988087
0.7772152359180853, 0.2221876238932329, -1.076090693473816
0.732641383007273, 0.46893801642218436, -1.076090693473816
0.8817847185571133, 0.48594056082401893, -1.076090693473816
0.99085847199662, 0.6430320169402923, -1.076090693473816
0.6923998117090067, 0.278164210119285, -1.076090693473816
0.8539057158262365, 0.7545329518044487, -1.0760906934738157
0.9309258589363975, 0.6133547419746342, -1.076090693473816
0.9838834344371623, 0.468423389455244, -1.076090693473816
0.9738512019231377, 0.4602007808176297, -1.076090693473816
0.8019389513750894, 0.3069019588724964, -1.076090693473816
0.8013089149704743, 0.2453729224400415, -1.076090693473816
0.9181130760070679, 0.717648696762093, -1.076090693473816
0.9052299424737948, 0.561389789201145, -1.076090693473816
0.5921744042797796, 0.23588134337076586, -1.076090693473816
0.997129161168599, 0.5273854796815064, -1.076090693473816
0.994171583148184, 0.612376078747013, -1.076090693473816
0.6704122960737139, 0.30911102981609595, -1.076090693473816
0.9291822152017036, 0.48007970703091185, -1.076090693473816
0.9457545260931797, 0.6150136295764072, -1.076090693473816
0.8212513996244021, 0.43834912691402317, -1.076090693473816
0.9681360159374833, 0.27892826601906984, -1.076090693473816
0.974333813661105, 0.6524270273835238, -1.076090693473816
0.9011344267203552, 0.6234819884246526, -1.076090693473816
0.840545740502403, 0.6232337071545841, -1.076090693473816
0.8648001600465862, 0.1986846580154717, -1.076090693473816
0.906763015340182, 0.40093251852291345, -1.076090693473816
0.9751197400075666, 0.39457163317603694, -1.076090693473816
0.9617545991905856, 0.7036292635039575, -1.076090693473816
0.7040695968431097, 0.25209888915590184, -1.076090693473816
0.872876219031705, 0.470024429393431, -1.076090693473816
0.7595816307918085, 0.4598148941526407, -1.076090693473816
0.6778534477479972, 0.41771054278366665, -1.076090693473816
0.7553802137469167, 0.5924071300267939, -1.076090693473816
0.9884735223396992, 0.5193228347516907, -1.076090693473816
0.884526613135008, 0.6190826105518823, -1.076090693473816
0.9453646216676426, 0.3356430785101284, -1.076090693473816
0.6280813039886833, 0.25618726248430285, -1.076090693473816
0.662314634790375, 0.2201991164507852, -1.076090693473816
0.9223589566851043, 0.8254934548021053, -1.076090693473816
0.8353197002153547, 0.5291290052623997, -1.076090693473816
0.8599831178326631, 0.18881343387980443, -1.076090693473816
0.9561242961789841, 0.904406779950912, -1.0760906934738161
0.8804728391758526, 0.40925221585453286, -1.076090693473816
0.8431154698048315, 0.5802490060860641, -1.076090693473816
0.9886193467105218, 0.35492939971158627, -1.076090693473816
0.9310176259382956, 0.5956475038743485, -1.076090693473816
0.8860092582669564, 0.6676453616804896, -1.076090693473816
0.9980697727321821, 0.8918951564416764, -1.076090693473816
0.9732034577689583, 0.30476408263127786, -1.076090693473816
0.9625481600412179, 0.44807704386099934, -1.076090693473816
0.6680586515154785, 0.2242596192044594, -1.076090693473816
0.7025846892967544, 0.30166130632121235, -1.076090693473816
0.7452709379630016, 0.3146915013807409, -1.076090693473816
0.9860215177771333, 0.5308846776982542, -1.076090693473816
0.7340008546446244, 0.33040675234893, -1.076090693473816
0.7427123327337488, 0.23718207022764315, -1.076090693473816
0.990861483127943, 0.2832736610769996, -1.076090693473816
0.7769450182810138, 0.6399808728745894, -1.076090693473816
0.7421467292241081, 0.3931621591604252, -1.0760906934738157
0.9393427292482015, 0.2115451525070947, -1.076090693473816
0.707874051156279, 0.4953526041261171, -1.076090693473816
0.9679870499897189, 0.40202701516527983, -1.076090693473816
0.7102249271512112, 0.32990408188793613, -1.076090693473816
0.8671503863256916, 0.7138822763805615, -1.076090693473816
0.7075368626688119, 0.26158724499166536, -1.076090693473816
0.8465203682493778, 0.5772566862410238, -1.076090693473816
0.8655913620299627, 0.5317972149872258, -1.076090693473816
0.8893717827436276, 0.1851824953143645, -1.076090693473816
0.7366650194369921, 0.5688188935981141, -1.0760906934738157
0.9876809259464934, 0.7149070911618147, -1.076090693473816
0.6963311776916852, 0.3491881609514127, -1.076090693473816
0.956652274951549, 0.8362451176666508, -1.076090693473816
0.9184907657625387, 0.46421254570217063, -1.076090693473816
0.8436430947179353, 0.5791087583884724, -1.076090693473816
0.9520999605621697, 0.9067473905256971, -1.0760906934738157
0.5955895347276633, 0.23610378345148522, -1.076090693473816
0.7468527759777498, 0.31264579436510104, -1.076090693473816
0.963236816834128, 0.7243627228187328, -1.076090693473816
0.7370825611340743, 0.2645855889049521, -1.076090693473816
0.9782029758294912, 0.6235623498473143, -1.0760906934738161
0.9554653486122544, 0.86971913548586, -1.076090693473816
0.7936256217419799, 0.1861280347362234, -1.076090693473816
0.9741626116102389, 0.41712898002911303, -1.076090693473816
0.7674450651038403, 0.22251856973890105, -1.076090693473816
0.8080471036873226, 0.673813079670205, -1.076090693473816
0.9223602649072606, 0.5528858084429064, -1.076090693473816
0.607484029971522, 0.26944125497331534, -1.076090693473816
0.921067598074296, 0.7904449328688409, -1.076090693473816
0.8268920284388591, 0.5251808425084584, -1.076090693473816
0.6526020198614922, 0.2855648689826523, -1.076090693473816
0.9670097233372421, 0.7127783372308989, -1.076090693473816
0.9456294833498294, 0.3961564266679409, -1.076090693473816
0.8315761757525744, 0.36196904268243835, -1.076090693473816
0.9270860881981915, 0.6254025172747993, -1.076090693473816
0.8069329204525717, 0.6890751370340783, -1.076090693473816
0.696304532125764, 0.39202690766371795, -1.076090693473816
0.6442900849053007, 0.33136082263337674, -1.076090693473816
0.6013937054820238, 0.2687693519058143, -1.076090693473816
0.818395744463884, 0.5186657350443941, -1.076090693473816
0.7975193358013567, 0.3886775567640383, -1.076090693473816
0.9667451884902434, 0.9060091337643263, -1.076090693473816
0.717741627288188, 0.5142144644397941, -1.0760906934738161
0.9108667414357123, 0.19672993383226073, -1.076090693473816
0.8177977757728341, 0.24474946961721783, -1.076090693473816
0.9105109050927722, 0.30099310023029036, -1.076090693473816
0.7803697045996711, 0.3692014383728253, -1.076090693473816
0.8663689135123497, 0.46819304538643974, -1.076090693473816
0.9602115442962571, 0.32388155372931204, -1.076090693473816
0.9256099733323498, 0.28632078453232845, -1.076090693473816
0.6732529682822177, 0.3586790090117235, -1.076090693473816
0.9076117666266494, 0.23670292861168732, -1.076090693473816
0.820067483439072, 0.2336635282598017, -1.076090693473816
0.9691945228216432, 0.27779307339593484, -1.076090693473816
0.8157792867846685, 0.45810567099877897, -1.076090693473816
0.9823262920158066, 0.556325628954869, -1.076090693473816
0.528588464659308, 0.21708280602679295, -1.0760906934738161
0.8040304695130092, 0.5372467563926316, -1.076090693473816
0.7600426786837222, 0.5232574621917078, -1.076090693473816
0.6677577687559342, 0.3353534082091894, -1.076090693473816
0.8667331094803774, 0.6722624421114535, -1.076090693473816
0.9028249598765099, 0.7533478152771236, -1.076090693473816
0.9265855514382114, 0.845447723725197, -1.076090693473816
0.8914823839948087, 0.6650990889391766, -1.076090693473816
0.9264276343627426, 0.5472057059280568, -1.076090693473816
0.6236842261823909, 0.22399311306794234, -1.076090693473816
0.7672260723509163, 0.5953075664331994, -1.076090693473816
0.9324240983058338, 0.450947088711853, -1.076090693473816
0.9580415335712629, 0.8859914818636048, -1.076090693473816
0.8654894313942688, 0.3643533129394379, -1.076090693473816
0.8412278410862866, 0.36851527577243315, -1.076090693473816
0.9007290233741524, 0.4212340563588156, -1.076090693473816
0.8298155380500404, 0.44194760076196815, -1.076090693473816
0.693189540057436, 0.17966517783723027, -1.076090693473816
0.6651655532333701, 0.37492846240381683, -1.076090693473816
0.8721454871221, 0.5218782919084686, -1.076090693473816
0.973813064395467, 0.792651840311893, -1.076090693473816
0.7961966743244603, 0.36463890326432696, -1.076090693473816
0.96432905201013, 0.2363325725960583, -1.076090693473816
0.6443407608324715, 0.2897483798425622, -1.076090693473816
0.6835100046509492, 0.22111227025157978, -1.076090693473816
0.967391200237487, 0.924751447212162, -1.076090693473816
0.7920352567974885, 0.46150934444742847, -1.076090693473816
0.914012592998221, 0.5028076367330279, -1.076090693473816
0.6215556958002255, 0.20549407379557608, -1.076090693473816
0.7450695021364986, 0.3074164909438603, -1.076090693473816
0.7853615711463156, 0.34899645976171795, -1.076090693473816
0.6387991861022645, 0.23251568475739492, -1.076090693473816
0.8852504929145815, 0.4595620271233367, -1.076090693473816
0.7027223881677322, 0.4962546922258992, -1.076090693473816
0.6844799045043968, 0.2724060913843197, -1.076090693473816
0.7062131868536823, 0.24952786536996988, -1.076090693473816
0.8380157776410173, 0.18334349871901012, -1.076090693473816
0.9856514568649084, 0.5957670378774496, -1.076090693473816
0.5631421989652897, 0.2792475206948957, -1.076090693473816
0.790156140664817, 0.19976675861356194, -1.076090693473816
0.12564166502710983, 0.17742905726943672, -1.0757300216403076
0.27637418994545415, 0.17570026050022358, -1.0750139334174222
0.2128265629695938, 0.17324579389096434, -1.073997264099399
0.9351740354720046, 1.023797163314391, -1.0753237775088764
0.9846532290193063, 1.0184246605217933, -1.076011930642407
0.16913873526393522, 0.7584862464447466, -1.076090693473816
0.11057827744138182, 0.5449117253477243, -1.076090693473816
0.035319256702625694, 0.8751563739671294, -1.076090693473816
0.057620772048229775, 0.7754283181573476, -1.076090693473816
0.030819073146844442, 0.6349535175287895, -1.076090693473816
0.08027430061602937, 0.7192458289555393, -1.076090693473816
0.363006200782065, 0.8717776157091157, -1.076090693473816
0.2539767378957019, 0.8871189415059293, -1.076090693473816
0.030038964690476712, 0.6017125083861475, -1.076090693473816
0.30271127911137463, 0.8190903473140472, -1.076090693473816
0.06427253448750032, 0.7029001678452719, -1.076090693473816
0.2208538047504427, 0.904834706360228, -1.076090693473816
0.37447022780305955, 0.8321575909604382, -1.076090693473816
0.012439312911346952, 0.5516478645839747, -1.076090693473816
0.19354681824347192, 0.6255634870700464, -1.076090693473816
0.12115073061621477, 0.9120660588299783, -1.076090693473816
0.07047240998785488, 0.35016632187451335, -1.0760906934738161
0.12261717688156558, 0.6164059151856593, -1.076090693473816
0.30045154563614396, 0.8813418204844728, -1.076090693473816
0.023160450769354354, 0.670447150548662, -1.076090693473816
0.3780039685861348, 0.9884841157182329, -1.0760906934738161
0.4817278459901113, 1.0065544206415182, -1.076090693473816
0.3520988756733449, 0.9002452141759258, -1.076090693473816
0.1409449820989705, 0.6005611681872967, -1.076090693473816
0.027577529727699328, 0.8655639500296566, -1.076090693473816
0.3141685556949982, 0.8393296910407003, -1.076090693473816
0.01957205877990467, 0.303677650824429, -1.076090693473816
0.26040559045001893, 0.6771545297974073, -1.076090693473816
0.0753503453521214, 0.34279821637420266, -1.076090693473816
0.16822146262269366, 0.7008622538218915, -1.076090693473816
0.0951324413074169, 0.5965714926815346, -1.076090693473816
0.356426756899708, 0.9063011487236906, -1.076090693473816
0.054555810200631334, 0.9479571652987034, -1.076090693473816
0.05472686204605914, 0.9016441173394371, -1.076090693473816
0.20892290049143436, 0.7956956459219982, -1.076090693473816
0.07255857293808213, 0.40348089880440613, -1.076090693473816
0.04071624509809181, 0.916057756050389, -1.076090693473816
0.16958039513346754, 0.7949045487230939, -1.076090693473816
0.10053094788908065, 0.8562902874156847, -1.076090693473816
0.23226324039004714, 0.948284786551612, -1.076090693473816
0.27050033108533256, 0.6808402603665735, -1.076090693473816
0.11892798564716509, 0.42290699473363524, -1.076090693473816
0.02122694289202381, 0.8213255972163984, -1.076090693473816
0.20136847318756051, 0.6990980037352305, -1.076090693473816
0.3313100826186702, 1.0118316799149214, -1.076090693473816
0.18047501260657559, 0.9594874715983244, -1.076090693473816
0.08798657200506597, 1.0074796327381064, -1.076090693473816
0.20019407855819382, 0.9417543291305647, -1.076090693473816
0.24767801539121806, 1.000382272594024, -1.076090693473816
0.13176029907721584, 0.8888411736832692, -1.076090693473816
0.07041649116333794, 0.7051834132486351, -1.076090693473816
0.0513884296405011, 0.6808088447145861, -1.076090693473816
0.09383126862230742, 0.7009125913012789, -1.076090693473816
0.34652804363606354, 0.9297315811784568, -1.076090693473816
0.005154291552352563, 0.8403876254171689, -1.076090693473816
0.18957938792025572, 0.8837446669391725, -1.076090693473816
0.17844546138462156, 0.6423755799438507, -1.076090693473816
0.02159531893450966, 0.7699080101282368, -1.076090693473816
0.39093116583747023, 0.9176654162889272, -1.076090693473816
0.2690191890313762, 0.7792658220346746, -1.076090693473816
0.09305828906970734, 0.4376655922160786, -1.076090693473816
0.16694056664925017, 0.8470204192170877, -1.076090693473816
0.20561453719799327, 0.9452851621657914, -1.076090693473816
0.14600343476248337, 0.7538337158439259, -1.076090693473816
0.19151635239362375, 0.7525927128970528, -1.076090693473816
0.09442701391743054, 0.7493089872567219, -1.076090693473816
0.28936685972051196, 0.870765947071878, -1.076090693473816
0.41783336332402565, 0.8786340645781402, -1.076090693473816
0.21157845895919644, 0.6121266374971771, -1.076090693473816
0.007899975687310722, 0.850695676219938, -1.076090693473816
0.048150945916370036, 0.6942744708593774, -1.076090693473816
0.13015504005301698, 0.7690424707723773, -1.076090693473816
0.04706242226423336, 0.5838690165233087, -1.076090693473816
0.0559189961519183, 0.34839023684491577, -1.076090693473816
0.20554286044086703, 0.9890448318119245, -1.076090693473816
0.2741084607964847, 0.8258290940856503, -1.076090693473816
0.10419828935138219, 0.7635798168145103, -1.076090693473816
0.006191710942713444, 0.22327029494298767, -1.076090693473816
0.026119577655748977, 0.8039966429552057, -1.076090693473816
0.07911341466754925, 0.7085565204153288, -1.076090693473816
0.21838983426636135, 0.8294362895196469, -1.076090693473816
0.010102208080633123, 0.39981234599808135, -1.076090693473816
0.14690984902597093, 0.5297013951367887, -1.076090693473816
0.30197987330044096, 0.72019193112502, -1.076090693473816
0.037191828436844654, 0.36513663937635443, -1.076090693473816
0.18540428313625323, 0.8117016620858604, -1.076090693473816
0.23305535888849474, 1.0136774129236223, -1.076090693473816
0.14143878560356388, 0.5900178786647485, -1.076090693473816
0.06441065986982074, 0.5498339099338081, -1.076090693473816
0.42384664579695863, 0.9153877090533354, -1.076090693473816
0.2929339429275759, 0.8834277363848666, -1.076090693473816
0.17326607631191604, 0.6809406056931188, -1.076090693473816
0.16664793157967175, 0.7599881094257435, -1.076090693473816
0.1978922332425945, 0.7443830866204172, -1.076090693473816
0.23128933482741004, 0.709706894843311, -1.076090693473816
0.2645982845467161, 0.929944546447057, -1.076090693473816
0.03578338391588707, 0.7548963337751946, -1.076090693473816
0.3422836515133041, 0.7709893055384621, -1.076090693473816
0.24369138358145578, 0.7466610296150187, -1.076090693473816
0.055359220849398115, 0.9509976209221389, -1.076090693473816
0.036678183197305356, 0.2989484872820056, -1.076090693473816
0.254435892967454, 0.7441776848137923, -1.076090693473816
0.3405236961952692, 1.016886572132771, -1.076090693473816
0.04445973737298361, 0.32397995515284383, -1.076090693473816
0.19651755356626377, 0.8500235146896971, -1.076090693473816
0.44652788633664225, 0.9622210824292303, -1.076090693473816
0.05905544202857592, 0.6674686011078012, -1.076090693473816
0.11104079992758857, 0.4439011910561829, -1.076090693473816
0.09640654549622307, 0.4621451256614236, -1.076090693473816
0.33639793111403365, 0.8194171572957235, -1.0760906934738157
0.08727006368265083, 0.42232597570788, -1.076090693473816
0.016351231855932766, 0.35132392188158623, -1.076090693473816
0.11210853838613756, 0.8800303797477782, -1.076090693473816
0.02576489133384862, 0.7314876875315737, -1.076090693473816
0.06440868585834618, 0.9090202195628564, -1.076090693473816
0.27308416319078954, 0.810447474636304, -1.076090693473816
0.1257755741146439, 0.6481076155519372, -1.076090693473816
0.029576994292628233, 0.3189719399118419, -1.076090693473816
0.2342180353976492, 0.7079925716035689, -1.076090693473816
0.17268554103988995, 0.6552119502184182, -1.076090693473816
0.1945890868546874, 0.7354577713385505, -1.076090693473816
0.41962405427326566, 0.9605617337893275, -1.076090693473816
0.29869690913028113, 0.991390502901636, -1.076090693473816
0.2768995288772393, 1.0003516105926913, -1.076090693473816
0.42470561270824936, 0.9530819926341747, -1.0760906934738161
0.030062381906700332, 0.7134084587551932, -1.076090693473816
0.19030415732238015, 0.8075710683123654, -1.076090693473816
0.08192645698904652, 0.6227519317440445, -1.076090693473816
0.04612371772267026, 0.4746901177254245, -1.076090693473816
0.25274780021626314, 0.8711549037418906, -1.076090693473816
0.2656648435192233, 0.9702994262249032, -1.076090693473816
0.1469183458186168, 0.8135536912229764, -1.076090693473816
0.03449111447685226, 0.27840097691713506, -1.076090693473816
0.32339509776059605, 0.756824670680748, -1.076090693473816
0.16085214844661005, 1.005931049614175, -1.076090693473816
0.13507408315809047, 0.8870690138276405, -1.076090693473816
0.054822835913747155, 0.7726293356333093, -1.076090693473816
0.16051003112756712, 0.8991587647878556, -1.076090693473816
0.11217007465794117, 0.9607526512242329, -1.076090693473816
0.10966484004963108, 0.7701239161373393, -1.076090693473816
0.040040551032570114, 0.577541361352941, -1.076090693473816
0.13555454748003481, 0.4139963829232711, -1.076090693473816
0.14152580733614023, 0.5132961655140891, -1.076090693473816
0.12239334358074971, 0.89088360919623, -1.076090693473816
0.18335731011203107, 0.9869667564432587, -1.076090693473816
0.07025216016186747, 0.9177954533986494, -1.076090693473816
0.03476127060635683, 0.9073802484692963, -1.076090693473816
0.11335440878120885, 0.728700337838589, -1.076090693473816
0.4253956304953994, 0.9413042517854109, -1.076090693473816
0.04133971243559144, 0.7871274467989589, -1.076090693473816
0.09036557862852768, 0.4686636742855498, -1.076090693473816
0.04473241682182269, 0.2813578666804914, -1.076090693473816
0.24692417360136512, 0.8639916809082154, -1.076090693473816
0.20312205969275524, 0.7512931689578763, -1.076090693473816
0.1452572656488001, 0.8945091836109654, -1.076090693473816
0.21700802995567242, 1.0237525106495586, -1.0753308104478048
0.31777886086289125, 1.0282195986941525, -1.0747611338425904
0.9293926930279984, 1.032102270355053, -1.0738202829887353
0.9967849475238524, 1.0322582558453992, -1.0737790527662578
0.8941411966595397, 1.04039909296641, -1.070639262061159
0.8232341189879767, 1.0401422556464466, -1.0712593058799693
0.4898151844203518, 1.0446794171357765, -1.0587987588044578
0.40321600597022833, 1.0447368916540625, -1.0584422593371212
0.23807105556347283, 1.0366663608019113, -1.072610799525901
0.1812599173603425, 1.0348747223845411, -1.0730826651665768
0.3899401289854559, 1.0426146408511652, -1.0652905971108468
0.4699974258691423, 1.0410612415783802, -1.0690407359822995
0.6020609102624973, 1.046335525942825, -1.042854423242587
0.8943402883428805, 1.0461433819612438, -1.0482172070894697
0.30764283095199996, 1.0460908960638622, -1.0283665566126257
0.4844630971124747, 1.0461852698208491, -1.0310015645583814
0.156674966877708, 1.0464517192144593, -1.0396109381614431
0.4561092764743606, 1.0462899162082484, -1.0441285400846294
0.7220660229298482, 1.0446573273540474, -1.0589354480379625
0.7101733567076594, 1.04491408367662, -1.0573428730673686
0.9217162748622563, 1.0442794764978534, -1.016780614224855
0.5388711666602467, 1.040537933668592, -1.0077478504646329
0.7223966923428473, 1.0371163859856884, -1.0055569467701022
0.9676426214733036, 1.0368290259749642, -1.0054809884225322
0.7191984483864602, 1.0377525215454206, -1.0057250975361958
0.8140805949633168, 1.0456809301832557, -1.0254656355669227
0.8125649076779051, 1.045895621968576, -1.0267973105472672
0.47250906327381864, 1.0423168513085255, -1.012042337388706
0.23146778085064496, 1.0399793873456626, -1.0063992738815424
0.6328732045838611, 1.0283718640052428, -1.00331399766257
0.9153376084659846, 1.027627233590122, -1.003218627464928
0.46684375088542046, 1.0290793129487994, -1.003433025199111
0.10966622538688045, 1.0313807173960399, -1.0040468059396168
0.7595866143560549, 0.8713323231414942, -1.0019612312316895
0.9550694816791969, 0.620992958278233, -1.0019612312316895
0.9737776914178249, 0.6914497046991027, -1.0019612312316895
0.9931430038455886, 0.8175677773041385, -1.0019612312316895
0.8113680746087815, 0.7625207449956091, -1.0019612312316895
0.759660548182614, 0.7455372617095473, -1.0019612312316895
0.6240440103814472, 0.9826875289600252, -1.0019612312316895
0.6133027987773132, 0.8675006100130266, -1.0019612312316895
0.7448857411573189, 0.8824391028501635, -1.0019612312316895
0.9928843872562594, 0.2675784850430398, -1.0019612312316897
0.6041598472820903, 0.9487053178500562, -1.0019612312316895
0.6205644627036692, 0.9389901105248506, -1.0019612312316892
0.7646075503235444, 0.8845905811229516, -1.0019612312316895
0.6154647254495398, 0.928712281893481, -1.0019612312316895
0.719715519387253, 0.9611287137116555, -1.0019612312316895
0.6142777407627358, 0.8842453491749327, -1.0019612312316895
0.7845026109243491, 0.9609360684078199, -1.0019612312316895
0.6281450372863394, 0.9341201416624967, -1.0019612312316895
0.7358391801072572, 0.8285255422528989, -1.0019612312316895
0.7970195308138968, 0.9894508644407871, -1.0019612312316895
0.9818190134111155, 0.3383045431696644, -1.0019612312316895
0.8355954196635234, 0.9289008427107297, -1.0019612312316895
0.8437030678782975, 0.45325883161072367, -1.0019612312316895
0.760064287848309, 0.5875868412358326, -1.0019612312316895
0.7909347817399598, 0.7705182703512521, -1.0019612312316895
0.9895585203503346, 0.49429243803648226, -1.0019612312316895
0.9028155346885911, 0.9590830048575316, -1.0019612312316895
0.7325756569932504, 0.8308283882871754, -1.0019612312316895
0.6382551250923033, 0.7880551082060399, -1.0019612312316895
0.9470091456918082, 0.9842573238233893, -1.0019612312316895
0.9100692688212183, 0.7077625461827677, -1.0019612312316895
0.6751003144282482, 0.8598942412436826, -1.0019612312316895
0.8298927397729042, 0.5923216042929706, -1.0019612312316895
0.9967691546453044, 0.918533841654074, -1.0019612312316895
0.9890297193034737, 0.4278967606950389, -1.0019612312316895
0.8428935597422387, 0.8061606779295574, -1.0019612312316895
0.969513477581289, 0.618846567795578, -1.0019612312316895
0.7813627851919438, 0.9534670404196526, -1.0019612312316895
0.8118741506114728, 0.7918620102781581, -1.0019612312316895
0.9398329145269592, 0.2947741861147163, -1.0019612312316895
0.8936102645695565, 0.8557874887635029, -1.0019612312316895
0.7360855081875906, 0.8245457742200614, -1.0019612312316892
0.8599118472703902, 0.8548602009079449, -1.0019612312316895
0.7971367150922689, 0.9802604340149863, -1.0019612312316895
0.8222708290385217, 0.9864653305093861, -1.0019612312316895
0.6898842517225295, 0.9077571666766197, -1.0019612312316895
0.804096487268199, 0.7550778138920653, -1.0019612312316895
0.946882897404913, 0.4838472771811723, -1.0019612312316895
0.894280508027576, 0.5200981782454747, -1.0019612312316895
0.79811253876363, 0.7630923599136499, -1.0019612312316895
0.8120536079130984, 0.8639805913991079, -1.0019612312316895
0.8682787602716758, 0.8432063422260261, -1.0019612312316895
0.9886641956479931, 0.9496428380040819, -1.0019612312316895
0.6819003200839564, 0.9589334790067057, -1.0019612312316895
0.8822765613366756, 0.7531825216148285, -1.0019612312316895
0.9491859544152399, 0.7198583166727175, -1.0019612312316895
0.9440237909356876, 0.3008707674078947, -1.0019612312316895
0.8427119967483985, 0.6502257257493289, -1.0019612312316895
0.6581512316105018, 0.7703793072203889, -1.0019612312316895
0.6986126390982994, 0.8763305952260767, -1.0019612312316895
0.6148574642747846, 0.8666230314176783, -1.0019612312316895
0.9737870462650529, 0.9652463162065346, -1.0019612312316895
0.7682534850547902, 0.9561229001160985, -1.0019612312316895
0.691752959667053, 0.7698166909441798, -1.0019612312316895
0.9196880690690873, 0.7861293153410547, -1.0019612312316895
0.6396948136660314, 0.9858011862185658, -1.0019612312316895
0.9727976667214997, 0.5473612980831456, -1.0019612312316895
0.9648353808700907, 0.8832622375558372, -1.0019612312316895
0.9193303937459878, 0.5694721775159675, -1.0019612312316895
0.94356063096417, 0.6496613628596597, -1.0019612312316895
0.6291493673456371, 0.923426922401487, -1.0019612312316895
0.9208447431801068, 1.0168347325986586, -1.0019612312316895
0.6184423685909016, 0.9733833373901875, -1.0019612312316895
0.9896016952098675, 0.31997882223705854, -1.0019612312316895
0.6840586067124176, 0.7736645709542319, -1.0019612312316895
0.6797235822267231, 0.916230519477219, -1.0019612312316895
0.7990188666321919, 0.8307911879657193, -1.0019612312316895
0.8816433751060542, 0.6880191889261842, -1.0019612312316895
0.8523211219409416, 0.5805694722604412, -1.0019612312316895
0.7637388304404039, 0.8328033473100157, -1.0019612312316895
0.756858730572825, 0.6169262149755766, -1.0019612312316895
0.8774594032931674, 0.7878294444389802, -1.0019612312316895
0.825846661903211, 0.7288580555336852, -1.0019612312316895
0.6286673465307836, 0.9155597579649971, -1.0019612312316895
0.6567185038045761, 0.7877943444105554, -1.0019612312316895
0.8782093666257746, 0.6060554303612471, -1.0019612312316895
0.8921486039583639, 0.5870529041878985, -1.0019612312316895
0.9739117484917119, 0.6314464517270016, -1.0019612312316895
0.8007037374682863, 0.5640313719028053, -1.0019612312316895
0.5535634164091036, 0.9386857901726117, -1.0019612312316895
0.7486544462555824, 1.014330663088594, -1.0019612312316895
0.9812013790249225, 0.388690787874421, -1.0019612312316895
0.8914662697817445, 0.8112025564175556, -1.0019612312316895
0.9061932148489589, 0.9271012115637137, -1.0019612312316895
0.781178137962328, 1.0114221080858896, -1.0019612312316895
0.6495835498293646, 0.935296580794668, -1.0019612312316895
0.5496554468186479, 0.9843262177291483, -1.0019612312316895
0.941583788180461, 0.7075823896185969, -1.0019612312316895
0.9757446024773507, 0.37448714068027467, -1.0019612312316895
0.9222166523438668, 0.6925421362210007, -1.0019612312316895
0.9972022399831759, 0.28259849939856485, -1.0019612312316895
0.8214882892183991, 0.4847101747779715, -1.0019612312316895
0.911276626150541, 0.9584803347493576, -1.0019612312316895
0.9781934866051278, 0.4679349070401287, -1.0019612312316895
0.7059913061794763, 0.9677299537078022, -1.0019612312316895
0.975524349554916, 0.5565418452267034, -1.0019612312316895
0.9838077457619612, 0.8883651673184414, -1.0019612312316895
0.8890087132118315, 0.36774572456091664, -1.0019612312316895
0.9388227109339313, 0.8787904632704974, -1.0019612312316895
0.9419981778894262, 0.9529741530194915, -1.0019612312316895
0.8408538565348824, 0.7369068305435577, -1.0019612312316895
0.5371082164648652, 0.9765937376995949, -1.0019612312316895
0.9270069956043082, 0.9877610240598985, -1.0019612312316895
0.6381382856591012, 0.8253810243794492, -1.0019612312316895
0.9068530550714223, 0.4419811908633436, -1.0019612312316897
0.7844450811707476, 0.7034016679736299, -1.0019612312316895
0.8964153477755117, 0.9429344120413261, -1.0019612312316895
0.9123363250338854, 0.8560568478882925, -1.0019612312316895
0.968432661927061, 0.5392569697142184, -1.0019612312316895
0.9044778156589182, 0.7345674424350317, -1.0019612312316895
0.7890507340060238, 0.7861501243637592, -1.0019612312316895
0.9016844939903741, 0.5609089750105071, -1.0019612312316895
0.9980405751372879, 0.8547252379575228, -1.0019612312316895
0.9250562181398638, 0.37302625499365105, -1.0019612312316895
0.8586623792166515, 0.7856113772806146, -1.0019612312316895
0.6759620636939205, 0.9427456086352213, -1.0019612312316895
0.6956164011961312, 0.847021173754256, -1.0019612312316895
0.7331189298945161, 0.6848822210214166, -1.0019612312316895
0.815936821297713, 0.5223911497065209, -1.0019612312316895
0.9147936125999765, 0.9581393099728935, -1.0019612312316895
0.8038830861702471, 0.9521455805077298, -1.0019612312316895
0.6167087705410753, 0.9470080282591017, -1.0019612312316895
0.9516650041610228, 0.4194460999513498, -1.0019612312316895
0.7607082387405868, 0.667842256945023, -1.0019612312316895
0.9033811694007332, 0.6398622782160335, -1.0019612312316895
0.6658166336788409, 0.9678660499947703, -1.0019612312316895
0.9026772295156713, 0.4185378404536336, -1.0019612312316895
0.8493129585275746, 0.48912252802262135, -1.0019612312316895
0.5580197331458462, 0.9330748822607511, -1.0019612312316895
0.7888318611453133, 0.6626719295341554, -1.0019612312316895
0.9756308244255596, 0.9833614302358881, -1.0019612312316895
0.9652474242230155, 0.6619423233096919, -1.0019612312316895
0.7764614324510563, 0.7017007154705607, -1.0019612312316895
0.837773082392571, 0.767050801187376, -1.0019612312316895
0.7171686011757706, 0.7940583696967268, -1.0019612312316895
0.8249378951961894, 0.6914566747073401, -1.0019612312316895
0.866650840484122, 0.8035195452371358, -1.0019612312316895
0.8195312505111872, 0.7658158803543931, -1.0019612312316895
0.8836613474061722, 0.946359192813468, -1.0019612312316895
