0.35559698939323425, 0.5499543750851217, 0.18603485395391717
0.35559698939323425, 0.523056668937771, 0.15925387665667867
0.35559698939323425, 0.5507803115197067, 0.20432195447273654
0.35559698939323425, 0.4594766075591852, 0.1704855441773543
0.35559698939323425, 0.4091622314600965, 0.17085532105502527
0.35559698939323425, 0.48686826919941595, 0.143532637076494
0.34958543296374367, 0.664257331769169, 0.14313316345214844
0.3456755305438853, 0.6195679920295027, 0.14313316345214844
0.34512237042019933, 0.5505611098800042, 0.14525816880737472
0.345122386684406, 0.666869431203119, 0.16884370315973982
0.3451223830211552, 0.6766256303008997, 0.1619417376261963
0.3451223957526992, 0.6427181845115636, 0.17083304908012753
0.3451223918389571, 0.6531415076403967, 0.1846067737161822
0.34512238070861706, 0.6827845268471593, 0.1664543345861509
0.3451224082871388, 0.6093356794559239, 0.17971013816794962
0.3451223710456602, 0.566521028617722, 0.23152208112449968
0.3451223848165711, 0.5961084391332305, 0.21832494438229427
0.34512243841255585, 0.48840757344877783, 0.16696207206104935
0.34512238333255285, 0.5438038703433263, 0.21974712998812235
0.3451223965818363, 0.5096865296888875, 0.20704988684286202
0.34512238184985256, 0.6692895955619592, 0.22116805263925032
0.3451224204917299, 0.4068127248572766, 0.1841362148425153
0.3451223977507847, 0.4481278225018542, 0.20592964343670916
0.34883833511608403, 0.7096126337365152, 0.23995208740234375
0.3538275589852558, 0.40427287048079197, 0.23995208740234375
0.35559698939323425, 0.20584201044501055, 0.23667431781920745
0.35559698939323425, 0.4557979172585518, 0.23241165954937348
0.35559698939323425, 0.4544530364860931, 0.20898341779805923
0.35559698939323425, 0.26625679719871076, 0.2205248713832892
0.35559698939323425, 0.36748904774771707, 0.2070334027311418
0.35559698939323425, 0.3596131976142117, 0.16753262287435855
0.35559698939323425, 0.25862755358362116, 0.21051933734387873
0.3555969893932343, 0.2408701231078273, 0.2266261758882844
0.3555969893932342, 0.24926833024842518, 0.22605871157581303
0.34512239005450074, 0.19591187322667153, 0.21330525663104544
0.3451223788135544, 0.31093130282714154, 0.22407784139200534
0.34512239693105545, 0.254744846675782, 0.20671521812056526
0.34512242486736044, 0.20240573511470833, 0.17994289788435364
0.34512241725719595, 0.26485400944336673, 0.18723597985459675
0.34512237806741014, 0.3152138841164315, 0.22479289707860295
0.35559698939323425, 0.40900921437550464, 0.23966278771301358
0.34887937918973577, 0.26843982807495526, 0.14313316345214844
0.3491299417341348, 0.2894481198110408, 0.23995208740234372
0.34512244105056117, 0.3919353747479891, 0.16443398098914214
0.34512244996134267, 0.2822889479179627, 0.15589447313913757
0.34512240824408214, 0.2979239143643142, 0.19587355622110408
0.34512245014242865, 0.26357848331782063, 0.15572093224760547
0.3451224360754872, 0.29743832480756704, 0.1692017651803525
0.3451224060217053, 0.3082702083561271, 0.19800333623459127
0.34512241317393405, 0.4673276179650841, 0.19114910985684447
0.3451224354535054, 0.4580944856444197, 0.16979783171843904
0.35559698939323425, 0.20496715745930183, 0.19243402236553525
0.35559698939323425, 0.2671772587487752, 0.16608796899591516
0.35559698939323425, 0.16437579324801896, 0.1793648088366984
0.35559698939323425, 0.23317789684231446, 0.1567874872062457
0.35559698939323425, 0.31354826561044924, 0.15686217809211908
0.35559698939323425, 0.1737638858830457, 0.1750386517671148
0.35559698939323425, 0.26276491984639416, 0.14735724679081882
0.3492132953306286, 0.15773217380046844, 0.20064824158561678
0.34512239049504345, 0.2802603431477194, 0.14481689369602538
0.34945768038469605, 0.37510713980322585, 0.23995208740234378
0.6993720404338402, 0.23901650173078873, 0.33612420787356595
0.337132383153396, 0.16237783432006836, 0.08273547882945227
0.36268195636747147, 0.16237783432006836, 0.0531847515606756
0.3615910798927262, 0.16237783432006836, 0.07453569297704399
0.3340806226463697, 0.16237783432006836, -0.27163767460655747
0.33219293927473204, 0.16237783432006836, -0.1736721484158228
0.3356371316210565, 0.16237783432006836, -0.3076704154609937
0.32716789841651917, 0.13015693941249062, -0.14834388758431494
0.32716789841651917, 0.14909696913323725, -0.1211139311996747
0.32716789841651917, 0.11941147884251639, -0.10388734351965309
0.32716789841651917, 0.14838440165622402, -0.02163638936036959
0.32716789841651917, 0.13885097875389965, -0.07841398821705371
0.32716789841651917, 0.14585332386976696, 0.027646968897273284
0.3434245449362351, 0.114600732922554, 0.0655216944555884
0.3467047228789244, 0.11460073292255402, -0.009082885981033097
0.33770085018612733, 0.11460073292255402, 0.02794589782868504
0.3560851434423815, 0.11460073292255403, -0.20115608475967747
0.36462923618580145, 0.11460073292255402, -0.269394970932117
0.3753648400306701, 0.11827147781475393, -0.26285623433574545
0.37536484003067017, 0.13818117352260842, -0.1258842202472748
0.37536484003067017, 0.1283473222843137, -0.11608922736540399
0.37536484003067017, 0.13093111104071897, -0.15649630486009478
0.37536484003067017, 0.15297314452623767, -0.07247730594444897
0.37536484003067017, 0.13884992928172715, -0.038237202006716174
0.37536484003067017, 0.16170772456478966, -0.17938114302839275
0.3590105168059014, 0.16237783432006836, -0.1254541838448966
0.36695122923660606, 0.16237783432006836, -0.14376273632552822
0.3698321284132872, 0.16237783432006836, -0.18967221386852007
0.32716789841651917, 0.11743290322693309, -0.20988211198566373
0.32716789841651917, 0.15539296912919448, -0.26898512259774937
0.32716789841651917, 0.15153200082622414, -0.2629760219663466
0.33195161557812347, 0.11460073292255402, -0.2240938246580725
0.35923509080031807, 0.114600732922554, -0.12533447619688767
0.3322587932162823, 0.11460073292255402, -0.27888628497499857
0.37536484003067017, 0.12203412781812731, -0.20631709280120603
0.37536484003067017, 0.11961089827226007, -0.3053344166022207
0.37536484003067017, 0.12446823043513168, -0.18431514960269582
0.3738018200086161, 0.16237783432006836, 0.2855630729760371
0.3618952788096509, 0.16237783432006836, 0.1642439796876266
0.3687536607815945, 0.16237783432006833, 0.1344050508834012
0.3390473617170944, 0.16237783432006836, -0.07278372742875708
0.34816547467849496, 0.16237783432006836, -0.06205713783907926
0.33525914957558745, 0.16237783432006836, -0.05406924685492652
0.32716789841651917, 0.16080300141728446, 0.1628334812501047
0.32716789841651917, 0.12534462387240908, 0.0833830595847286
0.32716789841651917, 0.1498974207916894, 0.09105333766826504
0.32716789841651917, 0.1512811042710265, 0.20784387690565645
0.3271678984165191, 0.12288647279146, 0.11091736373988319
0.32716789841651917, 0.11718757242732028, 0.09501003534839006
0.35772125837388435, 0.11460073292255402, 0.2836273891810195
0.3535437491199035, 0.11460073292255402, 0.28737509809926187
0.3663565678822891, 0.11460073292255402, 0.28952803709798547
0.3626204696685542, 0.11460073292255402, -0.04411585469754963
0.3606800975704165, 0.11460073292255402, -0.034864812218902745
0.37536484003067017, 0.11765669878402676, -0.03637347963764542
0.37536484003067017, 0.14335259099822573, 0.046413039559005526
0.37536484003067017, 0.13688115556354793, 0.07281505166225266
0.3753648814674753, 0.12469755778720716, 0.24580328091120038
0.3753648487259492, 0.1427832560885524, 0.12819416792970426
0.37536484801514697, 0.14380757529477653, 0.12564093256055836
0.34201295456305847, 0.16237783432006836, 0.31371533166438065
0.37345903282175225, 0.11744861058385173, -0.3142799735069275
0.368660714915367, 0.11460073292255402, 0.18175135399904124
0.36556888885699046, 0.11460073292255402, 0.16307117371017094
0.34363371386046665, 0.12973757231006924, 0.3142799437046051
0.32716789841651917, 0.1260394092930984, 0.16588923331318384
0.32716789841651917, 0.15412814538775982, 0.2861075235780217
0.32716789841651917, 0.12892787507300502, 0.16679770815205228
0.3730856956072329, 0.11460073292255402, 0.14312273104014003
0.37536487381039224, 0.1359266052716731, 0.25256672232465327
0.37536487479236086, 0.1352574163256321, 0.2937759826446682
0.32716789841651917, 0.14211487533219525, 0.31294255527263376
0.3593348746814825, 0.13629773992931074, -0.3142799735069275
0.3569723371025867, 0.16237783432006836, 0.11375380638782408
0.34625236669095893, 0.16237783432006836, 0.1643045243031048
0.33626603507713143, 0.16237783432006836, 0.18064029633262244
-0.6619086658286643, 0.24087141151084407, 0.31291623570817095
0.8393044007334228, 0.6739388611061127, 0.14454050362110138
0.8471888303756714, 0.5072355420337028, 0.1398760543826142
0.8471888303756713, 0.7007252601482568, 0.13407121912638256
0.8471888303756714, 0.7023464510557936, 0.12027079581918915
0.8471888303756714, 0.6715334934501799, 0.08429060958366223
0.8471888303756715, 0.6721607705204684, 0.07662313923903978
0.8471888303756714, 0.666037664378261, 0.09333759814783793
0.8471888303756714, 0.5031074332699893, 0.1357109789072166
0.8471888303756714, 0.5853104877157169, 0.08359160692401858
0.8471888303756715, 0.5195796693596099, 0.10859353026779713
0.8471888303756714, 0.49529942189827714, 0.07506428799328765
0.8471888303756714, 0.5479832672759948, 0.09202829256310958
0.8471888303756714, 0.5629154233504855, 0.06728379760585947
0.8471888303756714, 0.6503801219221371, 0.07778011208145437
0.8471888303756715, 0.4423670367866867, 0.07881719899373829
0.8471888303756714, 0.46607588982471715, 0.05720460180110326
0.8471888303756714, 0.48615994487127556, 0.05140876860995083
0.8393438520821686, 0.6187208037146181, 0.047721561044454575
0.8382941703563684, 0.675143935854909, 0.047721561044454575
0.8367142817484385, 0.4957477748199006, 0.0521076737117297
0.8367142950191693, 0.545347283448407, 0.06240044715468742
0.8367142145372056, 0.7061057404252329, 0.1109329760183619
0.8367142697971444, 0.5957269417765078, 0.07101501217051055
0.8367143096995387, 0.5160240236582441, 0.05449879929633132
0.8367142344607588, 0.6663094988998426, 0.08652997275452415
0.8367142826758477, 0.5700024144108923, 0.0688911898710926
0.8367142335820246, 0.5059474848780061, 0.12155344319977239
0.8367142801883933, 0.4936772771290105, 0.08805508075191107
0.8367142295207455, 0.5563002891888001, 0.12447249054376623
0.8367142356814888, 0.6276650240813677, 0.12004445163525883
0.8367143018159127, 0.5170338061763269, 0.07251028498778593
0.8367142752573045, 0.5582586688310308, 0.09159930450744508
0.8367142601558274, 0.43673290804052356, 0.10245350247402112
0.8367143171911876, 0.40480977303717935, 0.06145929458174514
0.8426307266103078, 0.6467509666830394, 0.14454050362110138
0.8410285011870636, 0.4658342636978733, 0.1445405036211014
0.8471888303756714, 0.47587094456106643, 0.10817690294700248
0.8471888303756714, 0.40969040957977715, 0.13073054592371894
0.8471888303756714, 0.4688008684125764, 0.11322267456427836
0.8471888303756714, 0.34819122082303433, 0.08961910518504837
0.8471888303756714, 0.3466221630580244, 0.10505586447975133
0.8471888303756714, 0.34583020822266114, 0.08529601337804574
0.8471888303756714, 0.3179947229880815, 0.12438276772099975
0.8471888303756714, 0.3197108984297061, 0.13686916466017968
0.8471888303756714, 0.23420659641244962, 0.1164264820035642
0.8367142120280793, 0.3131620711710962, 0.13704535742436832
0.8367142286224507, 0.2892769181245533, 0.12511814067154148
0.8367142857934573, 0.2044153076382138, 0.08402643671886972
0.836714209068996, 0.3408254664978116, 0.1391722009167844
0.8367142415840696, 0.2971863544973979, 0.11580196733535002
0.8367142082827098, 0.18673863070150012, 0.1397373446996025
0.8457250650940142, 0.21818755006986568, 0.14454050362110138
0.8421637583403665, 0.3453758109683197, 0.047721561044454575
0.8367142958210905, 0.3741516204163259, 0.07681906789628343
0.8367142248473277, 0.38695445572097437, 0.12783151314850888
0.8367143141302504, 0.30106938717081966, 0.06365934544776855
0.8367142957572627, 0.28081575642191964, 0.07686494410360584
0.8367143173846392, 0.18955358966998115, 0.06132025104399639
0.8367142707350279, 0.285306009050689, 0.09484969422271682
0.8367142770347895, 0.33873335901874124, 0.09032173584054194
0.8367142719232072, 0.4759450976709731, 0.0939956893647993
0.8367143019839403, 0.4675672490922149, 0.07238951498468513
0.8471888303756713, 0.33773207839706126, 0.0690368392591152
0.8471888303756714, 0.27630795056160745, 0.07541098033976285
0.8471888303756714, 0.21297222780277178, 0.09978103667681949
0.8471888303756714, 0.1983695395754637, 0.10923449851837047
0.8471888303756714, 0.3275309571172621, 0.07380160361770495
0.8471888303756714, 0.24776880407792756, 0.09383643370517832
0.8471888303756714, 0.2710448257856873, 0.05391118031101948
0.8429773523572266, 0.15773217380046844, 0.13515861608563517
0.8367142785601706, 0.36103259326109005, 0.05153049863860057
0.8448100623745712, 0.393245941624484, 0.14454050362110138
0.5769897736871923, 0.5225927111695867, 0.30669912695884705
0.6355290680564716, 0.5090197429003416, 0.30669912695884705
0.3794242739677429, 0.5115000064913949, 0.3014915526786533
0.4213122848961345, 0.514709972956575, 0.2572404444217682
0.7767872816953713, 0.521266391709847, 0.2572404444217682
0.5467128340463803, 0.5144945346135676, 0.2572404444217682
0.8150939039733343, 0.5116148102137343, 0.30669918082337266
0.7210354009334865, 0.5167827286851687, 0.3066991433392325
0.5147656761545898, 0.5284428596496582, 0.27990297453746854
0.47105918809569697, 0.52844286762941, 0.2621092595800718
0.4902796834751946, 0.4897674322128296, 0.28607485934494636
0.5597221999150126, 0.4897674322128296, 0.2812085510529765
0.7040056591422204, 0.4897674322128296, 0.2892494570668073
0.6272519605464354, 0.4897674322128296, 0.25910204333627856
0.8299601048469922, 0.5284428974469475, 0.2637545497638202
0.6613730133444656, 0.5284428596496581, 0.2785617934707519
0.738110318768145, 0.5284428828347301, 0.2594462031943787
0.3987423639582479, 0.5048606332766636, 0.30669912695884705
0.5434482334093587, 0.4897674322128296, 0.29555940688234267
0.6187437180584907, 0.48976743221282965, 0.28328749331422537
0.4762313814745302, 0.4897674322128296, 0.2761783501457098
0.5907915751974304, 0.4897674322128296, 0.26990717619398474
0.5954422992227488, 0.49543390405991217, 0.2572404444217682
0.6760115027394455, 0.5090028717053132, 0.2572404444217682
0.5181273234005356, 0.5284428596496582, 0.2735509669574779
0.5806330928673077, 0.5284428596496582, 0.27599529780568166
0.5058352948183021, 0.5284428694260734, 0.2942501957610527
0.5077534138368409, 0.5201742197313461, 0.30669912695884705
0.45641333373526044, 0.49934417447316903, 0.30669912695884705
0.39419971435439133, 0.4897674322128296, 0.25946023117338557
0.44635973530340534, 0.49515707774886203, 0.2572404444217682
0.46455205808942585, 0.5284428596496582, 0.28002530587951224
0.5019713911707417, 0.528442868466916, 0.29216284724756547
0.6531781821265613, 0.5284428596496582, 0.3046852967566288
0.8173420928022243, 0.5284428800615074, 0.29655940282122295
0.6996665890611048, 0.4897674322128296, 0.2945269912770467
0.7316219233487503, 0.4897674322128296, 0.2743682832245762
0.7476325708400859, 0.5284428613424034, 0.27341071008885287
0.37942427396774286, 0.5104490052369324, 0.26336066436464134
0.5808069110471248, 0.5078744433075432, 0.30669912695884705
0.7421399231279624, 0.5031136291632874, 0.2572404444217682
0.707863594524905, 0.5003552492284278, 0.2572404444217682
0.7634568485466846, 0.49235569691045894, 0.30669916024497235
0.7416783622846836, 0.5260799092254949, 0.3066991515658535
0.6031362365329478, 0.5227961637020386, 0.2572404444217682
0.5636537796987658, 0.4954193407772516, 0.30669912695884705
0.5561798870190439, 0.4903530688814275, 0.30669912695884705
0.7493890028567206, 0.49628395787874824, 0.2572404444217682
0.7491526462369618, 0.5284428596496582, 0.2900772148752733
0.8085490962529016, 0.4897674322128296, 0.29253219727829405
0.6520831946265458, 0.4175663758795601, 0.3159145816497237
-0.6723672037054318, 0.5580065250396729, -0.0059351132895976155
-0.6559129832270512, 0.5580065250396729, -0.0028332175183894553
-0.7582232595145537, 0.558006525039673, -0.21988319480495383
-0.7588618351920056, 0.5580065250396729, -0.1412896423046363
-0.7396055599759684, 0.5580065250396729, -0.03548142339347646
-0.5302565951162073, 0.5580065250396729, 0.27799809825464117
-0.48737824185173406, 0.5580065250396729, 0.26581728023922124
-0.6528818709420572, 0.5580065250396729, 0.08815303277204993
-0.6932607194433053, 0.5580065250396729, -0.018200429191494616
-0.6521514344077862, 0.5580065250396729, -0.04786923728521956
-0.5984230914905032, 0.5580065250396729, 0.09880289311185342
-0.6487250572150115, 0.5580065250396729, -0.009738004207017818
-0.7405976843323387, 0.558006525039673, -0.04766427851395999
-0.7372003207396352, 0.5580065250396729, -0.06254940364467822
-0.7461064787891687, 0.5580065250396727, -0.16404888233371265
-0.6659213149452922, 0.5580065250396729, -0.08841484084541759
-0.555271377947394, 0.5580065250396729, 0.07889897442987773
-0.6852512905101431, 0.5580065250396729, 0.2258120316039619
-0.7130641139303684, 0.5580065250396729, -0.09657270547638593
-0.6453021713145725, 0.5580065250396729, 0.2683142630048607
-0.6806798924836426, 0.5580065250396729, 0.03950604807445461
-0.6808945880894958, 0.5580065250396729, -0.0387808250182229
-0.7031665134864713, 0.5580065250396729, 0.135352786580339
-0.6677605188170277, 0.5580065250396729, 0.04020012171074705
-0.7275180152140535, 0.5580065250396729, 0.06911841415417974
-0.6820638220946569, 0.5580065250396729, 0.13751235931116063
-0.5793324583503112, 0.5580065250396729, 0.27031862645046206
-0.5163707821810808, 0.5580065250396729, 0.1739686881131926
-0.6841143336081396, 0.5580065250396729, 0.14099449178209722
-0.6743477854871558, 0.5580065250396729, 0.04883316249703086
-0.5578691793324311, 0.558006525039673, 0.10476639350023377
-0.5846143193950942, 0.5580065250396729, 0.12876254023007808
-0.6945437483883078, 0.5580065250396729, -0.05687363674056953
-0.7653324713223548, 0.5580065250396729, 0.05009698618393975
-0.46366702564441237, 0.5580065250396729, 0.24441469917046998
-0.49852680431934787, 0.5580065250396729, 0.2496581339899666
-0.6271885691572605, 0.5580065250396729, 0.25710144789991657
-0.6901289930828978, 0.5580065250396729, -0.07116302177030247
-0.6235829249578607, 0.5580065250396729, -0.006550898310926081
-0.6698010769156879, 0.5580065250396729, -0.05782917479734295
-0.7485597423412981, 0.5580065250396729, -0.21386984450145177
-0.5235578728514436, 0.5580065250396729, 0.27094468719208264
-0.522564601938317, 0.5580065250396729, 0.177724035995145
-0.6919479412488885, 0.5580065250396729, 0.21072362834623992
-0.5551674296262457, 0.558006525039673, 0.22305158497105465
-0.5163164618510965, 0.5580065250396729, 0.19020954099944298
-0.5661717401288281, 0.5580065250396729, 0.06937687090244249
-0.6960053226372722, 0.5580065250396729, -0.01855088328006728
-0.7173971108322927, 0.5580065250396729, 0.0827543580703112
-0.6680980810651841, 0.5580065250396729, 0.025267330859806772
-0.46963444859636533, 0.5580065250396729, 0.24955492902357074
-0.6743598941050268, 0.5580065250396729, 0.034625805924722544
-0.5416349879472203, 0.5580065250396727, 0.2579565844103508
-0.716282507183316, 0.5580065250396729, -0.022714886868688458
-0.7200550378028105, 0.5580065250396729, 0.25320727112361313
-0.7393227133154242, 0.5580065250396729, -0.10930191709432438
-0.7179275356732395, 0.5580065250396729, 0.1721504567088705
-0.7411604252732773, 0.5580065250396727, -0.20951677233137445
-0.47898819648258034, 0.5580065250396729, 0.18505403420589414
-0.6093958807209341, 0.5580065250396729, -0.13660414933433243
-0.47102365310246147, 0.5580065250396729, 0.03433117595687908
-0.488085064887943, 0.5580065250396729, -0.240662290880217
-0.4676983780725293, 0.5580065250396729, -0.18298380950111648
-0.6379634947660532, 0.5580065250396729, -0.077745543526129
-0.5420540537904223, 0.5580065250396729, 0.06887536575990595
-0.4766521166911376, 0.5580065250396729, 0.027076034749952904
-0.6814047058547589, 0.558006525039673, -0.17302762227317522
-0.5955425504974027, 0.5580065250396729, -0.11366938157656813
-0.43128974695044303, 0.5580065250396729, 0.13190551793815972
-0.6393822617976542, 0.5580065250396729, -0.13771859378125464
-0.4942762264106981, 0.5580065250396729, -0.07546803036868549
-0.6791950436073393, 0.558006525039673, -0.16669107010522
-0.555572828597046, 0.5580065250396729, -0.05429056459201603
-0.530851883497146, 0.5580065250396729, -0.010794400560707636
-0.5744900874970609, 0.5580065250396729, -0.11602506235995699
-0.5369841941743672, 0.5580065250396729, -0.00726869966657475
-0.482346643680629, 0.5580065250396729, -0.15403875193351554
-0.556577585246237, 0.5580065250396729, -0.04503176792607546
-0.44953688302903183, 0.5580065250396729, -0.007415512120175924
-0.5242884232992024, 0.5580065250396729, -0.0758108715110251
-0.6152800118438404, 0.5580065250396729, -0.22962584418871756
-0.6274579961928994, 0.5580065250396729, -0.18868913230197315
-0.5010086110685655, 0.5580065250396729, 0.007801292375741842
-0.5477468752866317, 0.5580065250396727, 0.04357642059105231
-0.4857637753607084, 0.5580065250396729, 0.04682491048143346
-0.4547141903017936, 0.5580065250396729, 0.07257282669638311
-0.6780734718469641, 0.5580065250396729, -0.26501536486398003
-0.6705024894979397, 0.5580065250396729, -0.19783767872358998
-0.4403719439122678, 0.558006525039673, 0.22706280592090253
-0.5780092609168963, 0.5580065250396729, 0.001963266327294693
-0.5126072426008325, 0.5580065250396729, -0.06142947641164406
-0.5915832613058767, 0.5580065250396729, -0.09449136746276249
-0.5039918721428039, 0.5580065250396729, 0.016989773528993127
-0.5590077825853443, 0.5580065250396729, -0.11169704503512194
-0.4576944964301235, 0.5580065250396729, 0.1431640767080564
-0.5214077594517604, 0.5580065250396729, -0.1870767957397888
-0.4482127175060586, 0.558006525039673, 0.17179083772345305
-0.4271630259507249, 0.5580065250396729, 0.2162010318266908
-0.4574253793824525, 0.5580065250396729, -0.10285585203256709
-0.7207928509462654, 0.5580065250396729, -0.19000017002885625
-0.6950473705409463, 0.5580065250396729, -0.20193932613876717
-0.488045368360218, 0.5580065250396729, -0.10998722240962014
-0.45024284286648564, 0.5580065250396729, 0.13591245821763503
-0.6740827038989722, 0.5580065250396729, -0.2515687161666645
-0.4481995445400989, 0.5580065250396729, -0.02024512086120621
-0.6239567831126912, 0.5580065250396729, -0.05309257045267687
-0.5132920598195808, 0.5580065250396729, -0.11821823472227623
-0.48373278411618725, 0.5580065250396729, 0.0663601741813353
-0.4398347703407817, 0.5580065250396729, -0.2344341950243536
-0.5019805144688395, 0.5580065250396729, -0.17593406552801394
-0.5702007986231605, 0.5580065250396729, -0.2216236194748035
-0.5088223351377581, 0.5580065250396729, -0.06931175478289776
-0.4682648611147289, 0.5580065250396729, -0.08622799627347813
-0.4519609166420345, 0.5580065250396729, 0.22046187985015922
-0.4542647916746515, 0.5580065250396727, 0.22993316659394136
-0.5537359086123195, 0.5580065250396729, 0.04930450423166207
-0.3513788650146793, 0.47928689276334385, -0.14449328184127805
-0.35335516929626465, 0.40409649743322984, -0.15952724098338728
-0.35335516929626465, 0.43119768018232346, -0.1872783059483822
-0.35335516929626465, 0.6783482820769338, -0.1471593566996648
-0.35335516929626465, 0.502595640100127, -0.22044144268199833
-0.35335516929626465, 0.5229838809726701, -0.16908613682846943
-0.35335516929626465, 0.5736632017275768, -0.19257834489513584
-0.35335516929626465, 0.5889414347682539, -0.17951249975885797
-0.35335516929626465, 0.5200028634840898, -0.15666520716904545
-0.35335516929626465, 0.6613486624402954, -0.16214776244705575
-0.35335516929626465, 0.5737088979638809, -0.2054779268957137
-0.3533551692962646, 0.6356742715207369, -0.18774404882524082
-0.35335516929626465, 0.5945016743132084, -0.2119028675241123
-0.35335516929626465, 0.639039633316394, -0.18601602719298194
-0.35335516929626465, 0.5118075856356883, -0.23001366818258284
-0.35335516929626465, 0.6755581943261755, -0.21755308299638548
-0.35335516929626465, 0.5547964649633798, -0.24245760975810465
-0.34569998392907547, 0.6145920812117633, -0.24278220534324646
-0.34526165195019887, 0.4756837772950707, -0.24278220534324646
-0.342880597161479, 0.4194190066454938, -0.19803455920880042
-0.3428806079195691, 0.40046695793759735, -0.20852128363920142
-0.3428806339054928, 0.4030942172834704, -0.23385172974854693
-0.3428806097185748, 0.5096133713712081, -0.22082178547866152
-0.3428805910588302, 0.5373700675057496, -0.2127918956278394
-0.3428805525722377, 0.6325493954570244, -0.21011250529884368
-0.3428805756234643, 0.640771979484325, -0.23559181230703963
-0.3428805893627628, 0.4922494683025711, -0.19462410633172955
-0.3428805618788566, 0.6673076623383644, -0.23190617759711948
-0.3428805470466614, 0.6929226386770582, -0.16732884190633618
-0.3428805470466614, 0.6171398249504598, -0.15397706275785344
-0.3428805470466614, 0.6935488803691923, -0.22164893230874133
-0.3428805470466614, 0.6764217024040726, -0.15097801478412745
-0.3428805470466613, 0.6464781607646279, -0.2020096037041128
-0.3428805470466614, 0.6385373268493989, -0.15614022472898903
-0.34288054704666143, 0.6380169491887001, -0.14854670791098734
-0.3432739259473862, 0.492391608714843, -0.14449328184127808
-0.35335516929626465, 0.3659271250922374, -0.14796141215223732
-0.3533551692962646, 0.34089083609387133, -0.16985217853137416
-0.35335516929626465, 0.325388607705756, -0.15070360719614048
-0.35335516929626465, 0.1927158373226707, -0.17023047607603692
-0.35335516929626465, 0.1978237874413653, -0.1662761582075937
-0.35335516929626465, 0.3040163406290455, -0.17206655425073167
-0.35335516929626465, 0.36962346357722337, -0.1541586683402356
-0.3428805942573758, 0.46859807808007964, -0.1952037100628902
-0.34288055128813055, 0.44631313123207916, -0.15331833539650694
-0.3428805470466614, 0.2077265549490354, -0.14803343668268637
-0.34288058345282635, 0.38823253469963587, -0.18467169816965362
-0.3428805982085905, 0.34322192481142905, -0.19905525798849785
-0.3428805715789472, 0.23246170935274463, -0.17309732972800718
-0.3428806325651557, 0.3964250509903644, -0.23254520177378912
-0.34288056794505517, 0.2861334502356446, -0.1695551001807572
-0.3428805958867242, 0.34337403409052925, -0.19679195930864934
-0.34839584680043484, 0.15773217380046844, -0.18311008706344878
-0.3533424367094009, 0.37110725079932433, -0.14449328184127805
-0.342880636178015, 0.27279760616035675, -0.23606692906599025
-0.34288058457087683, 0.2129306592502751, -0.1857615465810114
-0.3428806354713486, 0.22500450168067437, -0.2353780878873793
-0.342880627176253, 0.19769534141493306, -0.22729223061361511
-0.34288061561652494, 0.18065360811919123, -0.2160240889466697
-0.3428805867985361, 0.1956723087555552, -0.18793301464525897
-0.34288063132826185, 0.15858760934387467, -0.23133950776926643
-0.35335516929626465, 0.39582017537602493, -0.18007987731544933
-0.3533551692962647, 0.2359987836450204, -0.21412160575005154
-0.35335516929626465, 0.17119670667850254, -0.23511727539369046
-0.35335516929626465, 0.23698921886476987, -0.2097889267850689
-0.35335516929626465, 0.28846571505436447, -0.20471332247642338
-0.35335516929626465, 0.3926855836452514, -0.20542144732055723
-0.35335516929626465, 0.295975370931621, -0.2411634119220858
-0.3533551692962646, 0.44692960283449434, -0.19243051241923878
-0.35335516929626465, 0.4348764131505329, -0.20331860078611294
-0.3505860537148841, 0.39587149519163123, -0.24278220534324646
-0.3428805706905487, 0.3306944385532684, -0.241077382547475
-0.3442403497659284, 0.3813533145182856, -0.14449328184127808
0.6503645181655884, 0.22631469966876527, 0.32582669022942967
-0.37787854187493325, 0.29647812247276306, 0.06859326406336932
-0.36847459102206037, 0.29647812247276306, 0.05074293624011641
-0.3807347413735682, 0.29647812247276306, 0.03761103859565899
-0.4095836344635841, 0.29647812247276306, 0.04915472845063962
-0.3926716755087324, 0.29647812247276306, -0.2096524690468068
-0.37835301769179197, 0.29647812247276306, -0.22498981114774352
-0.4133566915988922, 0.22869151160017176, -0.09865433624785672
-0.4133566915988922, 0.2907822530894841, -0.09726917237198648
-0.4133566915988922, 0.23257227349161635, -0.10966985482568384
-0.4133566915988922, 0.24002729214684657, -0.1457551190141329
-0.4133566915988922, 0.2243348849742952, -0.09686510982919266
-0.4133566915988922, 0.28412118780947443, 0.049667083961082416
-0.4133566915988922, 0.2508618366118599, -0.006531164456688178
-0.41335669159889227, 0.22840957743773782, -0.059063225015224305
-0.4133566915988922, 0.2707160233826062, -0.00655483542495712
-0.4133566915988922, 0.23166804485436884, -0.050853334386434815
-0.4133566915988922, 0.27259435852991426, 0.03283147904986207
-0.38936759249508046, 0.183505117893219, 0.0565416933558332
-0.40419310635941263, 0.183505117893219, 0.01645220312926387
-0.3782016164277199, 0.183505117893219, 0.0806970781643114
-0.4113620092641944, 0.183505117893219, -0.22248349870100675
-0.3946359353187123, 0.183505117893219, -0.23678369711450148
-0.36116737256314074, 0.18350511789321897, -0.121896034376437
-0.35399559140205383, 0.2569577093945066, -0.13774360056790136
-0.35399559140205383, 0.26491167573682417, -0.16246133487670544
-0.35399559140205383, 0.22847724711453826, -0.10319522543860776
-0.35399559140205383, 0.28244420098923007, -0.16318627204382147
-0.35399559140205383, 0.2592913386107063, -0.13396843738884862
-0.35399559140205383, 0.2943325375117696, -0.11594041166596418
-0.35399559140205383, 0.19177667059371778, -0.004802301788042418
-0.35399559140205383, 0.19509142106585736, -0.07833893557934399
-0.35399559140205383, 0.23829001713731035, -0.023045048037941142
-0.35399559140205383, 0.1946099150507286, 0.016194495872959833
-0.35399559140205383, 0.19294279248665663, -0.03717312489960033
-0.35399559140205383, 0.22699571854146444, -0.05754208046197758
-0.3778905291918178, 0.29647812247276306, -0.12807799540885542
-0.3761557966270939, 0.29647812247276306, -0.11796089291088177
-0.4133566915988922, 0.1915875759394311, -0.23939254846668226
-0.4133566915988922, 0.24193531171380914, -0.17699686657102803
-0.4133566915988922, 0.26566777161954563, -0.1893838960891399
-0.4133566915988922, 0.25800682027200667, -0.1829379305614419
-0.4133566915988922, 0.2701413716859421, -0.23310539023381707
-0.412746210262648, 0.183505117893219, -0.1895532537250804
-0.4018179491022492, 0.183505117893219, -0.10408673712758588
-0.3743281521820049, 0.183505117893219, -0.10148993246891777
-0.35399559140205383, 0.2690753658036049, -0.23240292674856153
-0.35399559140205383, 0.20970015977337753, -0.16791626114739533
-0.35399559140205383, 0.18770915273661, -0.22431207009151116
-0.35399559140205383, 0.1904167237890139, -0.17076200159771354
-0.35399559140205383, 0.22974945660235166, -0.23346783684089595
-0.3750550987477694, 0.29647812247276306, 0.14667927916156256
-0.3615623136092311, 0.29647812247276306, 0.21358813028423357
-0.40907936425288927, 0.29647812247276306, -0.0768310506066675
-0.4021006212398399, 0.29647812247276306, -0.0005347916001039593
-0.40452742042747347, 0.29647812247276306, 0.04111360190447888
-0.41164325623950343, 0.29647812247276306, -0.03867790872484472
-0.4133566915988922, 0.21180314471859557, 0.05552919815788647
-0.4133566915988922, 0.21235372540258557, 0.07637976674718686
-0.41335669159889216, 0.22607280290438325, 0.01907300159526388
-0.4133566915988922, 0.2222808992607642, 0.08469868341912268
-0.41335669159889227, 0.28074083539540995, 0.08008513687576332
-0.4133566915988922, 0.2224547378353903, 0.012108401927719031
-0.41335669159889227, 0.27472227004319166, 0.17380132542587234
-0.4133566915988922, 0.2133440477127865, 0.09713966316875279
-0.4133566915988922, 0.2871657098924342, 0.1734742720175583
-0.4133566915988922, 0.26711568226801413, 0.19063202736099508
-0.4133566915988922, 0.23227728985716967, 0.12103359245252453
-0.38942198713037235, 0.18350511789321897, 0.15392901046800664
-0.38544050453077666, 0.183505117893219, 0.1864142865469702
-0.41018181615320337, 0.183505117893219, 0.0140320969033179
-0.3683829919384244, 0.183505117893219, -0.0009790571121436643
-0.3587052464670876, 0.183505117893219, 0.027490135459886808
-0.39010319146078776, 0.18350511789321897, -0.02466295976258763
-0.35399559140205383, 0.261445337638793, 0.09440491817794851
-0.35399559140205383, 0.23710722679447713, 0.07444335204060898
-0.35399559140205383, 0.2902929466248172, 0.014703760162415522
-0.35399559140205383, 0.27161012079744395, -0.025918319913971536
-0.35399559140205383, 0.26119468881835917, 0.012877213997082079
-0.35399559140205383, 0.28585865094211804, 0.05434993410392789
-0.3539955678852335, 0.23861709723784966, 0.13418911573663123
-0.35399553403572903, 0.2220798232087067, 0.18777529314583838
-0.3539955701532129, 0.2633664459678747, 0.13059874270461108
-0.3539955522728584, 0.19548080984349875, 0.15890461797753677
-0.35399554081392376, 0.2272700836696973, 0.17704492790117304
-0.38044449257399854, 0.2889105534361218, -0.2423749417066574
-0.3797380261806247, 0.27673771394452834, -0.2423749417066574
-0.3807428553027148, 0.183505117893219, 0.23902469947490895
-0.373998763683232, 0.183505117893219, 0.14695242104031864
-0.3725597514410858, 0.183505117893219, 0.1475182634216295
-0.3928329934438068, 0.24594367673385717, 0.24171482026577
-0.401919451781429, 0.2748089740271235, 0.24171482026576996
-0.3664778177470216, 0.26873458117107973, 0.24171482026576996
-0.4133566915988922, 0.18998414121813129, 0.13529187952125443
-0.4133566915988922, 0.26597243824682465, 0.20694103199521047
-0.4133566915988922, 0.2636160203993154, 0.23165074648852935
-0.4133566915988922, 0.2590895136975462, 0.20777881838691475
-0.4133566915988922, 0.2211796026506479, 0.2060856747394213
-0.3539955863462415, 0.2870632480544947, 0.23972605611386888
-0.3539955382064359, 0.2300888424039503, 0.1875295098771621
-0.35399558991373825, 0.2912854665014667, 0.11679834209218704
-0.3539955824347597, 0.28243393857219395, 0.16319924219198106
-0.35399554153930207, 0.23403335280118834, 0.19853561305535206
-0.4133566915988922, 0.2585599693520385, 0.23860885685500346
-0.36719584288074203, 0.22323275098890102, -0.2423749417066574
-0.3616053527383184, 0.1914182181531281, -0.2423749417066574
-0.39208041032549124, 0.29647812247276306, 0.11325872421322196
-0.40864413783767684, 0.29647812247276306, 0.1647399458720416
0.6738564620828366, 0.23404638594114208, 0.32981137883774936
0.668781175059125, 0.22171507243386182, 0.329779351044397
-0.5443541698810828, 0.6080993229598606, 0.3345884562397572
-0.5432253553599733, 0.5943570711467551, 0.3280933201313019
-0.6663653096317882, 0.24360549443153193, 0.3449522165026767
-0.6721703710635962, 0.24422049686979158, 0.33665889283297273
-0.6505600523070285, 0.22646040005879314, 0.3299863756326109
0.48797866702079773, 0.21825131702157774, 0.33992416787874624
0.8453661969068607, 0.6664854830257391, -0.24190829694271088
0.8509596642896629, 0.6652975073643228, -0.24190829694271088
0.8102904539795037, 0.6243762759427433, -0.2419082969427109
0.8360821512339853, 0.6822309543788465, -0.2419082969427109
0.8366251916264658, 0.6458578339320562, -0.24190829694271088
0.8428384000560101, 0.4290307562528033, -0.24190829694271088
0.8095750455818195, 0.3881706833837712, -0.24190829694271088
0.8436227610373468, 0.32809635532825776, -0.24190829694271088
0.8342671417376936, 0.42101273609398604, -0.24190829694271088
0.7806658895680475, 0.5498995206313183, -0.24190829694271088
0.7791303992271423, 0.6008281715609279, -0.2420554851043552
0.7791303992271423, 0.287276242759954, -0.2872998969902477
0.7791303992271423, 0.3370098482419479, -0.25080166643674806
0.7791303992271423, 0.2934183522132682, -0.2774028551027047
0.7791303992271423, 0.26653954399390134, -0.29388304525214504
0.7791303992271423, 0.6015854163476031, -0.25881375704488707
0.7791303992271423, 0.6079987436207067, -0.26352441265556403
0.7791303992271423, 0.5216096123669415, -0.24768751390617602
0.7791303992271423, 0.4821038318367138, -0.2701170604279127
0.7791303992271423, 0.30317773532793724, -0.3075036520725185
0.7791303992271423, 0.6014606598385066, -0.30193705941337623
0.7791303992271423, 0.631330683764312, -0.2927966606418812
0.7791303992271423, 0.6636459480376088, -0.2641574428412593
0.7791303992271423, 0.6994239022389581, -0.2706660442778707
0.7817962286307472, 0.5006711598063525, -0.30946651101112366
0.8185619723446316, 0.5852308757971794, -0.30946651101112366
0.8360514692918266, 0.6121492161647306, -0.30946651101112366
0.8052907858164656, 0.5531075589474177, -0.30946651101112366
0.815123596985974, 0.550363931496195, -0.30946651101112366
0.8084865462381284, 0.506911661003011, -0.30946651101112366
0.7963523628170543, 0.5396512295065786, -0.30946651101112366
0.7938390602516802, 0.7136263299597927, -0.30946651101112366
0.8014981744330616, 0.6423581538406176, -0.30946651101112366
0.8266391533149116, 0.7122271504958246, -0.30946651101112366
0.7989381727666414, 0.6166819708491692, -0.30946651101112366
0.798288709031105, 0.3165214074609493, -0.30946651101112366
0.8187563225859227, 0.4594935855673049, -0.30946651101112366
0.7974809371688294, 0.3954695091512921, -0.30946651101112366
0.8268250293775554, 0.3974613519123419, -0.30946651101112366
0.7866982313366075, 0.2700838642011021, -0.30946651101112366
0.8510492484933136, 0.7023360046182631, -0.30946651101112366
0.8540263244243739, 0.4142563831018178, -0.2981193865672858
0.8540263303376898, 0.34600789121742237, -0.29218798461292167
0.8540263343607531, 0.3244287355191302, -0.2881526168530025
0.8540263235778733, 0.311352910034952, -0.2989684760005556
0.854026344134512, 0.5868142122148526, -0.3055600744930035
0.8540263770733583, 0.49035816789952413, -0.24770993921937262
0.8540263309162749, 0.4969181302314916, -0.29565530320528566
0.854026370131665, 0.6495052453596791, -0.29463232929844024
0.854026358736827, 0.5145512535452782, -0.2721770771128854
0.8540263772010802, 0.6757789692867529, -0.27616138597946865
0.8540263772010803, 0.6637458153163441, -0.26134753728564525
0.8540263772010803, 0.6771094941901974, -0.27169678846867934
0.8540263772010803, 0.6631651873953817, -0.2549710265747831
0.853402668754234, 0.39332811404066015, -0.24190829694271088
0.8126663802036878, 0.5797255487623855, -0.24190829694271088
0.8173301291491835, 0.5862687000008782, -0.2419082969427109
0.7930851240141328, 0.525530493051681, -0.24190829694271088
0.8082624649524304, 0.5361660382309905, -0.24190829694271088
0.7979249235540803, 0.4978585619966859, -0.24190829694271088
0.7921514700458133, 0.0023968898000750966, -0.24190829694271088
0.8070790405374328, 0.0, -0.28695510605939384
0.7791303992271423, 0.4462986098077718, -0.24425449265230859
0.7791303992271423, 0.10982869799554455, -0.24726834074326182
0.7791303992271423, 0.09478184869316182, -0.2813019597279474
0.7791303992271423, 0.10465187232280444, -0.2486822614935945
0.7791303992271423, 0.04306596436347396, -0.24908992869436017
0.8540263577832916, 0.43820283082858336, -0.26465844058394544
0.8540263710255702, 0.4569229792661761, -0.25137566040370984
0.8540263734023607, 0.3751994948058942, -0.24899160053266475
0.854026363122051, 0.3678393386313065, -0.25930335260669934
0.8540263565433894, 0.15231442700433917, -0.26590213487172526
0.8540263408155453, 0.2279440866701452, -0.2816780826350342
0.8540263468042573, 0.16421141397207034, -0.275671054256506
0.8540263571798691, 0.16682964597285002, -0.26526370863688764
0.854026333003284, 0.23695458292865035, -0.28951423779604174
0.8006993518220353, 0.0, -0.24840033903844896
0.7936599817392433, 0.0, -0.2640223207491026
0.8225321384760528, 0.36406673784322685, -0.3094665110111237
0.8273109108923299, 0.3529719825980019, -0.30946651101112366
0.8164477101200084, 0.3486917483826166, -0.30946651101112366
0.8351277039907328, 0.3617227510603672, -0.30946651101112366
0.8387580923686441, 0.3003372195943201, -0.30946651101112366
0.8171897167955536, 0.04009261188875514, -0.30946651101112366
0.8377825860110873, 0.19007629598990836, -0.30946651101112366
0.81817183931311, 0.08936927905637364, -0.30946651101112366
0.8468428682829154, 0.15014043958942053, -0.30946651101112366
0.8204146365961473, 0.10261397423718072, -0.30946651101112366
0.8451726297652558, 0.12594187666880927, -0.24190829694271088
0.8319345034902412, 0.20721226169543133, -0.24190829694271085
0.8010543066257287, 0.19957144906298432, -0.24190829694271088
0.8277595905290553, 0.18019070178523666, -0.24190829694271088
0.8058320272746418, 0.164601244540445, -0.24190829694271088
0.8540263640363469, 0.05417345170349527, -0.25838626030805634
0.8540263520818848, 0.06575592911499563, -0.2703772850153848
0.8540263252503367, 0.20419597538922124, -0.2972908973719623
0.8540263341266375, 0.13855467467945562, -0.28838744851198983
0.8540263530001126, 0.4587120080723581, -0.30764008817189786
0.7791303992271422, 0.22764096184796295, -0.2707717650510561
0.7791303992271423, 0.15042391379316986, -0.2924228911705875
0.7791303992271423, 0.12961987524539864, -0.29216593079235315
0.7791303992271423, 0.2104943949058447, -0.27218830332953775
0.7791303992271423, 0.16555916743256538, -0.2758250394141711
0.7791303992271423, 0.34364157391273525, -0.29134894629561686
0.7791303992271423, 0.4216445377898954, -0.29137610746261844
0.7791303992271423, 0.3435482724098533, -0.30157036283815997
0.7791303992271423, 0.4294207749928227, -0.28154344465096415
0.8515332485832853, 0.0, -0.2715575394611764
0.7880640242172156, 0.1966376157008083, -0.30946651101112366
0.8008663937747789, 0.17223648362191535, -0.30946651101112366
0.7827231131438668, 0.2301062234541523, -0.30946651101112366
0.7872682626457248, 0.15675742685422342, -0.30946651101112366
0.8528280740923699, 0.3201494870127472, -0.30946651101112366
0.8525979536197772, 0.18935597001984508, -0.30946651101112366
0.8372754087537804, 0.02568134776114853, -0.24190829694271088
0.821856405375847, 0.038128598270188774, -0.24190829694271088
0.7919716268360818, 0.18698194879820765, -0.24190829694271088
0.8401476481718054, 0.00810247079400791, -0.24190829694271088
0.8043366456801034, 0.16078183248037303, -0.24190829694271088
0.7876377660267916, 0.3418759100139104, -0.24190829694271088
0.7907730492659185, 0.3842054226119078, -0.24190829694271088
0.8282495525918829, 0.24437028742610342, -0.24190829694271088
0.8036586627229334, 0.2516818334307252, -0.24190829694271088
0.7822889663684747, 0.41226478251962706, -0.24190829694271088
-0.362539356429718, 0.4769947826862335, 0.029824098921716474
-0.39258379271048294, 0.4769947826862336, 0.059973349947123916
-0.3679667096550582, 0.4769947826862335, 0.047209387486961074
-0.3577884489727533, 0.4769947826862335, -0.17238754482561902
-0.3921673560878789, 0.47699478268623346, -0.14604784545172927
-0.40191145410151236, 0.4769947826862335, -0.16092633264160022
-0.41351744532585144, 0.4344067438637557, -0.12292984204148878
-0.41351744532585144, 0.3718835979235027, -0.1138622620628825
-0.41351744532585144, 0.37651313901838523, -0.18890803892119742
-0.4135174453258515, 0.3921459211098747, -0.1804045865056965
-0.4135174453258515, 0.4363640803304372, -0.10516520952616995
-0.41351744532585144, 0.4720465871598357, 0.04127394221917548
-0.41351744532585144, 0.4735629385778569, 0.05837339545710664
-0.41351744532585144, 0.45417621908112127, 0.05020646370074478
-0.41351744532585144, 0.4684990310870553, 0.03802675660490164
-0.41351744532585144, 0.4521261778960888, 0.051097692117692196
-0.41351744532585144, 0.44758875399852854, -0.01602918513641058
-0.41259675553969744, 0.36402174830436707, -0.022816803891293015
-0.4052649638792519, 0.36402174830436707, 0.021908076753523166
-0.3874306576321712, 0.364021748304367, 0.0177020126302677
-0.3934152117516906, 0.36402174830436707, 0.02626928558222538
-0.36490204216490285, 0.364021748304367, -0.14339575471820726
-0.36913776254850816, 0.36402174830436707, -0.1613417434286466
-0.35415634512901306, 0.4389582223787174, -0.13098588015176052
-0.354156345129013, 0.4288250454366331, -0.1359657365119923
-0.35415634512901306, 0.46291219532193156, -0.1642042309716785
-0.35415634512901306, 0.4540104179994418, -0.18734067940582275
-0.35415634512901306, 0.3828851658601302, -0.09711948475854532
-0.35415634512901306, 0.4099202323075418, -0.008721360895073109
-0.3541563451290131, 0.38942462279650497, 0.032266997074241605
-0.35415634512901306, 0.43551595319157177, -0.0838310647098772
-0.35415634512901306, 0.37488467934916314, -0.026623869112170573
-0.35415634512901306, 0.40481552854044184, -0.03671542841339412
-0.35415634512901306, 0.3897275535115801, 0.021808389213962453
-0.3541563451290131, 0.4167498813910495, -0.019087950836462707
-0.3848443363460291, 0.4769947826862335, -0.14992247877603307
-0.38475625065248575, 0.4769947826862335, -0.14818090535472814
-0.41351744532585144, 0.4593322138250294, -0.23828370321898543
-0.4135174453258514, 0.39024627737826467, -0.22473030687147333
-0.41351744532585144, 0.45785350764947386, -0.1810185470729787
-0.41351744532585144, 0.4486049426768203, -0.1770917080241758
-0.41351744532585144, 0.39288785111363356, -0.22637833542887892
-0.4135174453258515, 0.45252788966341695, -0.1625014643880145
-0.4028516795260192, 0.36402174830436707, -0.17478282502532533
-0.3978895106018938, 0.36402174830436707, -0.10996177271962848
-0.35415634512901306, 0.39576749210736606, -0.14353925852491203
-0.35415634512901306, 0.3722345453244999, -0.10923633752730122
-0.35415634512901306, 0.41602885262134326, -0.20876573148813743
-0.35415634512901306, 0.371785638932495, -0.22132765001446844
-0.35415634512901306, 0.39233181114348764, -0.13608502480404255
-0.35992131304743463, 0.4769947826862336, 0.11004175413797253
-0.37581195121167144, 0.4769947826862336, 0.15378506630823544
-0.3557205435051902, 0.4769947826862336, -0.05689799769914526
-0.4061144392097385, 0.47699478268623346, 0.05560006446125127
-0.3965159089784254, 0.4769947826862335, -0.029791740058045506
-0.39204281600571556, 0.4769947826862335, -0.04591798698177437
-0.41351744532585144, 0.4216649808875812, 0.04458014389981252
-0.41351744532585144, 0.4382007755834329, 0.06581083195962999
-0.41351744532585144, 0.39225117496597206, 0.05046921794041989
-0.4135174453258515, 0.39355715175930206, 0.093371930143114
-0.41351744532585144, 0.39670863721579386, 0.008083184487171116
-0.41351744532585144, 0.39898897853297244, 0.03175814191007009
-0.41351744532585144, 0.452874320995645, 0.1142464481610318
-0.41351744532585144, 0.40504842265306473, 0.11650518370883234
-0.41351744532585144, 0.3865444996822237, 0.09706125087117991
-0.41351744532585144, 0.45276071182157995, 0.10562822913007147
-0.41351744532585144, 0.4438478862033065, 0.184066120817479
-0.389797058652094, 0.36402174830436707, 0.17135464475818982
-0.3862812796801692, 0.364021748304367, 0.17862446980621544
-0.41069959365593944, 0.36402174830436707, 0.11257274416468215
-0.36756299762214567, 0.36402174830436707, 0.050128557207696864
-0.3643938862427689, 0.36402174830436707, -0.04888960038495668
-0.3738203505387112, 0.36402174830436707, -0.0904195129156098
-0.35415634512901306, 0.36588091407483075, 0.16194581032680924
-0.35415634512901306, 0.4196133340336422, 0.04588164451479748
-0.35415634512901306, 0.44836255333086167, -0.045896483549705
-0.35415634512901306, 0.4393788831098297, -0.013590804006838203
-0.35415634512901306, 0.4686431863450038, 0.0052033610800299585
-0.35415634512901306, 0.4096234450246619, 0.06989955937750117
-0.354156345129013, 0.4331933999586554, -0.00610340806194223
-0.35415634015679276, 0.4391785535508155, 0.10483169261500401
-0.3541563338258268, 0.4120639716878247, 0.11485406286022369
-0.35415629586286307, 0.3737592451991032, 0.1749521392431794
-0.35415633691585885, 0.44889936327029356, 0.10996232180238551
-0.3552844521328946, 0.4742958591870158, -0.2423749417066574
-0.39068081009308386, 0.4628201752217167, -0.2423749417066574
-0.4086588311067393, 0.36743363386524086, -0.2423749417066574
-0.372764090335043, 0.36402174830436707, 0.14527165342702741
-0.3988387128290053, 0.36402174830436707, 0.10333961846118102
-0.3873086071730055, 0.3842107390652094, 0.24171482026576996
-0.394724604980203, 0.4276184158951052, 0.24171482026576993
-0.3692529128282027, 0.39254238630705807, 0.24171482026576996
