-0.009045102680249238, 0.05599927606684773, 0.05453584075105012
-0.006807692011982513, 0.03956543633846938, 0.05021850736714135
-0.008486017323005121, 0.049441811772888575, 0.05276735412474948
-0.008996394302628026, 0.05231181572254532, 0.053504921200681205
-0.009093079391400333, 0.08887367441579432, 0.05487482906332055
-0.008775970638643864, 0.08149856793208221, 0.05617950663192899
-0.008944362286340284, 0.07684519954474414, 0.056952154555838866
-0.00902488272941912, 0.08529521472503729, 0.05549611727920786
-0.00853147343999168, 0.07496992903026053, 0.05732947364171745
-0.007933599300530367, 0.12219404404553222, 0.03935578300591182
-0.009516474853076934, 0.10835193971952435, 0.047068342758290305
-0.007887829451045136, 0.11898204659449951, 0.04123540672144906
-0.008593123142955822, 0.12305219380925937, 0.038712633968459115
-0.012973902048739805, 0.07205503622209272, 0.05699545577247484
-0.014222914870575469, 0.08272111071499755, 0.05487406522565404
-0.013445475608473572, 0.09367416499637467, 0.05314424401573515
-0.014287613735565597, 0.07829188786096367, 0.055627951658141765
-0.012077670802855753, 0.08354364071550666, 0.05519864722103534
-0.012595595095569748, 0.07629463741723659, 0.05634274632592933
-0.011663115705603234, 0.11126754964383098, 0.04490295855558188
-0.012347310303811768, 0.11662163214127805, 0.041516055986646205
-0.01182511048403647, 0.11235041015091246, 0.04421083882639368
-0.01092281372976263, 0.12074694233420996, 0.03949487554384787
-0.015333020135948791, 0.0853302495986516, 0.05407910856850164
-0.014347591743338156, 0.0828712842095741, 0.054811346930221314
-0.01535207153866918, 0.09690376016811836, 0.052025379632963886
-0.015174492511322316, 0.091987694774979, 0.052948840824915785
-0.014991585158244876, 0.08047366243612342, 0.055041448503433475
-0.01797252130762223, 0.05936586108102143, 0.05327889693520349
-0.014454517471999202, 0.03728561287458326, 0.047910340186192064
-0.014595816989669762, 0.029723955858992474, 0.04566594425781366
-0.014723278170506723, 0.05041782397474499, 0.051653121642480544
-0.017353267974796045, 0.05732924931387284, 0.05287259453967238
-0.016639535292296757, 0.06520789727659584, 0.05538188947564041
-0.017208011551753506, 0.05837449698081147, 0.05322074537903328
-0.01540591347456054, 0.05815567739242561, 0.053700392196620546
-0.01649129149881163, 0.05319553298243454, 0.05192884546890775
-0.01482989254558099, 0.03502764812792449, 0.04713968765361069
-0.017241019760270978, 0.06771056382402671, 0.0559292545997403
-0.016810504751341656, 0.07226296144146407, 0.05594595188680767
-0.017999792211176625, 0.07367703787143476, 0.05533714612654921
-0.01724369565317225, 0.08461929874060387, 0.053628832599555816
-0.01628233121778337, 0.07656101976376162, 0.05534463931062866
-0.017381339278284235, 0.07397791416599656, 0.05547037266946189
-0.01577845390428681, 0.1095889907426155, 0.04463050707886176
-0.015254344399981306, 0.12172863073016674, 0.03742324604968919
-0.015307766397892667, 0.1124608024318263, 0.043060828386296705
-0.015971986287604174, 0.10860005512293837, 0.04515876828851835
-0.01933812316832461, 0.08485831403177709, 0.052870329517970494
-0.020674068672624203, 0.095059326509675, 0.05049376280988059
-0.01944345317718913, 0.07684279609292557, 0.05428696947461385
-0.018966883407271786, 0.08654750968700078, 0.05270800044336864
-0.02044715169764876, 0.09158734278834799, 0.051213751303774716
-0.018939071214879966, 0.05206597277388547, 0.05075116880260878
-0.021815905164628446, 0.057851319198405686, 0.05135979433133567
-0.02027773612534009, 0.05593624964455367, 0.05138696615254245
-0.019058366810640787, 0.06097475532380604, 0.05337064239403155
-0.021055874447051162, 0.04840934562089419, 0.048830806587658655
-0.019689226402507642, 0.048487103514397195, 0.04938741264141873
-0.019335292232826477, 0.05932603533222862, 0.05276917838902742
-0.020668583013418087, 0.04800443822149577, 0.04886077564119535
-0.021263567347182637, 0.06604991941481639, 0.054028845720653126
-0.019550816223362508, 0.060326585116879605, 0.05298449286888953
-0.020952536775590964, 0.055553555231885716, 0.05100909968447548
-0.019548121832949003, 0.11231196552403812, 0.04138006695238208
-0.016561351139145898, 0.12098353518740168, 0.03734607490757768
-0.018418798202538743, 0.11557639050164244, 0.039863858626787124
-0.01703273313968196, 0.12047845891020854, 0.03743718805618522
-0.021494736584928592, 0.09438672436857734, 0.05029581732506749
-0.019596870880043884, 0.07131803646974552, 0.055231858992237336
-0.020404064843037247, 0.07729842737213447, 0.053829221147917605
-0.021483873214624083, 0.07846165871196736, 0.0531962638309066
-0.021547095801700864, 0.09260716424322325, 0.0505990227194454
-0.02082494535891068, 0.08231549525316895, 0.05275254063917756
-0.031058850282250663, 0.0684260496155305, 0.0498656142963202
-0.02690153526762237, 0.03870574274730437, 0.0426987835195727
-0.02680236353579423, 0.056160443196232444, 0.04839172932717059
-0.027736035790438263, 0.056696029009669004, 0.04801934524627388
-0.030060112868200352, 0.05837706340444024, 0.047204718687049126
-0.026632585637164502, 0.04300182595405371, 0.044242793233665006
-0.026959686492385143, 0.05705369783517252, 0.0485882240840802
-0.031183286382897767, 0.06771254236178671, 0.04956259339298913
-0.02629871892983831, 0.034013449511427346, 0.04153599854592603
-0.02795645897901287, 0.06704405065092833, 0.051231338225312166
-0.026931320673980137, 0.04298835791597247, 0.0440639755060091
-0.027466983351803843, 0.08670261674343825, 0.04877397269446781
-0.027539324113806274, 0.08317489312539245, 0.04942384543034592
-0.028499740929265212, 0.0886705972294968, 0.04778470875411236
-0.02636964944533728, 0.09582359410595706, 0.047625353344389776
-0.025669944678090303, 0.09692295282529001, 0.047818309712003425
-0.023935173161969102, 0.09453248024847355, 0.049121958907727234
-0.022379038678656517, 0.09743846957467214, 0.04932772163064359
-0.02243156624457118, 0.09039574243014828, 0.05062769875353384
-0.022684858240545426, 0.09160501453972368, 0.050277615628554324
-0.023943896677601877, 0.08169647283012585, 0.051533369729715936
-0.02267644567773645, 0.045365018276913756, 0.04712226693681025
-0.023586886137745598, 0.050543324376563475, 0.04828549331036358
-0.021166711807688685, 0.021805385684327463, 0.04055675682597664
-0.023712189258084267, 0.05450264513242463, 0.04945097043966869
-0.025255820780022517, 0.05979950346761815, 0.05034466477083446
-0.023205960013723353, 0.06143363274194888, 0.05184212346257838
-0.022961116034079035, 0.0370299781523621, 0.044403479276529316
-0.024755080678467975, 0.06374939098602496, 0.051810007683729564
-0.024116323218031786, 0.06712325709661206, 0.0531637267838163
-0.024301820312558592, 0.06551920881024836, 0.052577286206814414
-0.02250568388108297, 0.04192720327947806, 0.046140270321006614
-0.021372487255431394, 0.11604444812200244, 0.03805562512262551
-0.01852961803887008, 0.12466760898602967, 0.034036322693250444
-0.024265687525439634, 0.10426038960525812, 0.04412744852578727
-0.023233688468674022, 0.10945163680613731, 0.041310965986547744
-0.026181954477770684, 0.08732276275859853, 0.049392100438711714
-0.026381819281219295, 0.07778672620699943, 0.05109004745844547
-0.02509954223713452, 0.08126759095742993, 0.05105514781559797
-0.025271501158548086, 0.07648579550058703, 0.051871878457212625
-0.02552650360840563, 0.08066062943322838, 0.05096287359042821
-0.025204689970010664, 0.08097845519820282, 0.05105870632062903
-0.02947752331660582, 0.07336048280181279, 0.05021741670532874
-0.02926787209128664, 0.08286908356288943, 0.04847432319853888
-0.029658037487309406, 0.08734083099444868, 0.04736912157579088
-0.028463178056023632, 0.07814258102914373, 0.04987160410170131
-0.029330127566447668, 0.09377231699361804, 0.0462988082323143
-0.02634097503040484, 0.10775924473706792, 0.040577100784076815
-0.02276281530771358, 0.12098281596106111, 0.03390513041752828
-0.022472199267854927, 0.12114318951285608, 0.03399589448664461
-0.02709793786595363, 0.10639488536393353, 0.04099619778665715
-0.02811573589725563, 0.02802953773846093, 0.03826017553189148
-0.031300851825874235, 0.05816681565499488, 0.04627725188598783
-0.03375190661958098, 0.06833087528333465, 0.048024894963215936
-0.03148370380850644, 0.061685257713630114, 0.047344479608659104
-0.02689386807458509, 0.017925919321742555, 0.03567940734961802
-0.032886817351727486, 0.06692097156764701, 0.04814713473376308
-0.03421838702315588, 0.06553329645360419, 0.04675139421760817
-0.030384188266679917, 0.05395105213818173, 0.04548295632621148
-0.03285024340382916, 0.05331287057495558, 0.04355373361132706
-0.03371125587630792, 0.06465656741379111, 0.046806008738336576
-0.03223904588429192, 0.05787948482620306, 0.04552817489234989
-0.031804463611727105, 0.09495247513744715, 0.04435482583994108
-0.03211759081803428, 0.0834112018036868, 0.0465179637919986
-0.03222310001691466, 0.09277801976982228, 0.044512620991104694
-0.032529267960832504, 0.096606555917863, 0.04351029774436485
-0.03179243244209492, 0.08091998333897114, 0.047257629716953645
-0.024378975917908996, 0.12387728964396996, 0.03068489637669107
-0.027319241537207873, 0.11784802456625791, 0.032709346019735915
-0.024692084354674536, 0.12491677047282534, 0.02966422367778497
-0.026292515344271107, 0.11837800154481273, 0.03316065262973435
-0.03294287021314798, 0.07607377388178184, 0.047458311149891574
-0.03490246158812323, 0.07385436863312381, 0.046555239805188504
-0.0328622511873502, 0.08705233399881787, 0.045249778669919555
-0.03327399519913936, 0.08956328585129629, 0.04444591039200279
-0.03392912199553381, 0.06999049459520298, 0.04802817882745575
-0.03335647497879862, 0.07247829831887777, 0.047912707723846835
-0.036285418397268426, 0.05711628299336896, 0.04211309046570899
-0.0373822940096062, 0.06894076440633878, 0.04547568981442052
-0.03532097952571908, 0.052636772043905274, 0.04128878799712718
-0.0355120895911028, 0.06032797275073846, 0.04390379469686515
-0.03588092398195769, 0.06371632352152116, 0.04482270731548969
-0.03080337858659919, 0.02927988449145005, 0.036572112147687914
-0.03102007902760094, 0.027559753534135718, 0.03577478041052701
-0.031089055527615875, 0.02959110173638, 0.03645028510059588
-0.03638156438381045, 0.06112232251079498, 0.04347792417099041
-0.036308254839054296, 0.06117299095328191, 0.04355622436931873
-0.037092710925951164, 0.06581139477384906, 0.04458519301811584
-0.03522162316961496, 0.07453936582600848, 0.046163545623355035
-0.03420615259032759, 0.08998261113207634, 0.04361328757978308
-0.03416226016252136, 0.08972399899957705, 0.04370587126768079
-0.03335129738466795, 0.09072944238827459, 0.044149892812770986
-0.03370297209139536, 0.09282198523973222, 0.04340360662868571
-0.03416489407857407, 0.10342657427973372, 0.037644047565199595
-0.030888613001495466, 0.11112849150484792, 0.03471679708369171
-0.029950807220802678, 0.11588212777467571, 0.03186987133528393
-0.030246786403540397, 0.11376616953494345, 0.033253627776467135
-0.03734493702287698, 0.08491488790957341, 0.04215231690244784
-0.037273568048646566, 0.0840602099287443, 0.04239793888259567
-0.038001980894665874, 0.0741560970256496, 0.0439702790893175
-0.03651991348484725, 0.07831455382617347, 0.04427346425960438
-0.037934744345909946, 0.07902964872441195, 0.042958073559598534
-0.03735955716244549, 0.07496055877377153, 0.04432027221963242
-0.0402959478002011, 0.05055922889752465, 0.03556081120400833
-0.04227856134303659, 0.05632559984073582, 0.03575248392299428
-0.044192769133476695, 0.06425247901463677, 0.03692605191763047
-0.04349350272860687, 0.06571266888528443, 0.03832227028004059
-0.03676989035067178, 0.03362624818668263, 0.032422332540938396
-0.04223196503535322, 0.06415117081421605, 0.039083316859892206
-0.04219647786847579, 0.05630493080438044, 0.03583590905983764
-0.04348579572635967, 0.06261894060649345, 0.037034784460598026
-0.039320539011636624, 0.04623712841519255, 0.03484429971909855
-0.04145893667379114, 0.05584267741907613, 0.036469649074606404
-0.03845019057542912, 0.04402284928212699, 0.03489300887974337
-0.04202633568090478, 0.079201950008461, 0.038875748274971866
-0.04174782352953585, 0.0847078968887675, 0.037786339904150305
-0.041080903528839224, 0.09400718037032813, 0.03616684665537811
-0.04212941645225754, 0.082850960025446, 0.037831050801909974
-0.03973475996980537, 0.092760958807732, 0.03799426542465587
-0.040969279310163254, 0.06783688758155561, 0.04184552281829097
-0.04022782830245604, 0.05999937287688635, 0.0395290746330476
-0.03497755126937205, 0.03944153742656338, 0.03662402137693199
-0.038714516158151906, 0.06541066794178775, 0.043071292269954695
-0.038741940603644914, 0.05205510223876579, 0.03788554227729536
-0.03327798084276609, 0.024404602495087618, 0.032445485330709664
-0.035950206773864964, 0.04476868919582799, 0.03774888102121361
-0.03911089407989886, 0.05841110459821605, 0.039987008008743566
-0.03189519894840435, 0.016872053716075218, 0.030862094830908664
-0.03795300797847781, 0.053844391378178695, 0.03933361280901243
-0.039953332295273945, 0.06375526656183272, 0.04124335969964092
-0.03866516228206632, 0.08123867826040207, 0.04174978941727908
-0.038064871082015256, 0.09358027883377136, 0.03942821307581828
-0.03844534879718588, 0.09165927901156631, 0.0395142006904856
-0.03817448993470321, 0.0835164212846747, 0.04168576315439469
-0.039056794052285126, 0.07365060231152548, 0.04315554747929833
-0.029725361755786314, 0.12221678690537643, 0.026961381358913503
-0.032392997993766735, 0.11453099999383581, 0.030538095020462327
-0.030355224191537314, 0.1212512874904003, 0.027080033147884593
-0.036396178547719864, 0.10445646284940567, 0.03465831419634634
-0.03950614700642723, 0.0810091303993675, 0.0409968960642621
-0.03922080540337037, 0.07978603333823286, 0.04155777963443621
-0.03943821576138645, 0.07801862502662685, 0.04176415080764992
-0.03969762535604485, 0.08948105191867901, 0.03882423705792185
-0.03915078748613118, 0.09362200774656364, 0.03837665084032797
-0.04626919838366593, 0.06447239542260585, 0.03434989587836802
-0.041339546107506626, 0.04554858853946863, 0.03211792854168312
-0.04041836282258804, 0.04040631051232249, 0.03096065199723678
-0.04680886030525024, 0.06297924392393751, 0.032951307046934594
-0.04223481673625908, 0.047448957010323825, 0.03181519737834605
-0.04381943717632309, 0.05703563073420996, 0.034147419135551416
-0.04175324438623269, 0.046263008775657935, 0.03190258079636666
-0.04383552162268632, 0.05394179174636524, 0.03270036718494821
-0.04485085558050177, 0.057505189076406366, 0.03300603132962648
-0.0447463743780358, 0.055168333989109385, 0.032066572450026504
-0.046735276823227756, 0.06910533625709141, 0.035871547223027725
-0.04384749462768303, 0.05141102414347411, 0.03151823407503784
-0.0456264611250789, 0.08729905986334519, 0.03229805247744453
-0.04448962756540134, 0.09182996991224496, 0.03252557996441282
-0.04661957921170061, 0.08008829585909316, 0.033010292139538794
-0.04417635282981737, 0.09013491317832552, 0.03341273504533733
-0.04372268359101865, 0.09421489550086959, 0.03286722749131539
-0.043660018937783596, 0.07163597894039936, 0.038969362576657215
-0.04292305334462365, 0.07144334500738377, 0.039845169557803886
-0.042622943072292314, 0.08317543099991173, 0.03719477876153284
-0.04243131955818593, 0.0739898981323963, 0.03974844904763747
-0.04221729342357342, 0.0835595646346485, 0.03755205174204084
-0.03909532920512579, 0.10443553645857778, 0.031595844998739776
-0.04222009691692762, 0.10103001589024853, 0.0306844614831961
-0.04058646726427676, 0.10168285496200205, 0.03222113916136984
-0.04322134383330515, 0.09860074168976833, 0.03165056336753521
-0.04207046491724172, 0.09840260246313194, 0.03335188628670319
-0.03835066639971018, 0.10567855493297859, 0.03140736241012913
-0.04062469206583429, 0.10641913912679118, 0.027636065475693222
-0.04064932414694147, 0.10569842798302587, 0.028356822807849427
-0.03312186701960694, 0.12337258465850243, 0.02147357638259494
-0.0324995748497648, 0.12504710419576626, 0.020679754750287396
-0.043985345761231594, 0.08576582479299541, 0.034887876342269586
-0.043465028410215045, 0.08595942324167993, 0.03551860553173963
-0.045426641511938655, 0.07883888157465413, 0.034930631625335364
-0.044851941713702076, 0.07940771210716589, 0.03552785572663288
-0.045305204942780355, 0.07165552179163631, 0.03710240392261519
-0.04505162228704521, 0.09693413412128732, 0.030219998561150915
-0.04651679909705028, 0.08567293364778927, 0.0314694542075384
-0.04666109189738539, 0.09019350583647844, 0.02982615608841504
-0.04715067688391639, 0.08299105374678475, 0.0313228555034334
-0.045735857238257016, 0.09545160412082437, 0.029618595539138537
-0.037668656442508615, 0.11690369383974657, 0.02106479257443461
-0.04411879317756635, 0.10377103470895835, 0.024841685336924164
-0.03983562763719238, 0.11215241014354742, 0.0227421516873276
-0.04476980074833239, 0.10244425706469172, 0.02522445918498266
-0.04633634279413885, 0.09891883371215736, 0.026546178355805226
-0.03480392413177865, 0.12212388151036863, 0.020124783007653604
-0.03962371206028717, 0.11591394660030702, 0.018490678239654546
-0.04574129256065785, 0.1036745563907756, 0.02187271498635013
-0.03568648375975883, 0.12325308250093303, 0.017074930933110397
-0.044429964856678536, 0.10621007835304108, 0.02127226910383565
-0.05049668478171485, 0.0677677355308007, 0.02970338470385594
-0.040358869784034225, 0.02955912661743671, 0.0257789998623673
-0.03896028331722186, 0.020664984064384433, 0.02336710111352591
-0.03857032678361385, 0.018935001252923023, 0.02308177439218511
-0.037132638702367375, 0.018080593372145674, 0.024881639924073863
-0.04432965541758218, 0.042309290649170266, 0.02617231803375716
-0.041290606383289886, 0.0320085726234497, 0.025591280796490017
-0.04358919054831406, 0.04219225763461247, 0.027266089494573344
-0.04953968508455888, 0.07284216733843993, 0.0307832824804224
-0.048268190388673894, 0.08269907684286973, 0.029672528091334208
-0.049528537691654495, 0.07236040180971062, 0.030951817615464696
-0.04962444774574784, 0.07094413720394149, 0.031246684839980887
-0.04721094384200264, 0.09307213599618726, 0.028065864845645844
-0.04864750011088521, 0.07012723403184115, 0.033025823763576344
-0.04990635774370039, 0.08927038287801546, 0.024444464822574865
-0.050930015277418285, 0.07897203334682676, 0.026227945812420488
-0.04828810562840177, 0.09525952926027124, 0.025315899514077193
-0.04800094082189284, 0.09631283564164983, 0.025473942286947406
-0.04991667654629038, 0.08884371415167217, 0.02457823521989695
-0.05084539695584375, 0.09147819935042904, 0.021403855888881544
-0.051527981740738645, 0.0843980380774545, 0.022832486573850258
-0.05155013416532344, 0.0848888564384189, 0.0225752959334154
-0.050300010089271686, 0.08824210120280626, 0.02400867075695357
-0.05182291561270342, 0.07790392641809134, 0.024896740393704517
-0.041602115698414426, 0.02779917403204256, 0.022714172502957427
-0.04097303827071337, 0.025022804251614912, 0.022249465357912227
-0.04473905567316469, 0.03624266639851971, 0.021844046721208203
-0.03937850028154827, 0.01877535210145575, 0.02153770527672715
-0.047956128551867545, 0.04939336750963295, 0.02360234489770686
-0.04622001864825168, 0.04341426641843257, 0.023313101034838003
-0.05015054586848833, 0.05845373575375134, 0.024854858645125488
-0.05046835715781977, 0.05926217753421876, 0.024738973245132304
-0.048890758022797035, 0.0842592035947249, 0.028136664846525973
-0.050031466239640054, 0.08249974999693656, 0.026639302434632504
-0.05141542781254913, 0.07513531692698981, 0.026698259721909822
-0.051997672073378194, 0.07292970212756962, 0.026402915028112588
-0.05174110127833044, 0.07213276545232873, 0.02716745171147702
-0.04844222635864085, 0.04739806989791751, 0.021158498042976877
-0.05282399704445068, 0.06244314228213506, 0.0216120587700438
-0.053795546797849876, 0.06569921598920209, 0.021657308593869766
-0.05212744022456971, 0.06390660731329963, 0.024212255038232877
-0.04894572209058682, 0.04930021911611228, 0.021330789233380817
-0.05164207221241055, 0.062085366168112804, 0.024054778763689104
-0.053075587048303695, 0.06732509113864059, 0.02442336227984044
-0.05087556004100438, 0.05701710038493094, 0.02228657552796738
-0.04939793278024119, 0.049515616580899785, 0.02045061341278174
-0.04859763895701924, 0.048377693905300834, 0.0214837464914991
-0.052874157401010445, 0.06460228798425866, 0.02299453964665574
-0.04611476718922472, 0.0370308719765646, 0.019270777103183867
-0.04374804302346863, 0.022030756438839394, 0.013611866783124581
-0.04783117879218915, 0.03805639518116294, 0.015471264045689508
-0.04990781455188173, 0.04562129551114581, 0.01592107792897531
-0.05551928675110275, 0.0688123399843749, 0.01946463000987199
-0.053964713819585924, 0.06361672989967548, 0.019523771438777485
-0.05418174518275803, 0.06286227567615116, 0.018262399952686782
-0.05362887115576993, 0.05918355757738267, 0.016732979804985934
-0.050058626705960514, 0.048613973482066204, 0.01802274947239407
-0.04634682479054701, 0.03342086673457033, 0.01580328612362241
-0.0536855053959444, 0.060866945604162864, 0.017996052307919386
-0.050722731320586245, 0.051674820494260705, 0.018709917011706784
-0.0520247067827386, 0.0822314691200843, 0.022614347129224454
-0.05245796919613621, 0.08354874586191334, 0.0210730783681338
-0.05362700757554406, 0.07317586736956563, 0.02278134832101845
-0.052660183471693975, 0.07335013467341736, 0.0249089826096024
-0.05282096098653188, 0.08223419157110903, 0.020800469152108564
-0.05132072055271965, 0.09520936873530866, 0.018436308265340057
-0.0524622321860034, 0.08857180738644481, 0.01857805903040785
-0.0514486283919144, 0.0972264480802543, 0.01703144061729933
-0.053098159888145084, 0.08652495450844606, 0.017807464941813355
-0.05433250514967243, 0.08118784780539129, 0.01701372839787861
-0.04791455316814408, 0.10306867773882794, 0.017550474260658595
-0.046836891879640546, 0.10599806092149698, 0.015580548582516491
-0.044135791450479606, 0.11004524173527629, 0.01633568750212136
-0.046062495937940484, 0.1067116155924335, 0.016568853614112797
-0.04969003184657602, 0.09931135166126469, 0.018949342797054944
-0.048460000489852384, 0.10198228310426755, 0.017862922035160288
-0.039226356163825506, 0.12191986537018419, 0.009287626893204254
-0.040135644731825584, 0.12001366050785454, 0.010094864130551107
-0.03835381998843741, 0.12304986084142155, 0.010082086728257349
-0.039962440557579366, 0.12050001073804088, 0.009664499283771678
-0.05341836462846925, 0.09106058243159557, 0.014038571521646484
-0.05332225267489926, 0.09390817780597066, 0.012501861237560618
-0.05340613092931329, 0.09205202455613229, 0.01342250871755891
-0.054728039374511366, 0.08157536031494025, 0.015380419942601455
-0.053051734334992925, 0.09296042773512947, 0.014167934132283393
-0.05272211300292379, 0.083835893532753, 0.020269834568155454
-0.056074378315808825, 0.07009188383931139, 0.01772790218716723
-0.05318748286633794, 0.08289363648780475, 0.019419987978839294
-0.055597130116536705, 0.0718143969973571, 0.01821029011113534
-0.05414106096640517, 0.07773292022899506, 0.019340756414560217
-0.0523293438658233, 0.09972085791227982, 0.008028969807701415
-0.052815132182254504, 0.09778928966756804, 0.011536356368264226
-0.04923834208313757, 0.10445960507060179, 0.009990932295093827
-0.04138843228756669, 0.11834203085737152, 0.009032350130054219
-0.045907826793257236, 0.11075501022448482, 0.008280674896873425
-0.04919966126437976, 0.10510179918218952, 0.008141424754186909
-0.040168740285729525, 0.12162831048142517, 0.004974651733333105
-0.04697481837900701, 0.10955523270158048, 0.005922223993421827
-0.04296618054547799, 0.11659872308873429, 0.005748613906965126
-0.04535599746933372, 0.11240706992040835, 0.005809596807807093
-0.048008260606310416, 0.03571843963092178, 0.012490449371549256
-0.046364979962626944, 0.02930438905758659, 0.011707270369316507
-0.04473630324916328, 0.02238371227886105, 0.01031109493985643
-0.05426444297556689, 0.05726248819149766, 0.012309708720879772
-0.044801652406940826, 0.022553798826720775, 0.010248762601158801
-0.046997480459047565, 0.03193960955835103, 0.01219179668090313
-0.051559468030893923, 0.04803544277524178, 0.012484559963248435
-0.04667257500717523, 0.029830301694323047, 0.011111748772183773
-0.0540611493672844, 0.09210629977901366, 0.010431368720310339
-0.05446295609460716, 0.0907707284665948, 0.009474885000947161
-0.053833352586617714, 0.09368393157618882, 0.010187867541781716
-0.053526020234768136, 0.09636962726506995, 0.009325678697791238
-0.056155779210013704, 0.08260430642807587, 0.007877426010179104
-0.056307140712331276, 0.07212120550578513, 0.015673147402545672
-0.05558604177628046, 0.07725687494925082, 0.014992380776727716
-0.053776989631888227, 0.09123912005137269, 0.012550412651356818
-0.054978636757138946, 0.08118895869765448, 0.014682233041207944
-0.05670982922882756, 0.07351440416414877, 0.013204837758747954
-0.055995481450866566, 0.07616673260204988, 0.014158357052023996
-0.04838477453794564, 0.03301752636828907, 0.006956987898521119
-0.04300960999991074, 0.01464698567137113, 0.007913043403988634
-0.04394178689348667, 0.017084632368081176, 0.006568118520084941
-0.04689620241685528, 0.028165279054940914, 0.007592405064699479
-0.04624231579151154, 0.02547822289259766, 0.006995953964982455
-0.043627806743860235, 0.01662290902450002, 0.007587396579735618
-0.044524655594934175, 0.01980410789849593, 0.007610784090125661
-0.04775507915697295, 0.03198118774428562, 0.00882729228555626
-0.051049401458470395, 0.04183243912483414, 0.005162688395022477
-0.05089169550659089, 0.04058746795996503, 0.0032527442923066738
-0.052938440668401726, 0.04819056405803057, 0.004086280219644928
-0.05380960419745305, 0.051702304482353814, 0.005212817802498495
-0.05605132226841683, 0.05966447033548222, 0.005103118503069716
-0.05485766206038526, 0.05573064163895591, 0.006017918725546009
-0.056201309846511435, 0.06055953524597195, 0.006110396489089966
-0.05237851579367968, 0.046395319425400004, 0.004655532450381855
-0.05177364406897236, 0.04390953663670805, 0.0037403684378652722
-0.055102044264688316, 0.056210905426966634, 0.004920218424393093
-0.05746765833152495, 0.06491365046880923, 0.005645984071588221
-0.054234719471045925, 0.09636842237961223, 0.0036813920707037557
-0.0552567794574108, 0.08829010346379679, 0.007213183127568816
-0.05576448457168397, 0.0857467769933282, 0.006466936257436634
-0.05619230156240348, 0.08345573774377636, 0.006089800213377678
-0.05398967052807381, 0.09670718401292835, 0.005553995153908022
-0.05510976821967013, 0.08598246377142417, 0.010461926896318807
-0.05714712752830751, 0.07232427024991243, 0.012207016586938034
-0.05492216044129668, 0.08654649402294123, 0.010965554380847422
-0.056302452205403655, 0.07935635180278701, 0.010171963981061146
-0.057761383752902185, 0.07227275188724874, 0.008838809337574739
-0.057564014378537934, 0.07229546637628428, 0.009915162595425327
-0.05853640874870591, 0.06789483974637871, 0.0025108737314584392
-0.058232463555295606, 0.06679987821829315, 0.002446149526398818
-0.05786437529483085, 0.06551011324366149, 0.002842216959155691
-0.051364530493643944, 0.04200630808064039, 0.00030523183169270737
-0.05628321637025065, 0.05961337986575064, -0.0001186042352390649
-0.058563581031345104, 0.06804130227655059, 0.0031520360929390085
-0.049891375549584616, 0.03666411563899111, -0.0004683382840836271
-0.05276768574261871, 0.04703465358198597, 0.0002571813588191292
-0.05626571748243704, 0.059674921671186765, 0.0015072516964364708
-0.05270167131462527, 0.04675065741126985, -0.00036092389882708093
-0.047417884092458035, 0.027789622580416427, -0.0005208744292802229
-0.05635294542908883, 0.08446534277932642, 0.00044520839973211665
-0.05534975039774577, 0.09023332057216957, 0.001653115002849656
-0.056941184692211266, 0.08102950973251288, 0.00016359021161665158
-0.05442665333773632, 0.09594025531023015, -0.00041014128058371613
-0.055139087506014914, 0.091457599564753, 0.001803057703462718
-0.05659343981577934, 0.08183087116090107, 0.004845615035397861
-0.057066747176565735, 0.07937642755167625, 0.004291817355740491
-0.058218097089263766, 0.07304677955515886, 0.0035557054761055002
-0.05492683410474193, 0.09244973653881222, 0.0034324400981264568
-0.057726151140806814, 0.07575562355574342, 0.003862864924617604
-0.04662482282605272, 0.11076487462342594, -0.0016839853230747554
-0.03867703996672289, 0.12456581496080203, -0.0031509548004744234
-0.047139312734572496, 0.10988694833843562, -0.0014371433360617072
-0.03894669112572843, 0.12413427199809304, -0.002740720967474178
-0.05269032457237791, 0.10014408311169226, 0.0003059700247274042
-0.053420090599180035, 0.09886366844525077, 0.00024301966992738952
-0.04189148310767979, 0.11904354038492686, 0.0025098190160464154
-0.04908896569577001, 0.10643492877314796, 0.0013617289609236202
-0.046612575914955066, 0.1108064953686249, 0.0008657774724324743
-0.047615822967082014, 0.10896845402580634, 0.0028539549809306346
-0.057946434545529675, 0.07489001433772721, 0.001811511716567895
-0.05786068589687278, 0.07549982762244015, 0.0009867261308759128
-0.05849594193889672, 0.07191464031965226, -0.0003127858239272948
-0.0583797901800848, 0.07226314334150036, 0.0023644060683414045
-0.056654991621998316, 0.08243238592251265, 0.002436107700106273
-0.0566806181598391, 0.08245911076190238, -0.0017958475729514586
-0.05475760920054587, 0.09355944947058045, -0.002472216170326179
-0.056114852561551395, 0.08588703802932543, -0.0015204045329924162
-0.05416150948800488, 0.09644826448536696, -0.004297638596774479
-0.05493841229251885, 0.0924504657607226, -0.0025997859166767548
-0.041940481594349606, 0.01868090947948932, -0.015915126688474054
-0.042940880778465744, 0.02430908442435408, -0.01766755989320004
-0.04696883239758344, 0.03921018756775487, -0.018772815818052322
-0.04348809957857252, 0.02395866832667723, -0.01599659444798325
-0.05131457712522557, 0.05821218218316581, -0.02220848923177243
-0.04486993792015435, 0.032534513702219804, -0.01903200603017216
-0.04470519692778099, 0.029628628247567443, -0.017225780894706874
-0.041376211324525826, 0.015964118426011573, -0.015277702959917698
-0.04658810250052248, 0.03903307244647185, -0.019612616502146435
-0.05342879555930308, 0.07712924907389422, -0.021508914418822123
-0.054539702249183065, 0.0744810432808291, -0.019896403475040746
-0.05061996773359878, 0.09225022527097371, -0.021659714421888868
-0.05163704996853881, 0.08530882696983072, -0.022288317761479638
-0.05467075188437903, 0.06951719929635, -0.02187382864057272
-0.05076736190921098, 0.07859450101793511, -0.0267346936951151
-0.04969000309444213, 0.09059728488851218, -0.02429188936002904
-0.048946445566634786, 0.0906153189316306, -0.025822227252743128
-0.05095833674773288, 0.08045983721974834, -0.02561403303806296
-0.04945724952865182, 0.09386220929458006, -0.02350273198198353
-0.0505147365993778, 0.0989883783178264, -0.017244292890007392
-0.04866744640774505, 0.10400240008780501, -0.013492046939786203
-0.050917894600661845, 0.09870954830732133, -0.016456519829127863
-0.03845303578358919, 0.12295009581353378, -0.010037429441800921
-0.04383246709034583, 0.11319570093849746, -0.011414609959900106
-0.04021827165483531, 0.11943916591966364, -0.011100276508016042
-0.0391970269637589, 0.11927020657956028, -0.014555306144089755
-0.04541315224931187, 0.10784239692042566, -0.016505452560513514
-0.041216900496671316, 0.11526465492817295, -0.01564610153294521
-0.04554351989143971, 0.10798635611523037, -0.015946185648771417
-0.05293762466276809, 0.09339779317118886, -0.014384125074536801
-0.05481126775795421, 0.07812784301176964, -0.017131743894463026
-0.05642949069654685, 0.06994656598169996, -0.016566244029730455
-0.05421711454804552, 0.08404583311514088, -0.015629119651639364
-0.053305153126760055, 0.09145473183296807, -0.014305540505895477
-0.052032260107308284, 0.08783630528845751, -0.020097777025125264
-0.05363349163658442, 0.07948402458272312, -0.01988703331942034
-0.05367756772097687, 0.07969257180050132, -0.01967690569799526
-0.05387726843497531, 0.07873488349042095, -0.01961148521261477
-0.052478287056152734, 0.08699984685324777, -0.019344669900938985
-0.046178761467722464, 0.03186022214391587, -0.014957958235300791
-0.04938030442440813, 0.04465147978470245, -0.016692504395189562
-0.050508258702313236, 0.04825398713307484, -0.016430574230846436
-0.04881372448071582, 0.04207290003024034, -0.016081444648068877
-0.052493798423445814, 0.05376468809093664, -0.015167203317090941
-0.05275661825464612, 0.055834501210975676, -0.016294366497444354
-0.0532809847216718, 0.059418949367449896, -0.018016784777196808
-0.053771220913185806, 0.06101514940927022, -0.01793236171629214
-0.05320580211953964, 0.05782925278912733, -0.01673097046073478
-0.046213533226176204, 0.03181544374204264, -0.014799396217594742
-0.044869598802667526, 0.027126735297557585, -0.01472868574449648
-0.053234306436118844, 0.08695165654039841, -0.01718331631558856
-0.05354564404349824, 0.08521998409863804, -0.017167028505377012
-0.0523741392188535, 0.09638426423186996, -0.014500262450171102
-0.05338152124056193, 0.08705085599392687, -0.01663684134954683
-0.052149198759786075, 0.09229019065899148, -0.01764907563335737
-0.057404389567844806, 0.06980222305180572, -0.012889852851918508
-0.05740006545970106, 0.07216107573111048, -0.011031749332595427
-0.05508055073641337, 0.0836075886159729, -0.01256909741453719
-0.05650041567875155, 0.07379192358226053, -0.013864210891974246
-0.056687153490878946, 0.07321636430713625, -0.013465006754117957
-0.05682657671569667, 0.07226916110208212, -0.013578929887790251
-0.05062104940056829, 0.1029531462272032, -0.006876915765300409
-0.046977010962554036, 0.109514385466576, -0.005982909970564508
-0.040085052917276015, 0.12196477390584302, -0.004119921544536821
-0.04659753974633825, 0.11005941794651261, -0.0064682524241353595
-0.050653867467492494, 0.10281174208049626, -0.007229441978501291
-0.0503620980354761, 0.1035910085881473, -0.006095217064324605
-0.040291161403907996, 0.12044204025240524, -0.008321364624966117
-0.039957010021567846, 0.1210854533608131, -0.008135996484501059
-0.04743799558478542, 0.10781299374355299, -0.009259668773805277
-0.043603965029131664, 0.014110878441958175, -0.0008943286564106074
-0.04481271964169848, 0.01896601317945387, -0.0034303738055927427
-0.0529963095019706, 0.04842304788607947, -0.004159982635812672
-0.05577867370112439, 0.05861416688555946, -0.005255354170952859
-0.044730936358607705, 0.018518348569056004, -0.0026848417881448236
-0.04519800779329351, 0.02011461384841191, -0.002317253666773767
-0.04685570171787698, 0.026293268532996048, -0.003484842671490503
-0.04860962128052166, 0.03244391787776096, -0.0028579707359963694
-0.05442021470978374, 0.05361153202814042, -0.004590841334456898
-0.05654142951479847, 0.08209652397715222, -0.005257370132710593
-0.05831039047673067, 0.07184163506276818, -0.00476332310027728
-0.05707665128857081, 0.07929551438485884, -0.004224800708306126
-0.05477714869741466, 0.09256243325314689, -0.005053117822232617
-0.05773554997079211, 0.07606487289670243, -0.0023167436894955557
-0.055245354170242136, 0.08644292915796306, -0.009422299523525645
-0.05734696472277078, 0.07357597348726795, -0.010141842101067644
-0.0549535353565053, 0.08814483404060652, -0.009428013792321738
-0.05733058240281665, 0.07389121905289497, -0.009868290404071993
-0.053981339338452825, 0.09547546370497102, -0.007376861437453459
-0.05724821380008588, 0.06804198529265933, -0.012591005221062304
-0.051672204683076206, 0.048960606336913064, -0.0131965770473052
-0.05729517767615844, 0.06844727504256373, -0.012906312135922311
-0.05770030815400882, 0.06915440524228976, -0.011972469331808292
-0.05299263581922288, 0.05347798309286966, -0.01305159698848371
-0.05617877030816463, 0.06555176195352892, -0.014239204032513754
-0.04960418052983796, 0.03985142536867698, -0.010758762994624528
-0.052674699313832354, 0.0518609964593519, -0.012393121429750907
-0.05372107141014926, 0.056261382202412086, -0.013353260197466419
-0.05593380904928619, 0.06308084269878286, -0.012126960292144407
-0.05424078149299125, 0.05825194012145478, -0.013574658421139474
-0.05563065622559204, 0.08663720521158315, -0.006371378013949167
-0.05625432930821852, 0.08318755694908671, -0.006125192425119723
-0.054150852840341976, 0.09617076500712118, -0.005274430406379873
-0.05542758915181175, 0.08780695705680086, -0.006393503626156639
-0.05758110704259936, 0.07381353053322096, -0.008138826970348545
-0.056927384578634256, 0.07707122113168595, -0.008843373949738062
-0.053658687150507076, 0.09386624414123494, -0.010930398141247542
-0.05389080729705931, 0.09372852474000182, -0.009974202922724983
-0.056245836969452984, 0.07944436228921394, -0.010533011375574866
-0.056234517046815716, 0.07901282765541995, -0.01092856316808495
-0.05387115427145768, 0.09181574045387593, -0.011587339333163573
-0.050171803343997595, 0.039535582458410636, -0.007086938274409509
-0.04484658277143705, 0.020690998507918258, -0.007251756561218788
-0.05408655737182615, 0.054582766978670004, -0.009414818788851856
-0.044279261911787604, 0.01821176098983137, -0.0063018339250485176
-0.05189770690456649, 0.04610220474943912, -0.007975276436567027
-0.04482942861465512, 0.02045622579183971, -0.006895214582506238
-0.0443273573294362, 0.018110599990370884, -0.005743698657494125
-0.04425352070184191, 0.01815435764785522, -0.006371736340619119
-0.018308647648934105, 0.17144390206875953, -0.011353074662225234
-0.019697777109490205, 0.17144390451188118, -0.008406396009619949
-0.013969095334106882, 0.17144397473082507, -0.01084152911143759
-0.008222395241151825, 0.17144389638923355, -0.020239077848968983
-0.0017147606777603449, 0.17144398558348145, -0.01701372456581192
-0.004693326382384466, 0.17144394149305342, -0.01886842685455256
0.0015817500118698992, 0.17144398627525112, -0.017000502078644612
0.01039789773854914, 0.17144393042945183, -0.017121842143148287
0.014641828702589406, 0.17144394803858012, -0.012269001979085481
0.011422766062906717, 0.17144395614942803, -0.014768660295696994
0.017823091722192142, 0.17144393555282067, -0.00854985624849774
0.019943869424328402, 0.17144351799298968, -0.002488603561672166
0.020932330227342835, 0.17144381731988556, -0.0061571151219069935
0.020395937695832773, 0.1714438452411029, 0.0011684061395623897
0.018788020863975432, 0.17144455369765987, 0.009827949929075028
0.013551502611474572, 0.1714449317288293, 0.016648488402413255
0.014026828792942446, 0.1714445312634806, 0.01247272313397048
0.008102355724254615, 0.1714453209281394, 0.018231719014955867
0.0010623690622659676, 0.17144465533471992, 0.02151805917559646
0.003701026466767744, 0.17144539164743883, 0.017376645911535534
-0.0014298740667307791, 0.17144246292758103, 0.021555041918166026
-0.008733967016678156, 0.1714439815709845, 0.01494869254791354
-0.013514700814813313, 0.1714439565779432, 0.012852078105875513
-0.012502143330176716, 0.17144394167100327, 0.014878459814103453
-0.018069496931860662, 0.17144391053292443, 0.010884196580182772
-0.018850727850874154, 0.17144395135071713, 0.0016159990523865013
-0.020151739878464275, 0.17144392156803306, -0.003804543702368309
-0.019315491712601572, 0.1714439434377636, -0.0009583582239560707
-0.01880326028501189, 0.17144394848002037, -0.0032498512788411114
-0.020729499016991733, 0.17144390865083872, 0.004426713732148835
-0.020185541871272458, 0.17144392735812514, 0.0005454598977484074
-0.020267336112032297, 0.17144390713234958, 0.00646714441839954
-0.012875828737038315, 0.1714439678278158, 0.012650887951628963
-0.007679860057546677, 0.17144395783165706, 0.01691768622536715
-0.01098767440509875, 0.17144394894395257, 0.015557762006240285
-0.0048457762179970835, 0.17144364276185892, 0.01760286176441332
0.003589082605074276, 0.17144584322793785, 0.019760421043752138
0.009049121014400405, 0.17144538563638598, 0.018907537844564823
0.006352580193175197, 0.1714449610536474, 0.01936244136504254
0.012309040644711092, 0.17144461156830196, 0.012030978551526123
0.01935819560031835, 0.1714443789798167, 0.008317913866682217
0.01638466398502743, 0.1714444847706473, 0.010605643202420922
0.01999128802262483, 0.17144452226156975, 0.005348998385709125
0.02120007763293661, 0.17144367236326924, -0.00462651278865824
0.015248755547945208, 0.17144398689297552, -0.007600937225207105
0.020292377537374326, 0.17144386501141487, -0.00673111735308416
0.01423979527039192, 0.17144390621759215, -0.015875871844837165
0.007621798089021697, 0.17144399861183804, -0.014540261327656914
0.010476710615942984, 0.1714439513397399, -0.015757796649662228
0.005575864034108905, 0.17144396914902194, -0.017091067978782883
-0.002706064942621453, 0.17144397323511534, -0.017553868469773692
-0.008946644260316022, 0.17144395809952337, -0.016262085768642614
-0.006076071221471673, 0.1714439413428031, -0.01847964078608988
-0.010746151088127438, 0.17144397611453954, -0.013942866617790461
-0.01939924018335356, 0.17144389647022984, -0.01003417577528118
-0.01742437207771799, 0.17144391332477918, -0.011616786425528693
-0.015017516626914494, 0.17314544294101322, 0.007038870561896738
-0.013263420808084916, 0.17180717191584355, 0.009126424908052606
-0.004728155486123015, 0.17184823017864867, 0.015343773056291903
0.0059274764404303746, 0.17156268710884442, 0.015315569316029166
0.007925525759756366, 0.17250738769246332, 0.01432188342230373
0.015161484154290599, 0.17196535389691525, 0.0053580788265542205
0.014880112865806764, 0.1715143992228773, -0.006750237162404988
0.013358968147108349, 0.1716228667213977, -0.009265680859316873
0.004182880122886294, 0.17240677571806556, -0.015699161409469514
-0.0035342083794503857, 0.1731539295904818, -0.016214662182586406
-0.015253310984049745, 0.1716329713001828, -0.005579925085406163
-0.002800827395921891, 0.03549027430150594, 0.0593418667883046
-0.002438558132014145, 0.032404402557550685, 0.05813580439615154
-0.04610189594288838, 0.07871508670022112, -0.045805637550030996
-0.04733692160928585, 0.07545852860005958, -0.04489491630960128
-0.05224789132336857, 0.06852445737750883, -0.039540452544656005
-0.0506250842710595, 0.07332445489022009, -0.041277780976677364
-0.05065698347117107, 0.08063391225455002, -0.040459607681506256
-0.05140461125071556, 0.07993491219345057, -0.039635087195037125
-0.05161356116612986, 0.09556058246907433, -0.03498711772077366
-0.05165436716724593, 0.09051028008663009, -0.03679176671845598
-0.04875624286666812, 0.08861939121314219, -0.041178023140764186
-0.047791182551254655, 0.09098060307856577, -0.041572042109924004
-0.04831294403403713, 0.09240389291076032, -0.04046219897057872
-0.04914596907822915, 0.07632335179765062, -0.042849337326645275
-0.04959486153913405, 0.07656741320810709, -0.04227038994846809
-0.05294335463901287, 0.08286897067977701, -0.037099598131851735
-0.05223845740635546, 0.07738655093714875, -0.03888418167943825
-0.05433651805981089, 0.09384512501845775, -0.031308526201953374
-0.053234615721279605, 0.0947797854164465, -0.03280518144254413
-0.053901074195260225, 0.08091407959841043, -0.035995006715168636
-0.05458144650917994, 0.0760209508646481, -0.03570222762940916
-0.05310732759061586, 0.07548212040008861, -0.03790044043772619
-0.05529775298277603, 0.08319467010528475, -0.03345007313940393
-0.05538621647407617, 0.08181997027465769, -0.03351686890637112
-0.05513880346355713, 0.07135323939441934, -0.03522905045943486
-0.056511377216766995, 0.0716536358433231, -0.03286440675693462
-0.05654391646436276, 0.07078117443333597, -0.03286444280298605
-0.059026661216476796, 0.0717700377256953, -0.028091308679794803
-0.0588528985451842, 0.08334083526002521, -0.026703749413735125
-0.058738245150951565, 0.08195173500249177, -0.02719627783327069
-0.058296183945561186, 0.08569743597605503, -0.02742142623865972
-0.05574814343710188, 0.07580541525268086, -0.03385212371602038
-0.05592357457699218, 0.0790900583552599, -0.03303022954653581
-0.056629007082206514, 0.0900630193505742, -0.028770052440400255
-0.05667760851640002, 0.0964294582942705, -0.025592143514793577
-0.05807700481391849, 0.07682848442278042, -0.029505698513814592
-0.059782105173603654, 0.07547067253113221, -0.02622989306974512
-0.06048810306630065, 0.07342983671299118, -0.024667016989803794
-0.06117255800903796, 0.07466310306395464, -0.022803773993677758
-0.05922102512566691, 0.0853515436704696, -0.025526027175509086
-0.06145768576552438, 0.07885062736516832, -0.02122649371420291
-0.060445461094194644, 0.08854462312002674, -0.020628122158356486
-0.0605557655809912, 0.0890704101610594, -0.0198789617490639
-0.058542285488252487, 0.09142893715111125, -0.023885049353633107
-0.058880816515328616, 0.0900681949617303, -0.02380534583885436
-0.05902870391921878, 0.0880950098067978, -0.02456872944199289
-0.06139938727335021, 0.08326255497543208, -0.02019778363696944
-0.06120108161586689, 0.08328701161424475, -0.020848679061954357
-0.06151001547849556, 0.075772063216041, -0.021770499164859528
-0.060231041301101, 0.07876311585544374, -0.02438905217433965
-0.06237744046826145, 0.07971287664625906, -0.017938699126760133
-0.06234931874449992, 0.08229195870307031, -0.017316572565691097
-0.06322897862123866, 0.08031751828237443, -0.01442536575870729
-0.06310172087308827, 0.08116193992512025, -0.014691929745907266
-0.0625150185860743, 0.08472398143975218, -0.01604544641786377
-0.06268555158616479, 0.06794014981702612, -0.0189727166584523
-0.06375441542907266, 0.07014641925733738, -0.014695120576479178
-0.06396671749392911, 0.06916755060422405, -0.01386856191584849
-0.06474917021208287, 0.0732509041810251, -0.008629756093494638
-0.064553135539648, 0.07853485999352224, -0.007645249594132977
-0.0643572822860963, 0.08203717423406082, -0.007009438805656437
-0.06396145947445382, 0.08468618122606036, -0.008334190324498326
-0.06122511941286387, 0.09302236188214215, -0.014381468417180094
-0.06237050246317788, 0.08885721001234104, -0.013241756648368852
-0.06189809753909821, 0.09351995705882529, -0.010703632424371995
-0.06225858953961564, 0.09335756867923216, -0.008327106952880466
-0.06347691203236154, 0.07783278315689793, -0.01422193395828532
-0.06348803691325357, 0.08492121467981517, -0.011503570363040805
-0.06549423246271481, 0.06916120309136527, -0.0012093773650124692
-0.06516378949258333, 0.07486394953002938, -0.0037339748653307677
-0.06421581407175053, 0.0769818271973705, -0.011019420639296893
-0.0645149378795647, 0.07672763394480087, -0.008988555425923913
-0.0644854724183986, 0.0848527354246491, -0.0019238279137537518
-0.0645005812893852, 0.08429840043586055, -0.002430209619564915
-0.06379472007926887, 0.08789094565006089, -0.004782288780086137
-0.06422126321179339, 0.08653149020690211, -0.0023682891309376487
-0.06340293209164578, 0.08947581172290689, -0.005776985273847409
-0.062212902650085965, 0.09613582568206039, 0.0014311907769813384
-0.06292003588506986, 0.09277222221034465, 0.0014763896716220568
-0.06506132449700174, 0.07667984132818675, -0.0032985503489632645
-0.06451270332634602, 0.08177313919242261, -0.005715308286392741
-0.06445107731841992, 0.08518307734581423, 0.0012128902858482438
-0.06454575171470082, 0.08448596294465693, -0.0006104377584382087
-0.0628436071037571, 0.09258114050390481, 0.00446650298467601
-0.0639482568106538, 0.0874191805096634, 0.004338459174374343
-0.062148841296610864, 0.09451323271279974, 0.00732586871329596
-0.06487167712572131, 0.07933915897361618, 0.003440429749213287
-0.06521480207019885, 0.07581383131211315, 0.0005876177057312435
-0.0647208054535838, 0.08023213623170913, 0.0046010774244249234
-0.0647160294074918, 0.07953235280571228, 0.005211615772143971
-0.06544964522753033, 0.06936904728641409, 0.0006087215608533402
-0.06526219612124351, 0.07354626060327817, 0.003086798620202223
-0.06509206162229661, 0.06823892096589196, 0.0071728261276910125
-0.06435934683196888, 0.07480066911188102, 0.010893099745209
-0.06424838586089412, 0.07126391783679775, 0.012154736254428799
-0.06368535951455773, 0.08099392136729401, 0.01195801318534628
-0.06350244630703994, 0.08569687976857138, 0.010846879625742593
-0.06405611996254411, 0.0837766124424307, 0.008393476587950975
-0.06405625013919282, 0.08366045606302054, 0.008485603017915485
-0.061984563420699704, 0.09236603680523119, 0.01138681484039927
