0.3409999907016754, -0.12969380663830202, 0.017181339452300406
0.3409999907016754, 0.034506907043579324, 0.006072648120798257
0.3409999907016754, -0.12135092196362583, 0.012245894967166498
0.3409999907016754, -0.004647682309109981, 0.012993769986385437
0.3409999907016754, -0.15512253423789166, 0.007414159671127868
0.3409999907016754, -0.165660556666889, 0.008099106592744706
0.34279746714911064, -0.0615060136116736, 0.000381563343779522
0.3428753359223841, -0.33228359993942436, 0.00035043707837165286
0.3431747322665115, -0.0773711704724644, 0.00023076022104244123
0.3424278666330647, -0.1794444319258996, 0.0005293027170058389
0.34269897464639715, -0.07354571637828919, 0.00042093347446563477
0.3413269428744129, 0.14405960786820365, 0.0018946494026160382
0.34109246051637726, -0.19667408773055617, 0.0024330052553617797
0.34105350786483163, 0.2815853181680058, 0.002522437944947549
0.3415868536282457, 0.15652654020955387, 0.0012979116493384915
0.34127040135024095, -0.08723252603585223, 0.0020244649704743026
0.3412680304165904, -0.00927688572814294, 0.0020299084759812886
0.3414392485655245, -0.2099262380246247, 0.0016368030272509125
0.34178010929802555, -0.25278473399572493, 0.0008542095227739643
0.34174490813917086, -0.20196794328904466, 0.000935029035387225
0.34171989067949493, 0.04473445177939896, 0.0009924674539965664
0.34163749157989953, -0.12772585575410947, 0.0011816502901799701
0.34054193046679065, 0.19299028211978594, 0.02540606795646705
0.3404246737846399, 0.04299066697748888, 0.025689136022908808
0.3407388145798488, 0.22770714103449557, 0.02493077218505161
0.34046233628852374, 0.22544125681323135, 0.025598215386607316
0.34043507053977395, 0.21098193567537088, 0.025664037330714096
0.3409999907016754, 0.20297654819636574, 0.020808355962510315
0.3409999907016754, -0.035116201008373385, 0.021704536508183887
0.3409999907016754, 0.16804911682409665, 0.02257888873516893
0.3409999907016754, 0.2861328073902611, 0.017432292692819252
0.34099999070167547, 0.022000243269254694, 0.014412147925151709
0.3409999907016754, 0.1415885223076056, 0.019899276164843452
0.34099999070167547, 0.28086344517350215, 0.011301790966905133
0.3409999907016754, 0.09954852704437031, 0.01784080132363846
0.3409999907016754, -0.0362756594844314, 0.023622546909713712
0.3409999907016754, -0.07576307657044183, 0.023759657996509732
0.3409999907016754, -0.1166205107568136, 0.020757015476178458
0.34099999070167547, -0.164985842119318, 0.019557463184174555
0.3409999907016754, 0.32426817123857365, 0.014428653353156691
0.3409999907016754, 0.22901745952784314, 0.018257621646094326
0.3409999907016754, -0.07962868831855938, 0.02291811900009257
0.34099999070167536, -0.11762676392013667, 0.017728147834395646
0.3409999907016754, 0.07217711667019061, 0.011990004176369739
0.3409999907016754, 0.16674192695247286, 0.012653679615051728
0.3409999907016754, 0.25116521873461806, 0.02323570828159055
0.3409999907016754, -0.19169229908010194, 0.02071474241724789
0.3409999907016754, 0.18975491181016665, 0.020631869084747664
0.3409999907016754, 0.1186433582865248, 0.02104353950387757
0.3409999907016754, 0.2437205867359376, 0.005797500195523343
0.34099999070167536, -0.23169052941386234, 0.02284859470971833
0.3409999907016754, 0.3000657178689958, 0.00551123767656181
0.3409999907016754, 0.31155528795269494, 0.01608254751050492
0.3409999907016754, 0.24142254100692376, 0.017169274174875786
0.3409999907016754, -0.2776714164603188, 0.02288604653881227
0.3409999907016754, -0.02413345944005428, 0.017330095992617273
0.34099999070167536, 0.16281644777805432, 0.01322654578906861
0.3409999907016754, 0.2500680783247899, 0.014254977338574249
0.34099999070167536, 0.22863378831924405, 0.0074964276482889555
0.3409999907016754, 0.19244326669252088, 0.020279327234940685
0.3409999907016754, 0.27205349223675673, 0.024116083924825883
0.3409999907016754, 0.17750107707588494, 0.010104841484502747
0.3409999907016754, 0.28798859892858786, 0.021735641246303606
0.3409999907016754, 0.07658006184378342, 0.012129734374907655
0.34099999070167547, 0.07787791174351003, 0.014074825683945396
0.3409999907016754, 0.2864463244083504, 0.019983528759333354
0.3409999907016754, 0.12476345593046378, 0.018293242797880735
0.3409999907016754, 0.30914903212062994, 0.024127593707436744
0.3409999907016754, 0.3203964309009268, 0.019995534242706628
0.3409999907016754, 0.2499090836912371, 0.015245037261443124
0.3409999907016754, 0.1649858248827154, 0.0107944059732008
0.3409999907016754, 0.07971544140701088, 0.01765821781674731
0.3409999907016754, 0.10010926508406126, 0.013733943473526961
0.3409999907016754, 0.1001540153894835, 0.01714416637718317
0.3409999907016754, 0.28681936996109325, 0.005829910486030331
0.3409999907016754, 0.2664284661631788, 0.02386618135622987
0.3409999907016754, 0.3330162675549352, 0.011413885655122004
0.34099999070167536, 0.2562954596242749, 0.005376305192150557
0.3409999907016754, 0.00012338466475690646, 0.020816868242401122
0.3409999907016754, 0.2946933390065738, 0.005824941910067157
0.3409999907016754, 0.017502037205464616, 0.021236067537495185
0.3409999907016754, 0.08452262778986322, 0.016837872564150282
0.3085741321887968, 0.3409999907016754, 0.005169700540433963
0.0400785908713886, 0.3409999907016754, 0.004954387238367539
-0.02379398766402417, 0.3409999907016754, 0.005093163921285591
0.27699074859020945, 0.34099999070167547, 0.020478794315165135
0.2347254520824113, 0.3409999907016754, 0.01298019774941675
0.058794550178809496, 0.3409999907016754, 0.0029234138086075357
0.22089470993776503, 0.3409999907016754, 0.014012694442904997
-0.10116250159312756, 0.3409999907016754, 0.00521836993789181
0.2790384530341214, 0.3409999907016754, 0.015448078634111677
0.3056357856733836, 0.3409999907016754, 0.005376876728022026
0.16575111510999108, 0.3409999907016754, 0.008725413324192955
0.20590170529979335, 0.3409999907016754, 0.00646236907295387
-0.17984585760365926, 0.3409999907016754, 0.0027835519542368826
0.03559078491508462, 0.3409999907016754, 0.008504318742944708
0.15373065590255672, 0.3409999907016754, 0.017403340609838596
-0.09333700096227554, 0.3409999907016754, 0.005253706332584417
0.2860280878554242, 0.3409999907016754, 0.020700429413434515
0.25738184610181425, 0.3409999907016754, 0.003468970269448148
0.33220000289112084, 0.3409999907016754, 0.005232144908212005
0.24935679497139523, 0.3409999907016754, 0.007872880536835594
0.325700455554544, 0.3409999907016754, 0.003028690791483588
0.0013904887077238193, 0.3409999907016754, 0.004055115051331367
0.29946153143418475, 0.3409999907016754, 0.011298234406737166
0.21823142025667433, 0.3409999907016754, 0.00835966081682218
0.16337821445046777, 0.3409999907016754, 0.006607146605307799
0.15466137168221006, 0.34099999070167547, 0.014449714274814045
-0.10713641648819151, 0.3409999907016754, 0.004583749131651773
-0.2085064507326458, 0.34099999070167536, 0.005187794790619772
0.10909030343556311, 0.3409999907016754, 0.01433733737570805
0.2693169254244419, 0.3409999907016754, 0.011771586479505576
-0.09476019412487514, 0.3409999907016754, 0.006084848325417588
0.26786579343456485, 0.3409999907016754, 0.01781722752744243
0.1868628216026933, 0.3409999907016754, 0.007297565235824337
0.2526055065777391, 0.3409999907016754, 0.003912344664110152
0.12397213427928626, 0.3409999907016754, 0.00914059560405165
0.26128477385019594, 0.3409999907016754, 0.020808215217785236
-0.12496116875829955, 0.3409999907016754, 0.009255809058800623
0.07410516839600631, 0.3409999907016754, 0.0048623370464400744
-0.11516287325643831, 0.3409999907016754, 0.004681615807285189
-0.021355960981746386, 0.3409999907016754, 0.003602446788277335
0.008609541576086885, 0.3409999907016754, 0.007535020737125539
-0.036440618387975104, 0.3409999907016754, 0.008223707743163694
0.3257040509075583, 0.3409999907016754, 0.004648047487874486
0.056572489550097714, 0.3409999907016754, 0.014898599341511096
0.28746617961196697, 0.3409999907016754, 0.012084862204173579
-0.09589809236607512, 0.3409999907016754, 0.009846532007796845
-0.07633102219096269, 0.3409999907016754, 0.0071788514715624245
0.26811840277186866, 0.3409999907016754, 0.007739100239398021
0.2633613606722806, 0.34099999070167536, 0.020442875308355583
0.2459198718636924, 0.3409999907016754, 0.016570784146952698
-0.09966364448921343, 0.3409999907016754, 0.008178986918225778
0.16572511666043743, 0.3409999907016754, 0.008846624931750714
0.30710916682726597, 0.3409999907016754, 0.00632613399902696
-0.06094110665803423, 0.3409999907016754, 0.006335250336978315
0.143636472093521, 0.3409999907016754, 0.004483770152009683
0.035475929768625694, 0.3423309738142633, 0.0005680334105475663
-0.0462502571838469, 0.3418965793796388, 0.0007416726743424554
-0.22576260259080827, 0.34204809225426364, 0.0006811088597345646
0.3232532424016574, 0.3431130503687676, 0.0002554161522883955
0.17699114153899373, 0.3430806918982134, 0.00026835071257903223
0.2840387637238844, 0.3419954662647291, 0.0007021448982997266
-0.25592425093587345, 0.3414036148846539, 0.0017186155815609293
-0.3260481276532286, 0.34139242054945423, 0.0017443170284536884
-0.1833738731660697, 0.3411237559711946, 0.002361152978685505
-0.3382972771801557, 0.34154073308881083, 0.001403801331379106
-0.22807861681409705, 0.3413155878935884, 0.001920719681147429
0.004603004232043906, 0.3417248783882992, 0.0009810160072905112
0.16537417922145337, 0.3414031406369292, 0.0017197044227018814
-0.064125957816313, 0.3416884024975776, 0.0010647622192384572
0.26410015703933465, 0.3417939826200374, 0.000822357300864133
0.12418175792973647, 0.34142212354330215, 0.0016761209359373022
-0.3416122753621194, 0.173184287771638, 0.001239545044138325
-0.3413091309225046, 0.14637366703744098, 0.0019355444560392337
-0.34135149196991255, 0.305188627430791, 0.0018382863169129925
-0.3411293183988283, 0.1321413706707563, 0.0023483820158840692
-0.34102593823687677, -0.058298018099600946, 0.002585735971681346
-0.34107925202304656, 0.15681837150872888, 0.0024633310749676025
-0.3414497658249963, -0.22488368496337738, 0.0016126561010644616
-0.3412667015721211, -0.27625594452402347, 0.0020329594142413404
-0.34147915456099864, -0.16760118966085788, 0.0015451815235985708
-0.34160536212598175, -0.2073583151737386, 0.0012554173731582998
-0.34155298290046, -0.08083420651611158, 0.0013756765809646732
-0.3434885061786423, 0.31227377637348264, 0.00010533625895250975
-0.34300411132307607, 0.12540192415315732, 0.0002989620501743744
-0.34330932845385664, 0.10834638509550212, 0.00017695846619169217
-0.3435418998804985, 0.28224717745857164, 8.39933449034278e-05
-0.34236425318736613, 0.18566601633778257, 0.0005547307404751163
-0.28674471552825814, 0.3409999907016754, 0.011195466851207272
-0.24642734981650444, 0.3409999907016754, 0.017969852253873042
0.26146091575041763, 0.3409999907016754, 0.024056388658511202
0.11152512315324112, 0.3409999907016754, 0.02370471110196349
0.024200145726039998, 0.3409999907016754, 0.01819729198300488
-0.176241690276177, 0.3409999907016754, 0.01491540186561995
0.014010711579310255, 0.3409999907016754, 0.014014809205454786
0.012664794294228541, 0.3409999907016754, 0.014195480384115278
-0.08970264673886245, 0.3409999907016754, 0.018500265940619164
0.05530708526640768, 0.3409999907016754, 0.022595968123741077
-0.19066223140020827, 0.3409999907016754, 0.020568130340453617
-0.02247312738058789, 0.3409999907016754, 0.02117578622229454
-0.05096370430467359, 0.3409999907016754, 0.02283920312813216
-0.2495131803785181, 0.34099999070167536, 0.009454355734640055
0.28513443069871014, 0.3409999907016754, 0.024128359107476433
-0.07883475224949715, 0.3409999907016754, 0.02236584020068373
-0.09551592932336114, 0.3409999907016754, 0.020841280141879134
0.09523665155634012, 0.34099999070167547, 0.016835486398920817
-0.05665505351318956, 0.3409999907016754, 0.016429657920930388
0.15622872289616183, 0.3409999907016754, 0.020127675902022194
-0.313327366715623, 0.3409999907016754, 0.02284396022050416
0.060848488168243245, 0.3409999907016754, 0.02116228598959728
-0.11343593778846162, 0.3409999907016754, 0.010654974662360976
-0.1774653563412232, 0.34099999070167547, 0.011872799420476336
-0.29786771334320905, 0.3409999907016754, 0.005676816576167197
0.1998727743522597, 0.3409999907016754, 0.021771746197293853
-0.13580103391522716, 0.3409999907016754, 0.010281007242287256
0.04073893008017185, 0.3409999907016754, 0.017717565294588913
0.10777303251508415, 0.3409999907016754, 0.01893451701980974
-0.18958867400263932, 0.3409999907016754, 0.014212274367585757
0.08502649449134808, 0.3409999907016754, 0.023769461553297067
0.08364902642288996, 0.3409999907016754, 0.01920350357678966
-0.21863471199234807, 0.3409999907016754, 0.015312087601767266
-0.27113301906417014, 0.3409999907016754, 0.010898608673332554
-0.27484697382124046, 0.3409999907016754, 0.015695852338353623
0.10335867660867468, 0.3409999907016754, 0.023407245331111406
-0.01831140869277134, 0.3409999907016754, 0.01746060938044611
-0.29566968311393427, 0.3409999907016754, 0.016026401985815068
-0.21021009626294818, 0.3409999907016754, 0.011877766883654148
0.1367002349175917, 0.3409999907016754, 0.019335633927402045
0.06470083558398598, 0.3409999907016754, 0.017789316580015854
0.0006872323412342174, 0.3409999907016754, 0.016563906294217157
0.14833284509787234, 0.3409999907016754, 0.019242794952915768
0.14709506677477482, 0.34099999070167536, 0.022738422347170002
-0.22733617919621613, 0.3409999907016754, 0.010287586805125344
0.09344208265628111, 0.3409999907016754, 0.019634732471294134
-0.27588449071609306, 0.34099999070167536, 0.023083278027888218
-0.2179715341095571, 0.3409999907016754, 0.02393078844184865
-0.026467088104449463, 0.3409999907016754, 0.017877453270173885
-0.16352401516230125, 0.3409999907016754, 0.013875698382354574
-0.28953077282886497, 0.3409999907016754, 0.02406012134029725
-0.055415854812427646, 0.3409999907016754, 0.014844764992581607
-0.0858664692372959, 0.3409999907016754, 0.013219766615513636
-0.26944856671475403, 0.34099999070167547, 0.010074989604614117
-0.23550315325759996, 0.3409999907016754, 0.017265587412341698
-0.07639845762301951, 0.3406428058419919, 0.02516254582292154
0.1328460575893188, 0.34035074070421445, 0.025867617059027518
-0.242864307669997, 0.3405249146562473, 0.025447145637509223
-0.10369275111356199, 0.3402598958987386, 0.026086924504544973
-0.21721285332420015, 0.3408069325922074, 0.024766329240781572
-0.07575215604555516, 0.3406870731143582, 0.025055680687685548
-0.3409895939215456, -0.2940236492368188, 0.024325368535079845
-0.3407542092179127, 0.10882549833640462, 0.024893608158657567
-0.34075104875298423, -0.2651668901127846, 0.024901237802273168
-0.3402935036246625, -0.29715199529067976, 0.026005792463109953
-0.34086761334484683, 0.023080375360142916, 0.024619840503382326
-0.3409999907016754, -0.18413867050032723, 0.009437800170160469
-0.3409999907016754, -0.32321129343841115, 0.01220943726822833
-0.3409999907016754, -0.2830974781470212, 0.016499058470282154
-0.3409999907016754, -0.08321383985409406, 0.00559964453492141
-0.3409999907016754, 0.12721511959124115, 0.00425001215522024
-0.3409999907016754, -0.020152554984113974, 0.010747523021711758
-0.3409999907016754, -0.23137657021137348, 0.014736396344326221
-0.3409999907016754, -0.12667959394721692, 0.015461420756996693
-0.3409999907016754, -0.25366135022667136, 0.008369881557391328
-0.3409999907016754, -0.10396806365822686, 0.016146917221760787
-0.3409999907016754, -0.11109431358203337, 0.00977156656012117
-0.3409999907016754, -0.3373128115529196, 0.004193857822119539
-0.3409999907016754, -0.11844295199655128, 0.005185275880478276
-0.3409999907016754, -0.019265004908298702, 0.009117194688268878
-0.3409999907016754, -0.06171965091200693, 0.002645990278894188
-0.3409999907016754, -0.23899031110782604, 0.009009361991056033
-0.34099999070167536, -0.1650558317227746, 0.018146417759984445
-0.3409999907016754, -0.1997163081559773, 0.0038501302776158585
-0.3409999907016754, -0.1948969370404545, 0.004280488745201666
-0.34099999070167536, 0.043865488357476515, 0.007031402656280482
-0.3409999907016754, -0.2793946624603757, 0.01658291961619465
-0.3409999907016754, -0.2256811042477202, 0.011182889033107626
-0.3409999907016754, -0.21212698957738615, 0.01850882476526869
-0.3409999907016754, -0.14229680300526554, 0.005725115935416331
-0.3409999907016754, -0.3110180176275119, 0.018859002978250168
-0.3409999907016754, -0.11209274652452858, 0.006926349105022269
-0.34099999070167547, 0.18464226816545942, 0.007245643622215099
-0.3409999907016754, -0.31035511246471387, 0.015673635659001293
-0.34099999070167547, -0.14864666912718016, 0.014433009388683677
-0.3409999907016754, -0.15842115139757174, 0.014646075064360093
-0.3409999907016754, -0.1323175354315711, 0.0026457135645491002
-0.3409999907016754, -0.2502816669567981, 0.01672526397338604
-0.3409999907016754, 0.073287539302042, 0.004659548602206618
-0.3409999907016754, -0.27049335526984297, 0.010682495523489075
-0.3409999907016754, 0.15464556146749753, 0.0035606793886584437
-0.34099999070167547, -0.2150816211349383, 0.01864906196638763
-0.3409999907016754, 0.06915196249513579, 0.004752122566919035
-0.3409999907016754, -0.2249291280058424, 0.006408769191839257
-0.3409999907016754, 0.1844753889483331, 0.006728807126697861
-0.34099999070167536, -0.05934208707096467, 0.0153686431877988
-0.3409999907016754, -0.05170617922884933, 0.007325848314652998
-0.3409999907016754, -0.3133618899150799, 0.010593914806177138
-0.3409999907016754, -0.20416999259703394, 0.018196421678707646
-0.34099999070167547, -0.119331879397794, 0.015792201493185824
-0.3409999907016754, 0.08909029734498194, 0.0037831546836623146
-0.3409999907016754, 0.20426692219251769, 0.005184908692427868
-0.3409999907016754, 0.05522928682780246, 0.007908335051495465
-0.3409999907016754, -0.30728731462186737, 0.02158231879617048
-0.3409999907016754, -0.3246521474408697, 0.014672107885815555
-0.3409999907016754, -0.2266457376909765, 0.012336759580304169
-0.3409999907016754, -0.17448981551524456, 0.01300024306368748
-0.3409999907016754, -0.24241222408564733, 0.00797393663222468
-0.3409999907016754, -0.24279007110555528, 0.0139021702527208
-0.34099999070167536, -0.14457189154259553, 0.014448789458730934
-0.3409999907016754, -0.10935397098502743, 0.012030724264659775
0.27738158252012085, -0.34347072805188433, 0.00011244265948586631
0.0816925141424666, -0.34258603370314444, 0.00046607903959161573
0.21700646343481583, -0.3424868712627138, 0.0005057169625943535
0.18893736100265043, -0.3428102721902125, 0.00037644482076779236
0.2115547713818906, -0.3420118919557852, 0.0006955791030800572
0.3665290941024229, -0.369178618983765, 0.0
0.35686343855078395, -0.34665892599409176, 0.0
0.3690846036701477, 0.015796974199685676, 0.0
0.37246269049731007, 0.10242265856726503, 0.0
0.37185563579393294, -0.266731898125018, 0.0
0.36411278087293997, 0.07689082247021752, 0.0
0.36183096357693073, -0.013777060014053738, 0.0
0.36743919066492353, -0.31733689411193033, 0.0
0.3776879578950536, 0.21570411263372208, 0.0
0.36104073789574104, -0.014939537583189784, 0.0
0.3683828182880308, -0.15490143905545758, 0.0
0.3512189567407111, -0.28176914502325656, 0.0
0.3751271734423218, -0.08773668316318751, 0.0
0.3726413824461956, 0.10855450315014437, 0.0
0.35883023427291194, -0.14814040226082836, 0.0
0.3691254082141267, 0.12658402169970834, 0.0
0.3716765028403535, 0.07758088917797014, 0.0
0.3772729117363979, -0.18712990758547798, 0.0
0.34474995880301745, -0.3387858726976162, 0.0
0.37455231731050864, -0.0872213572344302, 0.0
0.37243496844263585, 0.12233700864255975, 0.0
0.3549294794718215, -0.24718373051404707, 0.0
0.365190767551829, -0.2189044309336265, 0.0
0.3747363432223412, 0.0007647245557506344, 0.0
0.34639091467226046, -0.3389127779309276, 0.0
0.35441366765118737, -0.2299502860992208, 0.0
0.36305028310245036, -0.3338481244287434, 0.0
0.36571446617989156, -0.26586901604469565, 0.0
0.3727230314859883, -0.26538392636395736, 0.0
0.3641010651173314, -0.10568040396795891, 0.0
0.3751584381798492, -0.11477343964472411, 0.0
0.37701002906782566, 0.013266323596638818, 0.0
0.37800404165695933, 0.09863557164998818, 0.0
0.36810457781309475, 0.07461325395359132, 0.0
0.37613048047251363, -0.07153799717149922, 0.0
0.3673477869300818, -0.018490709570555014, 0.0
0.37593274570676116, -0.11387705679382179, 0.0
0.3642903219111481, 0.0007853132754645706, 0.0
0.3741623584377358, -0.06361823770519004, 0.0
0.3781292969276955, 0.2767363224928588, 0.0
0.37072799178265786, -0.3345571763707088, 0.0
0.3731723831169719, -0.151367003216955, 0.0
0.37082358233299556, 0.05787073276956367, 0.0
0.3582097109124658, -0.08690407412576787, 0.0
0.35010784695017216, -0.2549401443635031, 0.0
0.3781874362704447, 0.37221821061372845, 0.0
0.3725627854792607, -0.2204880171245156, 0.0
0.37221875438148266, -0.23611415049682372, 0.0
0.36344036687027936, -0.34110385844211866, 0.0
0.37718451329960007, -0.3558950655417173, 0.0
0.3740126801752235, -0.2806912175019771, 0.0
0.34841502564504784, -0.30030794470089006, 0.0
0.3720114170974332, -0.15827035276055515, 0.0
0.35158023330230403, -0.21158255814411872, 0.0
0.35735083720870797, -0.325452141290848, 0.0
0.37695426632669093, -0.22037680430331547, 0.0
0.3571780023968514, -0.3480200617311501, 0.0
0.35857236285853944, -0.07966863396178168, 0.0
0.35514987501762707, -0.23138194750903746, 0.0
0.36035221499044107, -0.026215907304867038, 0.0
0.35708219685410025, -0.2486453913397525, 0.0
0.35290537250324094, -0.15233984515815535, 0.0
0.35486019541912583, -0.15486841111764796, 0.0
0.3738207370904471, 0.1763409201813521, 0.0
0.3748934463972481, -0.2552977986729258, 0.0
0.37195065066791494, 0.09672113795575284, 0.0
0.3660453645545362, -0.3629755197139851, 0.0
0.3758465599237461, -0.12454613644775094, 0.0
0.36160519697339993, 0.00202181647980452, 0.0
0.3770595148321707, 0.21280081070738216, 0.0
0.35454689027268205, -0.12480751291489504, 0.0
0.3696218254716547, 0.020023508632871764, 0.0
0.3771270794840693, 0.3459127426362228, 0.0
0.37744923133049263, -0.0025308008530512405, 0.0
0.37802523921510733, -0.3697987669278151, 0.0
0.37448162213671266, 0.024422725794005923, 0.0
0.37177333510623595, 0.2356088496166174, 0.0
0.3739493446008674, -0.11959916010358498, 0.0
0.37257638381159053, -0.15436697400566263, 0.0
0.36542133723025505, -0.2596334023206488, 0.0
0.37603486565036004, -0.008718090505801523, 0.0
0.36427521390482204, -0.11055962036845116, 0.0
0.3749466601514625, -0.11047394385717074, 0.0
0.3745797604806179, -0.1012648569108075, 0.0
0.3655758077566785, 0.09685456091637683, 0.0
0.3733716688845714, 0.21749919222814965, 0.0
0.37154191405229225, -0.35870345147564386, 0.0
0.36912100521748215, -0.3238855333724356, 0.0
0.3580234203352122, -0.2512143447659199, 0.0
0.35535572637188073, -0.3451322670967905, 0.0
0.3675124937697226, -0.0030931210643383444, 0.0
0.3708973099208929, 0.18201106070560347, 0.0
0.3519163973328229, -0.2828903483029384, 0.0
0.357618032047906, -0.24136296065443955, 0.0
0.3750181378129809, 0.08597715888752844, 0.0
0.35168232527432, -0.25718829343985233, 0.0
0.37416532202431085, 0.22656898104159467, 0.0
0.3748544227789812, -0.36773974796545705, 0.0
0.3684522566738937, -0.3705934570271498, 0.0
0.17785873493173976, -0.36585788337811215, 0.0
0.33960301727677367, -0.3641951422273929, 0.0
0.11399332034616601, -0.36517765205014213, 0.0
0.22283135364724743, -0.35298126518209144, 0.0
-0.14338973285279388, -0.35225223835747793, 0.0
0.19068205469379748, -0.3506873948399418, 0.0
0.0985042180569426, -0.35886226579869257, 0.0
0.13137952827143068, -0.34883788940422755, 0.0
0.047170693898636734, -0.35548284097728194, 0.0
-0.015278317928585916, -0.34724436222592736, 0.0
0.024201405683215618, -0.3559229447517162, 0.0
0.20947003146185952, -0.3460681576257971, 0.0
0.28150724262342597, -0.3453487989426717, 0.0
0.12705238007228584, -0.3629296254552742, 0.0
0.36153532059077065, -0.37124643596999074, 0.0
0.17180706737778803, -0.3602297344676936, 0.0
-0.0510704618499834, -0.3566498386729736, 0.0
0.24969608001841956, -0.35328975259540274, 0.0
0.24791508414468294, -0.3546274597795315, 0.0
-0.1822148532264124, -0.3440182298989312, 0.0
0.03731446547308101, -0.35140991857636644, 0.0
0.2816621839795884, -0.37008110839214664, 0.0
0.04191398988545694, -0.34704220645917105, 0.0
0.23015165208527902, -0.3564312713356845, 0.0
0.1209473900428795, -0.3481546729358179, 0.0
0.2054320134387871, -0.3443200930357306, 0.0
0.23148416035474456, -0.36309194354121177, 0.0
-0.15410399904458744, -0.34470783781910674, 0.0
-0.14180364365067952, -0.3476115970199312, 0.0
0.0023633226640100494, -0.35447940893716395, 0.0
0.30339026557629284, -0.3655091941221562, 0.0
0.058510031020970105, -0.3517175377355929, 0.0
-0.21651349246065651, -0.34932939148313163, 0.0
0.013675851148994084, -0.343873510629501, 0.0
-0.03726153145154748, -0.35209870192039805, 0.0
0.12685787205954224, -0.3593409372596784, 0.0
0.3163847140888086, -0.367814344531603, 0.0
0.3099968905297275, -0.34419512212555686, 0.0
0.2722033293103068, -0.37038782634469447, 0.0
0.13880790512639993, -0.35029760934972043, 0.0
-0.10098800470992918, -0.34750403576927325, 0.0
0.12301439140745624, -0.35160777147376776, 0.0
0.3473908223461344, -0.36740435751804007, 0.0
0.28165035648662606, -0.3719092379928258, 0.0
0.07442723606452133, -0.35450857876766184, 0.0
0.1510598142717221, -0.3639747233749909, 0.0
-0.03446271605476302, -0.3518533278894856, 0.0
-0.029536998756389918, -0.3540165850822023, 0.0
0.23946327241010562, -0.3613304733534646, 0.0
0.05537945800856672, -0.3483168784816256, 0.0
0.24636667027020273, -0.3609947231946526, 0.0
-0.05771226224266296, -0.35459087528539907, 0.0
0.29668329680242556, -0.35325926528944507, 0.0
-0.15870740880386872, -0.3500517386530792, 0.0
-0.1994705873570218, -0.3474253256782761, 0.0
0.18549705193653945, -0.3621312031274466, 0.0
0.0514753760185379, -0.35754378352155575, 0.0
0.07312893617807306, -0.3458536373838722, 0.0
0.20968368761629042, -0.3593313288235074, 0.0
0.325588717168101, -0.3721523676234296, 0.0
0.02247237654520705, -0.3515817490149161, 0.0
0.10680479021172826, -0.34937418554935096, 0.0
0.3282075675806345, -0.3557590900663942, 0.0
0.16371923837817215, -0.3451458020849462, 0.0
-0.019163686091054538, -0.3508687380007901, 0.0
0.27523921787358796, -0.36721798327282806, 0.0
-0.07476706254858907, -0.3560259063508664, 0.0
-0.2778037187472406, -0.34606567581848496, 0.0
0.13006365467950756, -0.3478293836078381, 0.0
0.17803680954863085, -0.3475281486247501, 0.0
0.10481863206561637, -0.3645098513669839, 0.0
0.32588392771019703, -0.3459999243685123, 0.0
0.04636046559892089, -0.3569024400431014, 0.0
0.2613296862975489, -0.3641440116295013, 0.0
0.2938131029417398, -0.35357999480362845, 0.0
0.15968442887527348, -0.3503469880947796, 0.0
0.07586065468314761, -0.3607526469411979, 0.0
-0.10674517305031242, -0.34438872514983115, 0.0
-0.036845923415854576, -0.34430590758126944, 0.0
0.07121722679576373, -0.3446972908521863, 0.0
0.2391663971390351, -0.3670256817882547, 0.0
0.11432424272629481, -0.361126001963724, 0.0
0.01063677657951044, -0.34958876131688155, 0.0
0.17708556877207549, -0.3556744513816345, 0.0
0.014255672890052501, -0.34599119913831855, 0.0
0.14068151501587756, -0.36619876090848835, 0.0
0.060275745240490876, -0.3626293938735362, 0.0
0.23402269411995, -0.37959975517273525, 0.0005316298869229418
0.04254147062536866, -0.3786515182226089, 0.00017158093576083962
0.3252364058682632, -0.3782497506595398, 1.9028359451025007e-05
0.06429502493117963, -0.37900319112123293, 0.0003051123893546334
0.03284803097390063, -0.37840576713154456, 7.826837019077523e-05
0.16992532620839323, -0.37933150761961, 0.0004297753344910082
0.3778122432156189, -0.3781804278123444, 0.0002613606929718796
-0.37674680664851107, -0.38093190189374926, 0.002487432890141128
-0.22712405013396764, -0.3806674438192825, 0.001863589866057936
-0.12062124216334953, -0.3809119699411403, 0.0024228263745705086
0.0642749334800739, -0.3808006060553485, 0.0021513690557864564
-0.033369445215300955, -0.3805823640519656, 0.0016524309067422337
-0.3677871209620508, -0.3673223047684556, 0.0
-0.34212685781562013, -0.15102342934145857, 0.0006496241237522673
-0.3424540374363907, -0.16792951358519032, 0.0005188415355075474
-0.34253444905599045, -0.18030443325051582, 0.0004866988253001297
-0.34251893170108855, -0.2673528289766075, 0.000492901533867373
-0.34338745287585876, -0.2537666954005122, 0.00014573001103764807
-0.3332749503019735, -0.3577576485675117, 0.0
0.08174799950802454, -0.3740847934131129, 0.0
-0.18251023153236562, -0.3616987897359185, 0.0
-0.11084341839506318, -0.35899972508476535, 0.0
-0.2599514380169497, -0.3586189208842529, 0.0
-0.27016339907674025, -0.3582325449506548, 0.0
0.05297561267691119, -0.36431496550535036, 0.0
-0.12182512437090486, -0.36996982110375076, 0.0
-0.24958774315813825, -0.36788174636006576, 0.0
-0.3116075141761123, -0.3485560964654778, 0.0
-0.1372564402622558, -0.36386292112460944, 0.0
-0.3336774086857516, -0.37106412748629736, 0.0
-0.2705294809058454, -0.3501777206576608, 0.0
-0.251511017379012, -0.35279506398766575, 0.0
-0.043173495427712004, -0.36140955325504615, 0.0
-0.18588754249626244, -0.3594725765748575, 0.0
0.1775423228803323, -0.3746669868891091, 0.0
-0.3284835424497602, -0.36994261960069974, 0.0
0.02632738732860572, -0.3676774570089762, 0.0
-0.07141650496048922, -0.36502323970066686, 0.0
-0.0738059815859709, -0.3723523862974749, 0.0
-0.3544714625463976, -0.3776664390194585, 0.0
-0.30560466236764866, -0.3493858427230234, 0.0
-0.06068279050443416, -0.36493981424610034, 0.0
-0.17007705627041855, -0.3746282707759613, 0.0
0.11989770898450383, -0.37297365665547644, 0.0
-0.1460551560238094, -0.3615499263305781, 0.0
-0.1565691756490527, -0.3591881084362084, 0.0
-0.2261218078746378, -0.36123739404745636, 0.0
-0.2038619701131883, -0.35576165236470847, 0.0
0.07712633873360968, -0.36454558213465266, 0.0
-0.09680457385232195, -0.36699165958457086, 0.0
-0.3482965338155348, -0.3729889350493977, 0.0
0.08609420037790101, -0.3653967873882584, 0.0
-0.08741476196178039, -0.3648511816512448, 0.0
-0.3186481094913653, -0.37450756844510646, 0.0
-0.2765286572015417, -0.37722715377094673, 0.0
0.27403627006643855, -0.3781351990626801, 0.0
-0.15961797842044637, -0.3738637837133801, 0.0
-0.33353928222434837, -0.37509167542074096, 0.0
-0.0017858653831850646, -0.36190664521113197, 0.0
-0.2839049426317023, -0.3734373500537821, 0.0
0.13159692934504383, -0.37024300926834264, 0.0
-0.2913941125700306, -0.36668128443998615, 0.0
-0.17901761084859258, -0.35827854881071497, 0.0
0.15189634657133738, -0.372255448884108, 0.0
-0.232889454646128, -0.3637498607127202, 0.0
-0.2490763286795635, -0.37265115148306194, 0.0
-0.20705645158069755, -0.35248627675574123, 0.0
-0.2848633836853188, -0.35839531393006774, 0.0
0.31470020307757357, -0.37788964843869766, 0.0
0.04569007615471099, -0.3762023542619771, 0.0
-0.06156499414071709, -0.36366522428331116, 0.0
-0.2273725863911223, -0.37689217784769036, 0.0
-0.2024546058721273, -0.3574959859006063, 0.0
0.059756696043176905, -0.3773479580461718, 0.0
0.21219538977756913, -0.3753352149541812, 0.0
0.15871930781283822, -0.37058327281076586, 0.0
-0.026677411736573016, -0.3593571576363152, 0.0
-0.01857380989343728, -0.3605257432591126, 0.0
-0.2830873842384025, -0.37319065510430594, 0.0
-0.23838234992617857, -0.36279202748826206, 0.0
-0.26672106049195166, -0.36756061757471925, 0.0
-0.29526315270516934, -0.36382931200703506, 0.0
-0.038997398321391284, -0.3585327262128458, 0.0
-0.33422038697487455, -0.3553322078444965, 0.0
0.21906545036483727, -0.37523283724500606, 0.0
-0.2655562930519352, -0.36540497926108545, 0.0
-0.2613144559910272, -0.3779203842257693, 0.0
-0.331752786343543, -0.3577542604668489, 0.0
-0.28703339810733225, -0.3587167207520909, 0.0
-0.06572480261428126, -0.36013355041217954, 0.0
-0.3703083842010003, -0.3736008431170348, 0.0
-0.2848552661805166, -0.3768699802841125, 0.0
-0.30018819098831306, -0.3687636551204517, 0.0
-0.34193502650972984, -0.37754728422178535, 0.0
-0.11644497168808475, -0.3587854956929755, 0.0
-0.3386457305053264, -0.3571582590022494, 0.0
-0.17963157596020596, -0.3708899475977506, 0.0
-0.13872590954191885, -0.3781647366988742, 0.0
-0.3304775142165577, -0.3719888003611336, 0.0
-0.3545250885790898, -0.3631023968296774, 0.0
0.22082883027643022, -0.37591559050593587, 0.0
0.02277999745047281, -0.36400568266977906, 0.0
-0.30517100894876953, -0.35226737619177684, 0.0
-0.07765418892089601, -0.35704160525327594, 0.0
0.23659456595067557, -0.37778073960080666, 0.0
0.0018595522942396678, -0.36515563174975246, 0.0
0.07119293224589923, -0.37230752935761713, 0.0
-0.16844891723614858, -0.371890101981735, 0.0
0.030376119248622865, -0.37082711415804714, 0.0
0.12091278216903315, -0.36866977696985287, 0.0
-0.2976958006975866, -0.357736341359533, 0.0
0.03395903634965011, -0.3704865985731931, 0.0
0.017702418889316313, -0.37708176085023315, 0.0
-0.3168652808844601, -0.3702137321255511, 0.0
0.2010228771376117, -0.37621037792460454, 0.0
0.2545066711900355, -0.37995341614198247, 0.000666645883805233
-0.22275249657279356, -0.3787375999261893, 0.00020544368223861028
0.19046439019595376, -0.37997676191731766, 0.0006772219618355505
-0.36817138943386973, -0.38015342177371064, 0.0007589915646801845
0.13616628188093116, -0.3801062199597347, 0.0007287999880968385
-0.19029044358518235, -0.38002328918910067, 0.000704247503214449
-0.34207905912592923, -0.3442058760019299, 0.0
0.38085639617283273, -0.010183563247070551, 0.002286056261911759
0.3808208662601706, -0.004684881230340832, 0.002203291998421273
0.38042974911401306, -0.33766675572133387, 0.0013204808806240986
0.3804352714049228, -0.30525463601723735, 0.001330955011762893
0.3803824504179729, -0.23543087817828237, 0.0012034840890073498
0.38040069641861285, -0.350728933900948, 0.0012540660724981022
0.3786826653957394, -0.24979839672180854, 0.0001847338771672814
0.38005575468260744, 0.06462055197759176, 0.0007108724052408508
0.3794196952998601, -0.19514000853989907, 0.0004698293961184297
0.38000228741884096, 0.025589329355675344, 0.0006910143501378855
0.37927989429056963, -0.34094383500812186, 0.00041893448575216607
0.3798414251065295, 0.1727385214495152, 0.0006250520962895414
0.37851048924261016, 0.3177749982509288, 0.00011803172917781333
0.3785997506429752, -0.1665503180588939, 0.0001519246011824503
0.37937360662340924, 0.14867899520183392, 0.00044576047634912325
0.3791160965514172, 0.1381687171665912, 0.0003479829837909016
0.3789108111656931, 0.12998812440013752, 0.0002700353908300733
0.3788955579589832, 0.2545093501349395, 0.00026424369385285895
0.36238861774537373, 0.17591792652861277, 0.0
0.34515649004938365, 0.27684837743122054, 0.0
0.3632267752511968, 0.06612763602410399, 0.0
0.3554952180322145, 0.26631408515120125, 0.0
0.36685206049890534, 0.3304885465928537, 0.0
0.34510759958442055, -0.12787274184996994, 0.0
0.3572608695667065, -0.0011767668599031375, 0.0
0.3455087145755379, 0.21719180367836893, 0.0
0.36012120194618114, 0.16828112858716637, 0.0
0.3470811500599139, 0.25703320787282496, 0.0
0.3505357800670773, -0.06453074991841085, 0.0
0.3533068820927771, -0.13724906239847312, 0.0
0.35627186173349973, 0.24087735141128438, 0.0
0.35531482496592925, 0.1076642274007877, 0.0
0.3703704755494884, 0.24839809376117114, 0.0
0.3629569341157155, 0.22988602115663448, 0.0
0.3463311598316904, 0.23230819467061598, 0.0
0.34932967060289966, -0.17583310512592346, 0.0
0.349799173129708, 0.2197968325693134, 0.0
0.3549131511570548, 0.2652476438715776, 0.0
0.35288471690117973, 0.1240216728763061, 0.0
0.3751032343430461, 0.37032804837209615, 0.0
0.359440282852951, 0.18542279219015784, 0.0
0.3598011316423641, 0.0885723040441038, 0.0
0.3573472181138444, 0.176236714825089, 0.0
0.3678896572205085, 0.18616278346912435, 0.0
0.3551183261235547, -0.08467363117076171, 0.0
0.35323155520719934, 0.1179922468005175, 0.0
0.3567801663820811, 0.353170872267048, 0.0
0.34466638000707867, -0.23263013234252516, 0.0
0.3569721483356982, 0.10463712100514817, 0.0
0.36043478416378544, 0.060219710366503365, 0.0
0.3495002855606155, 0.254813369446087, 0.0
0.3649368626333684, 0.34313533686369463, 0.0
0.35021417814148587, 0.2972598516692293, 0.0
0.35571731067349, 0.13165571546168703, 0.0
0.3438312749559993, 0.14972890998676958, 0.0
0.34673522307883575, 0.28307172741009634, 0.0
0.35255295383010354, -0.15215383524086717, 0.0
0.3466926421970672, 0.12106015453320002, 0.0
0.35550270156706143, 0.29609882014375255, 0.0
0.3441568401057621, -0.2061072529562046, 0.0
0.3481368327365444, -0.036780474869641575, 0.0
0.35079409735803146, 0.07246043805215581, 0.0
0.34387320194368776, 0.036137759341712344, 0.0
0.346551684688271, -0.09652999470100758, 0.0
0.3440800698112491, -0.0012176722911407534, 0.0
0.37031702523402377, 0.3598188207313895, 0.0
0.3456822521695812, 0.24584214120829945, 0.0
0.3704154982427389, 0.27926635711152425, 0.0
0.3557054880203454, 0.18572749379069806, 0.0
0.352704251462448, 0.19933868880943195, 0.0
0.3446601249042501, 0.2938942457414051, 0.0
0.35450471988060533, -0.10969771777066832, 0.0
0.3443135191569204, -0.30811677111428404, 0.0
0.3514316197791831, 0.29836055680091356, 0.0
0.35261650783595444, 0.2607541951671078, 0.0
0.36805735376268445, 0.3265883199678805, 0.0
0.34830430392015455, -0.048158997575480256, 0.0
0.3638528364775152, 0.11570949276627533, 0.0
0.36055813447733176, 0.31246094098970656, 0.0
0.3512135648916069, 0.29121698548660285, 0.0
0.37168945474310744, 0.2704958987918429, 0.0
0.35143398949405885, -0.008812882245578357, 0.0
0.35276473039512013, 0.19794154793140908, 0.0
0.36105453552181777, 0.16840207047145092, 0.0
0.3495756364500678, 0.34449158460661294, 0.0
0.3562904655049144, 0.14702767887424087, 0.0
0.3473818378619038, 0.30643991935072107, 0.0
0.36351291472612335, 0.1984973842736995, 0.0
0.34662390845252733, 0.09112558869014493, 0.0
0.36991260186552677, 0.3604917978041695, 0.0
0.3456442467019837, -0.01670864220848886, 0.0
0.37442220110190233, 0.3222710849297746, 0.0
0.3447643921045005, -0.08343976947381306, 0.0
0.36017439046316124, 0.020565965175250448, 0.0
0.35304305844081024, 0.3341746141683787, 0.0
0.3481070738550046, 0.29161329626812266, 0.0
0.3609801651252134, 0.03342130563616497, 0.0
0.347519190974829, -0.07086706798058272, 0.0
0.36490289565824663, 0.15575675882236767, 0.0
0.3443469037741282, -0.09757213966527348, 0.0
0.34749640562638273, -0.20885305909950555, 0.0
0.34429967356521285, 0.2718786142389057, 0.0
0.35277890725420663, -0.04324731971231056, 0.0
0.3539254140318424, 0.28819475506300585, 0.0
0.3698775272917614, 0.22280199865414807, 0.0
0.34438207201908444, 0.20593538620481033, 0.0
0.34199135529078906, 0.2810709764598595, 0.0007037881663333932
0.34265830100252803, -0.01527060689672376, 0.00043719183556408144
0.34184774329947687, -0.18430201161886595, 0.0007611937831091232
0.3432053131043459, 0.18679404055903162, 0.0002185362288718705
0.34289263451302754, 0.2665225356172871, 0.0003435223614586604
0.3633819483395609, 0.36227457664377766, 0.0
0.040154467129513614, 0.3431033615014304, 0.00025928905593850654
0.181164083224522, 0.3437314842860763, 8.211304463667095e-06
-0.30458439377913876, 0.3423434461803835, 0.0005630478667692398
-0.026256919884491747, 0.3433937992859583, 0.00014319317840444658
0.17398106367402266, 0.34335859021592885, 0.00015726720079401217
0.34625025613757043, 0.34722363363353836, 0.0
-0.32352476594242185, 0.36506483300987813, 0.0
-0.14116288474480765, 0.3543980010658869, 0.0
-0.30735962097946123, 0.3483746318278102, 0.0
0.12866615158806866, 0.3695967036283198, 0.0
-0.1424415126590497, 0.3769010158412507, 0.0
-0.1557103743986024, 0.3572520831834977, 0.0
-0.3179542533713908, 0.3713912073976263, 0.0
-0.1534103158199549, 0.3763723045754087, 0.0
-0.0972496628385611, 0.3732298856476238, 0.0
-0.2709499182556156, 0.3577558357916647, 0.0
-0.26506921633877334, 0.37720092635023555, 0.0
-0.35629329504929624, 0.3657831762200768, 0.0
-0.1789601059663824, 0.35665428633262153, 0.0
-0.33545785136429596, 0.3779793877432642, 0.0
-0.2529122330174004, 0.3617982412272249, 0.0
0.06935677642076735, 0.3705838635790515, 0.0
-0.16424878350193967, 0.3616684134887207, 0.0
-0.1620399038405168, 0.3662883939436581, 0.0
-0.34744411299813777, 0.35247591483928065, 0.0
0.15530242515108686, 0.3741412792604795, 0.0
0.10217806111650837, 0.3780642391478569, 0.0
-0.3286208818243963, 0.35043644793269413, 0.0
-0.2948696803252829, 0.35525270840210366, 0.0
-0.3443551268363123, 0.3645923633370398, 0.0
-0.33887505245781024, 0.36398603722988854, 0.0
-0.03208400825009475, 0.3650995994081156, 0.0
-0.17923874661783107, 0.3687413277046374, 0.0
-0.05863863223693413, 0.36329896267381123, 0.0
0.32153215860931067, 0.3780065011775946, 0.0
-0.17756783952187713, 0.3616667865520774, 0.0
-0.022890741336342807, 0.3595785609115367, 0.0
0.2834054315203788, 0.3760829460396986, 0.0
-0.07917293389651585, 0.3687163512922411, 0.0
-0.2777183270985572, 0.3687987595251036, 0.0
-0.30187684455494823, 0.3682643668802719, 0.0
-0.01660839139553763, 0.37759323954992086, 0.0
-0.2868965277831492, 0.3711810318861254, 0.0
-0.1515986771103098, 0.37436156405681903, 0.0
0.09162430702771149, 0.37499984763161065, 0.0
0.14382156341832697, 0.36842517857049, 0.0
-0.0476822037111446, 0.36191675774548027, 0.0
-0.17400591803981622, 0.36490951044360853, 0.0
0.025225015360917376, 0.3653184374585315, 0.0
0.05022330824412058, 0.372425329159508, 0.0
-0.2480043998058584, 0.3772426128192899, 0.0
-0.07245761366710542, 0.36715343465040334, 0.0
-0.07499346652763615, 0.3599582485130965, 0.0
-0.1859894856790871, 0.3721999521417107, 0.0
-0.27761031958270166, 0.36877743237652594, 0.0
0.030349454391391147, 0.3629896100729619, 0.0
0.0942043018896116, 0.3759967420952237, 0.0
-0.07523647936944608, 0.36887590474891385, 0.0
-0.2690277895790377, 0.3503195580748016, 0.0
0.10128588023375035, 0.37031387173228325, 0.0
-0.11302971477953963, 0.3749024672364214, 0.0
-0.2024018624686335, 0.3614669653176962, 0.0
-0.18071234775257483, 0.36427830617938, 0.0
-0.1707669553574842, 0.3625242997974282, 0.0
0.06386246179635169, 0.37661458457152297, 0.0
-0.14665939457357793, 0.37419837200359274, 0.0
0.04419525225715213, 0.3668316229295031, 0.0
-0.2169197373979724, 0.35354892345793687, 0.0
-0.06942417760802132, 0.3713096188409689, 0.0
-0.1137788347642503, 0.3688768719562674, 0.0
-0.04319043934995423, 0.37651098555555107, 0.0
0.2084721917348331, 0.37541550127735773, 0.0
0.20573422711094191, 0.37629280928968356, 0.0
0.024400496786440108, 0.36699503617473656, 0.0
-0.2668660323100122, 0.36867577367825594, 0.0
0.12076904564561805, 0.3727992513916273, 0.0
-0.03155938143107202, 0.3595800090875979, 0.0
-0.2667283735508114, 0.3512140447849657, 0.0
-0.25355416715392465, 0.348757765873763, 0.0
-0.3597526299762176, 0.36794342393999213, 0.0
0.0028210145301084625, 0.36157510605941545, 0.0
0.18523761051229717, 0.370034871576281, 0.0
0.17523400211765558, 0.37349371451545776, 0.0
-0.24287312289650517, 0.3762278052572669, 0.0
-0.10628010641470917, 0.3719850596480796, 0.0
-0.1309503834276768, 0.366454428130366, 0.0
0.08083461271342496, 0.36579922510819174, 0.0
-0.3560974252417071, 0.3740234398371207, 0.0
-0.31758700424953984, 0.36340539477707273, 0.0
-0.22477346923681749, 0.35263411711301823, 0.0
0.11730012249611949, 0.37662571729184197, 0.0
-0.1666107290920123, 0.3714157183938722, 0.0
-0.3476187023364242, 0.35249192919896266, 0.0
-0.23800523998500675, 0.3730434762508678, 0.0
-0.09512110015854777, 0.3633538994633233, 0.0
-0.03266969801672891, 0.3705150240360889, 0.0
-0.31172004068445386, 0.3711522329964315, 0.0
0.041258684345809, 0.3628449573209594, 0.0
-0.29762619503977794, 0.36830231477032693, 0.0
-0.15507647244309614, 0.36116074852456737, 0.0
-0.1275525718431342, 0.3570248140650078, 0.0
-0.31950126830892805, 0.35168060593696554, 0.0
-0.17367464141633537, 0.3682299265648775, 0.0
-0.11142888651228752, 0.3808696933895973, 0.0023081475930275515
0.2915095415851876, 0.3805301229657732, 0.0015498627991949862
0.0451203427151316, 0.38060375682960584, 0.0017028700488703806
0.2791947280567969, 0.38080008339525273, 0.0021748296145311075
0.3057253086926788, 0.38046603322837125, 0.001402304202067545
-0.17357409080454658, 0.378859174541378, 0.0002551773375433241
0.17564607450148148, 0.3796900009476683, 0.00057885386015217
-0.2883565165565025, 0.3788844679064701, 0.0002620906432995768
-0.2997513314406099, 0.37969754919846965, 0.000570573505902883
-0.2324521478642577, 0.37979895464008284, 0.0006106579927659885
0.23471904745561276, 0.380128522642253, 0.000746758073625307
-0.3470385638239945, 0.051202859588351704, 0.0
-0.3515277883314212, -0.2217260072862514, 0.0
-0.34852980447371207, 0.07363677353755967, 0.0
-0.36015301827391166, -0.11348292578814984, 0.0
-0.3693396592377651, -0.23356518482816974, 0.0
-0.36871601831705647, -0.17927710966983632, 0.0
-0.3460211262663782, 0.08755471901532637, 0.0
-0.3490983829419494, -0.005438394639375441, 0.0
-0.3586532269112761, -0.34574416362408555, 0.0
-0.35546676915693043, -0.07394223601904544, 0.0
-0.3712961151904371, -0.36746449480830057, 0.0
-0.34913087501750983, -0.324691899992005, 0.0
-0.36826348766830147, -0.2762488492007094, 0.0
-0.37067159909286373, -0.21907120426176305, 0.0
-0.358494107999946, -0.08387600029703715, 0.0
-0.3591585929114073, -0.06483449551981246, 0.0
-0.3531837469539625, -0.00016683208639219071, 0.0
-0.34763551539684906, 0.027021783112619616, 0.0
-0.3486437668451, -0.06416265098609493, 0.0
-0.3443874931009443, -0.2594596786883809, 0.0
-0.35244191833094396, -0.11765050421512636, 0.0
-0.3528065906427846, 0.011999085400390228, 0.0
-0.34759760220101177, -0.20384120585439697, 0.0
-0.36634153256624524, -0.21742611028914094, 0.0
-0.34440638277950364, 0.03238685735529362, 0.0
-0.3459558886497512, 0.047102988775947915, 0.0
-0.3563894035178408, -0.15234026537207374, 0.0
-0.34937076830525815, -0.18223823980352155, 0.0
-0.35497949633756953, 0.09730930438039263, 0.0
-0.36245002519864955, -0.29439258348842023, 0.0
-0.35308381839679503, -0.24013448307664526, 0.0
-0.34590641000305955, 0.15536131234609135, 0.0
-0.3532425404700831, -0.28621981570044297, 0.0
-0.3563687791851185, 0.06163390292657054, 0.0
-0.36803035691262787, -0.2560227165134481, 0.0
-0.3641217589351599, -0.0832096561272083, 0.0
-0.3469168207127876, -0.06212702981427669, 0.0
-0.3674858116589993, -0.15366168325895763, 0.0
-0.34885317855999676, 0.10466540940612974, 0.0
-0.3560541747559104, -0.1802600310672448, 0.0
-0.36507212745178924, -0.3469312906710547, 0.0
-0.3666376795831534, -0.2563123358039807, 0.0
-0.37191430496500744, -0.30765660126385697, 0.0
-0.35695492648400284, 0.022265085659834764, 0.0
-0.3559841324940309, -0.0873558143688037, 0.0
-0.3581071014167639, -0.3532077621335087, 0.0
-0.36583349166327767, -0.24572117366796606, 0.0
-0.3579396933994914, -0.2895790503683489, 0.0
-0.35570956326913594, 0.016692141566979263, 0.0
-0.3533361253129993, 0.03645489627437344, 0.0
-0.35467979124088417, -0.3292617555059434, 0.0
-0.3464925417151349, -0.17163255886857812, 0.0
-0.35047704221838727, -0.27737370971619546, 0.0
-0.36128525721661353, -0.2525303575993941, 0.0
-0.35245012295406836, -0.10082514969902631, 0.0
-0.3661108296699418, -0.2929290765384258, 0.0
-0.36074875884229884, -0.10024348195776633, 0.0
-0.3451714496208942, -0.06301976704382739, 0.0
-0.3494206735479195, -0.026494040717732495, 0.0
-0.3564388261113578, -0.23953170487904532, 0.0
-0.3547778379351548, -0.33265449189776763, 0.0
-0.34879199804136135, -0.3392183114123138, 0.0
-0.36113459127997555, -0.3265439728121453, 0.0
-0.36077193289918613, -0.3047728961411496, 0.0
-0.36316788792219024, -0.1303802563672865, 0.0
-0.34804305327545526, 0.17947607259946224, 0.0
-0.36627781486936944, -0.33523385101219505, 0.0
-0.3697588566728693, -0.24207583896406631, 0.0
-0.36111787188823213, -0.14425077498795047, 0.0
-0.35050745898729463, 0.06427673558851041, 0.0
-0.3501935956413803, -0.3409486029521448, 0.0
-0.3457615231337351, 0.24746387354005459, 0.0
-0.3613614446583806, -0.09148896492144531, 0.0
-0.34511730894951653, -0.0379381425883526, 0.0
-0.3507732216728687, 0.04828658449535593, 0.0
-0.3459812106346408, -0.040620054593108273, 0.0
-0.3595695551571147, 0.010822236090344547, 0.0
-0.3624416520661251, -0.158514509516697, 0.0
-0.3513312639532762, -0.22345926438602137, 0.0
