0.04501964302062362, 0.040477625081758915, -0.07625801383434279
0.0511886760076781, 0.05778573691675244, -0.07190608779182187
0.05325890308838407, 0.05197166462025577, -0.07052138693736405
0.0449798256617627, 0.05576471154750981, -0.0759867810279073
0.04811958519987709, 0.058889586663555316, -0.0739694569396763
0.04634955685618529, 0.049211458628226706, -0.07529586236536714
0.04722001760441316, 0.04907876293940833, -0.07475352587046775
0.04551748158659043, 0.039421727131979015, -0.07597805670969965
0.05159157733624751, 0.04360345044739279, -0.07191659584983127
0.05191141187447562, 0.05018061940521037, -0.07155772383103061
0.04954346535365539, 0.037766811003682135, -0.07344647894439216
0.02594123760806958, 0.1290640932012826, -0.08327722654188957
0.024782470046794083, 0.13057182314436924, -0.08362096119491133
0.021168078891913154, 0.11640233422333651, -0.08471022061518746
0.024654693777883124, 0.12466551435190752, -0.08369540266859316
0.025200941220533735, 0.12145040881946631, -0.08355940610614278
0.025739952496806592, 0.1164007650887813, -0.08343703423718653
0.018936993293446218, 0.12604160075858878, -0.08516255356939646
0.018425823063884877, 0.12992504159177037, -0.08525093553124544
0.01641712369020919, 0.11726839737042366, -0.08574923552781175
0.018218279041003253, 0.12541897236402583, -0.08532190424834506
0.018255123479881254, 0.12039563141296318, -0.08535150799022091
0.019445978543258503, 0.1139910895682813, -0.08514626084864954
0.019326738915350236, 0.10601529542414138, -0.08526463337506776
0.016772373779376223, 0.11078532013544684, -0.08574685325902988
0.018671301446611846, 0.10815905911589982, -0.08538755903989173
0.014737644722289014, 0.09010011080337274, -0.08640936819230552
0.017986788110503128, 0.100436468240096, -0.08563205779627682
0.01550971626521028, 0.08603457358124555, -0.08634743919943474
0.025852981242840044, 0.10842985307724175, -0.08348946710778189
0.023987410922235275, 0.10630513423477207, -0.08407182470904412
0.02541494126955491, 0.10127307452689796, -0.08372249281581223
0.019338489697809557, 0.1081770642310551, -0.08523548667613762
0.021948691068505624, 0.10700782234847012, -0.08461885528184104
0.025296310618009413, 0.10973558452939394, -0.08364641433497916
0.018778479140280403, 0.09322918863151534, -0.08557560145678039
0.019330566067790843, 0.09110897097125678, -0.08548269712951272
0.025794780290182943, 0.09671460530272208, -0.08367096238223048
0.02407608518438742, 0.09857868670172786, -0.08415286706832824
0.025252521752694698, 0.09679371022123313, -0.08383641776164615
0.02557727565617798, 0.08657584188930101, -0.08391041609218046
0.014018627849966435, 0.12826580411868496, -0.08609340015844691
0.009461045072011738, 0.12579386625906228, -0.08672736937691389
0.008134429702432134, 0.11617249996735315, -0.08693809220404161
0.008734985918264642, 0.11852177430273497, -0.08686095153021027
0.011764258307110875, 0.11749307210467864, -0.08651065674753651
0.01372035269764225, 0.1168258368820936, -0.08622866098187694
0.0062071172514738225, 0.12627159671756624, -0.08701859150609488
0.0032781915519230903, 0.12422008968996753, -0.08719518516517309
0.00763400554366617, 0.12300074692600799, -0.08692644926811581
0.006680541576648267, 0.12420652313782518, -0.0869997636283553
0.004196911865531165, 0.11371792680149928, -0.08724131624224904
0.006427094123383348, 0.11356223291460493, -0.08710741613878814
0.0019321922721504182, 0.11007897732205621, -0.08736114805925935
0.001029917546093231, 0.10852947718207925, -0.08739283447595407
0.0027594076503046254, 0.1017977735824316, -0.0874402325461867
0.0031848444425123376, 0.09365071414448278, -0.08754655342542966
0.0036688295750672505, 0.09490518576114162, -0.08750838177702114
0.004217038802936192, 0.09328373194026632, -0.08750625573571819
0.01457013723685705, 0.11328589337309367, -0.08612101784999202
0.010858883429522693, 0.1002042246333534, -0.08682767548184608
0.008819832858916032, 0.10818825275343474, -0.08695703973300564
0.005224457838536606, 0.1058774467456155, -0.08727678462234147
0.005192327893475086, 0.10368331561500006, -0.0873066927666
0.008720466187035307, 0.10217420092433618, -0.08704413084549958
0.007410702447167822, 0.09379994676659008, -0.08728559574446863
0.006018984496965304, 0.0887764542170447, -0.08747378235739084
0.012349722109302288, 0.09720605162527465, -0.08667188805804059
0.01088211286232122, 0.0965776487792861, -0.08687720008325299
0.009268680049069724, 0.08994062457143828, -0.08716893222819055
0.014715253422502086, 0.0918263381278284, -0.08638426011903645
0.01369710509242603, 0.0811578667754401, -0.08674277368677609
0.011712940453399559, 0.08547866800738603, -0.08695172471289078
0.007093565060308139, 0.07180110777900202, -0.08770901012941995
0.010213383058708373, 0.071326814014016, -0.08740970059374818
0.00821374420847448, 0.06367783319505022, -0.08776875390683193
0.01364952645377793, 0.07192435496393668, -0.08692750421882782
0.010778944227706623, 0.06236977774244861, -0.08751550159868929
0.008565010174860728, 0.09115548316512495, -0.08722415127613614
0.006261426726301866, 0.07931423740457309, -0.08762586251205412
0.005284083344721998, 0.07566048047017994, -0.08776285892750203
0.00015253836430616013, 0.08102582668667258, -0.08782122035187684
0.003667222631082931, 0.07838812895333111, -0.08779256871494717
9.674611117777034e-05, 0.0688727778291446, -0.08805458322302057
0.008489574080534912, 0.07707763183610077, -0.08748243563333107
0.00553815180693597, 0.07193267977590248, -0.087817670470188
0.004817566151450357, 0.06607987059443896, -0.08797474440799893
0.007975674439322941, 0.06571483417551406, -0.087750028662926
0.0035313805817393665, 0.05040579342342337, -0.08832942345218911
0.0050558525395692396, 0.0634396046336037, -0.08801444616590197
0.0010512322747612485, 0.05571085708961395, -0.08829675113735827
0.00025677186105316707, 0.043557471128988015, -0.0885099483492334
0.006502986343771897, 0.04742510435737614, -0.08820668836757903
0.0054980354857046155, 0.04054862049530912, -0.0883841274625198
0.010800325848190472, 0.057110042353878045, -0.0876136679768813
0.008709901791261672, 0.05532365635464106, -0.08788122063527529
0.010089962640824532, 0.05745287723135923, -0.08769303435472592
0.009529810904969488, 0.052550364247213495, -0.0878420228185217
0.007987724108111523, 0.04747457588064691, -0.0880825925196637
0.007202154804074717, 0.04250725234940615, -0.0882314444653963
0.010735260435139404, 0.04586142187071023, -0.08781793065060495
0.009316062060278005, 0.03771950409811703, -0.08810120996068287
0.02847768870715055, 0.08773972817447127, -0.08294886764388834
0.024570097931445573, 0.08420455611708563, -0.08424978123011245
0.02869950004572871, 0.08134686248261064, -0.08299385581676394
0.022631425483100365, 0.08262164045182113, -0.08482178007395405
0.02082584453203249, 0.07367286736514086, -0.08545748829406383
0.02366782605389456, 0.07373130978197882, -0.08471460507594569
0.021629964004777402, 0.06152669859671029, -0.0854995132711993
0.025231574367829992, 0.07581592572694337, -0.08421965652421527
0.023031968223329306, 0.06161093745565999, -0.08513104922953131
0.02395441871248539, 0.06222470392258269, -0.08486837390750897
0.020014028613030053, 0.08277516803074875, -0.0854735449664714
0.01761504168646827, 0.07662643771934557, -0.08611651459748135
0.01931735834621522, 0.07456206545073261, -0.08579202650125328
0.014339229174350166, 0.08510006907275625, -0.0865623879442946
0.014789132541754952, 0.08146363676639168, -0.0865539300869726
0.013840694223148603, 0.07347055736529938, -0.08686726663879091
0.012589882029247882, 0.06658999787818731, -0.08719004218573062
0.01442463521783733, 0.06711632383921316, -0.08689447452665408
0.014568825493466874, 0.06169644518076729, -0.0869766637675381
0.01821200853037469, 0.07502940979332345, -0.0860233745214466
0.017596396529669652, 0.06606128246154772, -0.08633042184385303
0.019537626029552422, 0.06483633738588984, -0.08593596671885045
0.020200937418057275, 0.06112314828268196, -0.08585692474893501
0.018285864543252206, 0.04930879927259362, -0.08650168781852255
0.012164155389303946, 0.05137880736391792, -0.08754065343235519
0.013644229479972465, 0.05091883328340691, -0.08732908755980781
0.018258512338473216, 0.05270504036967112, -0.08644776091988628
0.014212230049723112, 0.041512880621405915, -0.0873902720992635
0.016939055527705756, 0.042836492154275756, -0.08688280009046075
0.018472032069046115, 0.043806153746322594, -0.08655416385457222
0.01991647275196797, 0.04162343630011138, -0.08626696708836026
0.024227722414412647, 0.05559044438839224, -0.08491812298542692
0.024513040633422224, 0.047621987403934016, -0.08497839132080752
0.025310744296600893, 0.06029973208963062, -0.08451000940965496
0.02320023405155234, 0.05940963379778371, -0.08512898380894021
0.023515259276809964, 0.05521413993834223, -0.08512377088954903
0.025117907349221022, 0.05340593645629109, -0.08469845023575148
0.021460944457786277, 0.04380319946827019, -0.08586195589965
0.023810511465982946, 0.042594654997219185, -0.08526240426552699
0.02289264159874775, 0.04414459266160918, -0.0854869013999599
0.024234183732028406, 0.040095079875488264, -0.08518278838089229
-0.0012422297300084323, 0.13135399568934675, -0.08720343546576348
-0.0006890773726816559, 0.12378223943128114, -0.08725465873936501
-0.003676141188456029, 0.11710798508898065, -0.08723398202496778
-0.0005390891062694633, 0.12592908137150693, -0.08724175054383869
-0.0032488217937658593, 0.11952621475358399, -0.08723167976746853
0.0014959257261015439, 0.11822261626853409, -0.08729005526561154
-0.007594375099987665, 0.13069765866023556, -0.08688235744256269
-0.012765530443905269, 0.13104430489895008, -0.08627158610128592
-0.012751244714069776, 0.121809417700277, -0.08633232027178012
-0.007898056284175869, 0.11902687076181682, -0.086934663372841
-0.0111632893654838, 0.12157403976254413, -0.08655406149498823
-0.007604289454381874, 0.11151585625860028, -0.08703171605531881
-0.008415799320259647, 0.10008901491377992, -0.08710278123229659
-0.011544873371700879, 0.10485381591478121, -0.08667595371436085
-0.010429001757014361, 0.11002094318827227, -0.08675716389211124
-0.01267426298839586, 0.10370869456870825, -0.08653230358507
-0.009048123215472765, 0.10390790490044033, -0.08698465009233344
-0.009011430147214516, 0.0919554343326323, -0.08716351842979905
-0.007466710458560721, 0.0858762907315341, -0.08741151105561062
-0.002584359460336485, 0.113977017427358, -0.08730167924625885
0.0013840716407002795, 0.10892225937472373, -0.08738464507796712
-0.0030781792990535375, 0.10828331591011338, -0.08734859114666996
-0.006339594547675496, 0.10868601932040042, -0.08716618556340923
-0.0034324329137468005, 0.10166259361523042, -0.08742213240434059
-0.004445602277383128, 0.09918060598607467, -0.08740621658171271
-0.006814119017891241, 0.09611393209289382, -0.08730179562195328
-0.004931393253038459, 0.08580766587926036, -0.0875947496934453
-0.00227099793219083, 0.10384728957076658, -0.08742661132438678
-0.003574195789247602, 0.09501550927728669, -0.08751136121387634
-0.0010074739149813438, 0.09546747934615224, -0.08756913401428097
-0.013643267023731752, 0.13125979000520827, -0.08614016083522935
-0.017167109073243383, 0.13045463768344714, -0.08551101057665166
-0.01735354656510071, 0.11142110796574814, -0.08562455077251659
-0.016210783413782067, 0.12626053668834658, -0.08571913975537838
-0.016186568438445816, 0.11232954482756151, -0.08584171874932443
-0.014409973168803812, 0.11285323431611766, -0.08615238333664793
-0.023269473386116436, 0.13155208736919324, -0.08404934351293189
-0.025428024813475475, 0.13143811626166088, -0.08342491018214329
-0.02588417025677672, 0.12204772472574962, -0.08334264866785335
-0.02091567245163529, 0.11763842003054996, -0.08476242477595493
-0.02228750279025671, 0.11129514832781769, -0.08447776337487786
-0.02187720350524453, 0.11447632528941822, -0.08455256727246482
-0.0210558930742702, 0.09962662083396948, -0.08494195508976231
-0.025757468082407062, 0.11254053289377147, -0.08347182103414497
-0.026096121416954485, 0.10914780306994404, -0.08340417039058134
-0.025505094223572534, 0.10182384855011789, -0.08368629342268336
-0.022478484655366116, 0.10207877558481103, -0.08454317983834175
-0.023402268110094188, 0.08725626414085108, -0.08452829736395596
-0.02202934427802633, 0.08944649161594026, -0.08485992287150376
-0.015526754961391564, 0.1152894335994405, -0.08593619030115023
-0.014643271430578138, 0.0987564123187347, -0.08628969816453178
-0.019724453509696076, 0.11661521911466827, -0.08505559980632386
-0.019665295866767456, 0.1014306118198784, -0.08524866257555945
-0.019115645198414882, 0.10873834460453485, -0.08527977922763418
-0.01825223110503655, 0.09227364323292109, -0.08570062627540989
-0.021660948539721912, 0.09764153929695704, -0.08481923649262404
-0.014375293280741353, 0.10329015805910638, -0.08627181754269964
-0.015244799356403244, 0.09358137654077651, -0.08626775551919633
-0.017242957106210058, 0.09695671708852381, -0.08583800731384472
-0.015033869859455228, 0.08493699668417294, -0.08644822148746004
-0.01668875006743161, 0.0901387688912908, -0.086054342325851
-0.017412913443446035, 0.08842243941477713, -0.0859411495906191
-0.01765608744614114, 0.08277760726003638, -0.08599082618224475
-0.020017652912495295, 0.08323992560176426, -0.08546391123649058
-0.018200561131737864, 0.05932183479444751, -0.0863367083061339
-0.01603537579676321, 0.07594150363425027, -0.08643743628902827
-0.01647398651163552, 0.06073102467756409, -0.08665500363690906
-0.020981512753999464, 0.0876793851873078, -0.0851529724839243
-0.022444198479707723, 0.08896979004868796, -0.08475804409402074
-0.023097711005881115, 0.0844910221772748, -0.08465950595680602
-0.025418299150670096, 0.08199388637511934, -0.08404435821279618
-0.02377122630678622, 0.07647769383117596, -0.08463149025360417
-0.025656393511942113, 0.07252303496441731, -0.08415939525397512
-0.021406281040053193, 0.07625880744805678, -0.08526066184255252
-0.022926251518947872, 0.07734727035988542, -0.08484320439668934
-0.024114819261151065, 0.0666587158469653, -0.08473193118619987
-0.02153374433253271, 0.05819243515428506, -0.08558927377529332
-0.022773073860817235, 0.06284488239403947, -0.0851768658655406
-0.022998260886622126, 0.05336513172676068, -0.08529823923841816
-0.023956310518813275, 0.045454835733589743, -0.08517739507118974
-0.025493197308080775, 0.04417569630356417, -0.08474992002770719
-0.023071525364443506, 0.04843568153207092, -0.08536609644258633
-0.02335663080069179, 0.04146074803062254, -0.08540339845694937
-0.015786898122286015, 0.06377817625889332, -0.08672535581049431
-0.016067304997661257, 0.056166045321745295, -0.08681886826577179
-0.019597106626737908, 0.06326806131824436, -0.08595348232454764
-0.020960130825656946, 0.054354254360792484, -0.0858044831202507
-0.020096707710347782, 0.05619856686910542, -0.08597584761335007
-0.020977709187200405, 0.05092265763882682, -0.08586304108762882
-0.018390967205707112, 0.036118663497571014, -0.0866848860733892
-0.01760936947188414, 0.04932718107362138, -0.0866427540148817
-0.016026362282226824, 0.04165296355991523, -0.08707328672185986
0.00044943189163192284, 0.0858683729624245, -0.08773078057087243
-0.0008714310134125126, 0.08120171806725, -0.08781084354605052
-0.0031248957077610936, 0.08028230221952669, -0.0877778949735573
-0.0056984257800114044, 0.08790821271074306, -0.0875106818472309
-0.006122519598189508, 0.08163717043402795, -0.08759240151986326
-0.0058417031092738185, 0.07003374682669725, -0.08783371714026014
-0.0006564691218384129, 0.07374575637021367, -0.08795428087556867
-0.0046974962202766864, 0.07709699452027069, -0.08776611162898071
0.0012534844161246083, 0.06496876532856628, -0.08811954767705923
-0.0011202743526144956, 0.05890324666916563, -0.08823719621416218
-0.009979305728378528, 0.09098537764123268, -0.0870739605924236
-0.007016919847353564, 0.08246011690722446, -0.08751280297454857
-0.010257785768133068, 0.07896689592311869, -0.08725725003998613
-0.013303357122352658, 0.08264060253825728, -0.08677348887467855
-0.014854536596890322, 0.08250273521919108, -0.08652344522283711
-0.011762278766510205, 0.07610340081097071, -0.08712010408517083
-0.01394249724068682, 0.07581520095577823, -0.08680410489935698
-0.013143799905268073, 0.060372357596629726, -0.08722916919687712
-0.006678629684305704, 0.06506269283766564, -0.087873422680111
-0.009292712714091326, 0.06488678285760562, -0.08763638838983465
-0.01160144654614651, 0.06950847603359869, -0.08726979320949352
-0.00971702524589148, 0.06951303399381613, -0.08749922494480941
-0.008171758158058127, 0.0492565178295803, -0.08803658317982782
-0.010830903404709252, 0.05927820886105124, -0.08756839321308799
-0.01369127794283853, 0.05308815558336448, -0.0872832026381559
-0.010979092598160732, 0.05383388830774181, -0.08764974456331406
-0.012872857245513972, 0.050542495964460726, -0.0874498870423753
-0.013438496663268696, 0.03818344353811788, -0.08756118950197594
-0.007977733713328451, 0.04166614673359001, -0.08817541774664542
-0.00910173364199565, 0.03506273365855056, -0.08816094160395696
-0.0011022060609174006, 0.0633645235701128, -0.08815215552774093
-0.0025552481485345228, 0.06393888366079861, -0.08811051869488631
-0.0019428098267195598, 0.053419160121482664, -0.08832478312846162
-0.004492275503143704, 0.05471522542218292, -0.0882057971069096
-0.008102833433656052, 0.05649390972607727, -0.087915243598893
-0.003748771137026325, 0.055708827985671464, -0.0882247342151188
-0.005494797148449597, 0.049350980689751536, -0.08824432198031466
-0.007678516405632503, 0.04431015323024727, -0.08816160677068374
0.0003532813712220573, 0.04544033077947759, -0.08847996984807659
-0.0037731148734656576, 0.04948877380874757, -0.08833274223175858
0.00118656511540193, 0.0352066371336291, -0.08862076089362247
-0.02672894292573034, 0.12234671728950641, -0.08307493844720633
-0.029937575098348358, 0.1251226696954651, -0.0819528748280169
-0.03235567474922091, 0.12527398088941874, -0.0810252292290195
-0.0280730677859772, 0.11957412168580162, -0.08265257347094387
-0.03034470152768414, 0.11965584337543841, -0.08184728647035075
-0.029157030104376945, 0.11985666076437038, -0.08227368576094451
-0.035017335377881514, 0.1285502560687917, -0.07989127876187332
-0.038261377098858185, 0.1291124387502737, -0.07838400969450303
-0.0385535664402034, 0.11959165687172682, -0.07831210856751833
-0.03578606884108896, 0.12648113551332812, -0.0795594562714222
-0.03638581550009832, 0.11582808696767684, -0.07938053574281281
-0.034561693952318354, 0.11463159977612851, -0.08020308820844202
-0.03519393984176472, 0.10520720962845242, -0.08004398597635398
-0.0391759029605718, 0.11513340483162293, -0.0780465531510768
-0.03825513710240051, 0.10705258556610726, -0.07860236775019608
-0.038278877006996184, 0.09955135950275848, -0.07870030474159152
-0.03574376001570614, 0.1044676329882007, -0.07980664447111857
-0.036055882813735285, 0.0882899493451276, -0.07993241251884994
-0.03398906873514863, 0.08520034077244745, -0.0808911922670157
-0.028575001936704647, 0.10622621694861023, -0.08262820676651211
-0.029826666565424608, 0.10911672740897933, -0.08214502015416023
-0.03317228583694207, 0.11658562650374363, -0.08076832715919373
-0.0328641438384589, 0.09846489764663807, -0.08112464395190112
-0.03006592109922356, 0.09875601601070791, -0.08220145941167234
-0.03144192331856467, 0.09316899264040435, -0.0817736829029265
-0.033375459514493035, 0.0900630213765341, -0.08105910032274363
-0.03297519204665447, 0.09694766423448765, -0.08110421132510054
-0.027738004501011323, 0.09147559865728683, -0.08313079932388734
-0.0290328701246225, 0.0851191498310174, -0.08280297510488088
-0.029810592358593485, 0.097788061944879, -0.08230735666752909
-0.040591712007518425, 0.13060501109282235, -0.07719163284299622
-0.044039035641686555, 0.12591499965172565, -0.07531392877620494
-0.04344780953530731, 0.1128708590427393, -0.07577732085806571
-0.03974506996582216, 0.11671369111536352, -0.0777434281667566
-0.04229525269427096, 0.11140589892291353, -0.07644409627515178
-0.04084601847084659, 0.11246172972542293, -0.07721651889690626
-0.04699626035279149, 0.12364992111751627, -0.0735243026944888
-0.050105838541639636, 0.12909336889289616, -0.07139824766030488
-0.048686345993717656, 0.11120517628915715, -0.07254770937367454
-0.04703382597610252, 0.1217737959328505, -0.07351650653623283
-0.04469116044994921, 0.11182471238432232, -0.07506364924120623
-0.04596702178896298, 0.1109907517703641, -0.07430052168245498
-0.0461778346993963, 0.09934423179919237, -0.074342661630588
-0.04999605381648123, 0.11365255856076345, -0.07162324089801539
-0.04983815839884424, 0.0998222258556919, -0.07193525011516175
-0.0494396310823266, 0.08779054676923531, -0.07243405037378473
-0.04732949096382649, 0.10267825704766406, -0.07356312220483777
-0.04858442954101294, 0.09005135731526827, -0.0729677012610756
-0.03925190904168727, 0.10471059161780111, -0.07813788264450028
-0.041074282113921, 0.10789860166911094, -0.07715493813686287
-0.04168372983846799, 0.10857598539627535, -0.07681560066189884
-0.04418015680164385, 0.10880944844374525, -0.0754088455441902
-0.04495743630772812, 0.10050595171470177, -0.07506727645037474
-0.04391939887653437, 0.10138018864387113, -0.07566668899146264
-0.04386254014884823, 0.09183994259752419, -0.0758617247135577
-0.04664546566600187, 0.09630086154824319, -0.07410246857986842
-0.039482665081618136, 0.09636432514043056, -0.07815352921975163
-0.040995998232696056, 0.0950736834308291, -0.07739272847369895
-0.04256703509738072, 0.08868968173207446, -0.07665717367639366
-0.04156600341207394, 0.09497814492283824, -0.07708988625219758
-0.04134417049601148, 0.08370497567721613, -0.07742310083416698
-0.04175679065087866, 0.07820238153789441, -0.0773141758067506
-0.04328730445663724, 0.08025898723026227, -0.07642406580612846
-0.04582438398485874, 0.08447376836475944, -0.07484298616210973
-0.04457577045117371, 0.05941675196716625, -0.07614881726908149
-0.04305912672538863, 0.06529125675881495, -0.0768874588594908
-0.04391194548355541, 0.07004503818515673, -0.07629180077796324
-0.04649699331256456, 0.08779628694687538, -0.07435617004547611
-0.0462757655264128, 0.08399912744067381, -0.0745715498595548
-0.04625304513236673, 0.07167657155094928, -0.07486080449076712
-0.049807665823442406, 0.07977825260826985, -0.07235626297549555
-0.04808545054102, 0.07123422842990541, -0.07370614309528262
-0.04910471232052532, 0.06400756216103641, -0.07320496651102715
-0.04707565019996798, 0.07683986474867716, -0.07422787029730481
-0.04768078002220299, 0.07358940887584298, -0.0739161971590604
-0.049679599383016755, 0.06955676176599944, -0.07268130490474989
-0.04825331642010622, 0.06823239572980555, -0.07366648333235924
-0.0472974987437233, 0.05302859296537976, -0.07462484308690132
-0.04992567535058271, 0.0625993333022746, -0.07267746743333128
-0.04909922981566993, 0.04792275784216307, -0.07356051565772505
-0.05151553914347552, 0.05092902668978399, -0.07182419227722896
-0.047170814435003434, 0.04279497962322503, -0.07490351755246795
-0.04936117938989035, 0.044690953689062576, -0.07344698135328402
-0.040571601054483326, 0.05155684483867767, -0.0785123203582378
-0.04404510143622347, 0.06256315852910425, -0.07638350005424037
-0.04551600705689599, 0.06309983145519661, -0.07550465785092676
-0.046742128828614046, 0.056749994218475326, -0.07489405928126593
-0.04579882758721002, 0.05697465694874932, -0.07547097625660197
-0.046425726402581136, 0.05097009792964752, -0.07521377570935309
-0.04422761215875235, 0.03565247055169646, -0.0767952740607419
-0.04366430638770551, 0.05080517600304271, -0.07685056638000258
-0.04162192565212571, 0.034817005471017, -0.07825338482162034
-0.028468450564228604, 0.08288542643881289, -0.08304147104352272
-0.02607230917471809, 0.07282223401648469, -0.08402272197064946
-0.03019769594986902, 0.08341398765366075, -0.08241848205974901
-0.03133135438169722, 0.0782277066531469, -0.08209399986738508
-0.031029915706219952, 0.07084848298624656, -0.08236100724631432
-0.032419666308348916, 0.06871751832756656, -0.08186959076194195
-0.02648147020286703, 0.06459267408143277, -0.08406261018352879
-0.029639854642158653, 0.06534588483966945, -0.08298571296468112
-0.026679707190921373, 0.058552922534297266, -0.08412157500709547
-0.02942081617010151, 0.06807926932298249, -0.08300730655031013
-0.034677950926905794, 0.08151654655028115, -0.08067063427511838
-0.03522791647396367, 0.08414341243436951, -0.08038217265035529
-0.03750275577491717, 0.08992923987324859, -0.079232742252556
-0.04019396292318482, 0.090830449942145, -0.07788574821923397
-0.03887403627500884, 0.07213235107368626, -0.07893270636672065
-0.03862831560563144, 0.0816086778140517, -0.07885379622770963
-0.0401052231883975, 0.07605155025848663, -0.07823095543439054
-0.04049112829685181, 0.0701392363739169, -0.0781588361048319
-0.03288603650791358, 0.0641698514768006, -0.08177758758604622
-0.03790095803304837, 0.07720338113378165, -0.07929591497770272
-0.036788118373993046, 0.06339310596479722, -0.08011677044569536
-0.0344412324148156, 0.057771093485988814, -0.08126738814815554
-0.03542036709737623, 0.04761054366161835, -0.08104320997200046
-0.03645716711993098, 0.05387160195552499, -0.08046008265908747
-0.04003459163936588, 0.06349166077327813, -0.07854358929300327
-0.03650640287627281, 0.048498384729615415, -0.08053956403880033
-0.03848758898595991, 0.04461309365037029, -0.07968496681817656
-0.04078724956052811, 0.04507265604076171, -0.07852163968758238
-0.03573464677197845, 0.04724298416919538, -0.0809092223382635
-0.03690513901110898, 0.03472218236910236, -0.08058664338775445
-0.0265783835832742, 0.05182119012327349, -0.08428094450164648
-0.02743530068174482, 0.05674672814595988, -0.08391626365150912
-0.029372941157437153, 0.05377797223635098, -0.08331188448784159
-0.03243305972887851, 0.06309389035018803, -0.0819824070596861
-0.03360083296506293, 0.049470454045667835, -0.08177947418461169
-0.032133036720357666, 0.046769479473499964, -0.08241695433811223
-0.033622694292179366, 0.04391777718535247, -0.08186814962732653
-0.03207025349333166, 0.03827345766405172, -0.08257914970843588
-0.029769841181972533, 0.04970184809100331, -0.08324523463254066
-0.02970329130877906, 0.03551639361342471, -0.08349797801164631
-0.028857721331369397, 0.034959794739050656, -0.08380474260849292
-0.05240249716296709, 0.12414384495874584, -0.06976856540909736
-0.05561976959718084, 0.12852136540605932, -0.06719409532439405
-0.055749974981730795, 0.11899517871034895, -0.0671729653363772
-0.05359045999990951, 0.1261744339917727, -0.06884143119608097
-0.0543366441088812, 0.11967008379343522, -0.06831540856652013
-0.053245059157530104, 0.12139806203184073, -0.06915050493672362
-0.059386304888208744, 0.12870132146610352, -0.06388774762948071
-0.06108556112775805, 0.1260813942115849, -0.062284008111360874
-0.05636433498804467, 0.1206573878053094, -0.0666405184823989
-0.05921610944960164, 0.12039483509974419, -0.06412525907526204
-0.05699730791094022, 0.11904786444680646, -0.06611724810923243
-0.05819912574416617, 0.1123966746462447, -0.06514607252544231
-0.05995984572456977, 0.11478974209112588, -0.06349291702377666
-0.05964429362172197, 0.10668051164298296, -0.06391240842921826
-0.06062784890855384, 0.10893104939231843, -0.06294597952321974
-0.06080735327886205, 0.09724845296821166, -0.06298493726054177
-0.058997072556610464, 0.0948077339698234, -0.06473177093452108
-0.059300244821152294, 0.08690281028301611, -0.0646302909199782
-0.05161921900534579, 0.11548646928315248, -0.07043719456344734
-0.051992215874143356, 0.10969425821022254, -0.07023485536882122
-0.053353242004039264, 0.10576480219692241, -0.06926557190203754
-0.054847017151593985, 0.10780826570424591, -0.06805695994730826
-0.05621566968902094, 0.10117105152776305, -0.0670413651649536
-0.05505400350142041, 0.09893872700054271, -0.06803886394386616
-0.057233850660451197, 0.10256206902469985, -0.06614925037844764
-0.056515858926712695, 0.08682907905652448, -0.06707981977685501
-0.051299604019455824, 0.092186321281604, -0.07104160635847584
-0.05412859373612328, 0.09254279021139608, -0.06890399126971267
-0.05150735920203375, 0.08892621249217408, -0.07095993788569628
-0.05210525098930843, 0.08488190246353626, -0.07060272468366069
-0.062437595792922324, 0.1315824524432846, -0.060883848316520814
-0.06438220320119241, 0.123219154220538, -0.05890032054349411
-0.06530575242521602, 0.11828614457922287, -0.05793784690798445
-0.06174930942519604, 0.12589754307425582, -0.061632584071699074
-0.06176002706619394, 0.11799339220227194, -0.06170656254097655
-0.06759668630170093, 0.12833995869202114, -0.05513259532191504
-0.0699139983622667, 0.13007209006238682, -0.05214538320195438
-0.06874170754115042, 0.12261034689691817, -0.053758572958311907
-0.07017504291503225, 0.12202599335122537, -0.051878962346541144
-0.06791086252617258, 0.12493390118515192, -0.05477677272045592
-0.06838251114902368, 0.11466859734480939, -0.05432437050549957
-0.06700109035664298, 0.11076344995328603, -0.05607645759247672
-0.06815162361028078, 0.11112276269797094, -0.05466754128664762
-0.07071646673489726, 0.10544749706022845, -0.05142794456318736
-0.06850856428642295, 0.1017584249244477, -0.05440872757155785
-0.07021825019343741, 0.10314141946592656, -0.052149815564080756
-0.06854699152028923, 0.1039772316347985, -0.05431247012295354
-0.06884477719390905, 0.08771296687739959, -0.0543343702414836
-0.061831942259316805, 0.11456569046826254, -0.061678693211738606
-0.06139550196625707, 0.10166619416405456, -0.0623215960571191
-0.06467937025326426, 0.11403119567578632, -0.05868964299665607
-0.06648471860244068, 0.10546387165144222, -0.05679104157468052
-0.06403981235454212, 0.10271956635947885, -0.059582664575043826
-0.06479648400960684, 0.10198418984422934, -0.05877135922104089
-0.06656101944158764, 0.1016414633653146, -0.05677906109307691
-0.06699128269571963, 0.09469309003485689, -0.0564223013253702
-0.06187527772584041, 0.10072669230663847, -0.061869030221426737
-0.06385033065000104, 0.0927379530286167, -0.05999574693423344
-0.06416926970620947, 0.08846226302007439, -0.05975990052276714
-0.06208201520599367, 0.0933173968054099, -0.061814356894139985
-0.06526952049707728, 0.09091655744917645, -0.05849397599487965
-0.06662824876984705, 0.08110009018338256, -0.057207398508165336
-0.06452954001458679, 0.08408800961277874, -0.05948339091227478
-0.06480155064475164, 0.07145516177111952, -0.059539275120247606
-0.06341169403667876, 0.0768156797841965, -0.06086943819596104
-0.06517093142577446, 0.06921342733951168, -0.05919698737693157
-0.06329428064189381, 0.059295819270202235, -0.061475952182699814
-0.06793906628148767, 0.0812164287756881, -0.05564357759713889
-0.06771456472144383, 0.07429631178513184, -0.056118098333526566
-0.06925777877619697, 0.08989210279330921, -0.053741150411206556
-0.07009070104071684, 0.08732667003752317, -0.05272597400724977
-0.06927364105601927, 0.07700400081040254, -0.05409779092075777
-0.07053693562007528, 0.06918759051995048, -0.05269316576377755
-0.06803917195028032, 0.0730430871056275, -0.05576669145762417
-0.0685786744220459, 0.06648458473405865, -0.05530030655518145
-0.06671181887326647, 0.059421796343454646, -0.0577461360898019
-0.06899065508209687, 0.06292848348032855, -0.054898589008733525
-0.06869511930176274, 0.050786982136117376, -0.05562202428683098
-0.06947465955087306, 0.06366837204198099, -0.05426212814405167
-0.07034177267049545, 0.0484064108919847, -0.05359307318879193
-0.0708608362021054, 0.04389815213630107, -0.05302508760330412
-0.06975071594453955, 0.04905127632654441, -0.05434035913818442
-0.06892499448789684, 0.04209782370607103, -0.05555961979104447
-0.06427008870585124, 0.05076842464317205, -0.06067870202545293
-0.06426071473845918, 0.05181917989925944, -0.060661922874346574
-0.0654305671011795, 0.05365719629130284, -0.05934973506790321
-0.06794461699723844, 0.057055903624763094, -0.05636199587817407
-0.06536005081958826, 0.046642617780904234, -0.05960564544133637
-0.06640562835590808, 0.04568916758815949, -0.0584641345545241
-0.06629975242063665, 0.04402846827332838, -0.05862514286607243
-0.06345936969922414, 0.040707435329401714, -0.06175756931527703
-0.06384422611479569, 0.03501047853513364, -0.06147839523288074
-0.05387450982739836, 0.08998683128643273, -0.06915268139484897
-0.05264313663517302, 0.07365329727382705, -0.07046597787727915
-0.054032594939726286, 0.08060051160290721, -0.06923924333399681
-0.054540961829236775, 0.08244441786302022, -0.06879726990952267
-0.055950695845565605, 0.07915528005893753, -0.06773376531041266
-0.05618368505038293, 0.06919575515349957, -0.06778889258869353
-0.05269621007139953, 0.06825336913404331, -0.07055745229417207
-0.05411258562837694, 0.06596613474989801, -0.06953360393594085
-0.05210292696573255, 0.06746404693925048, -0.07101677265766597
-0.05712909770721022, 0.08987890349384846, -0.06649209495275152
-0.05781928173574259, 0.07926495268159492, -0.06613994647724106
-0.05809279908240096, 0.07168409430216036, -0.06609441874683249
-0.061432831866960205, 0.08945446146701301, -0.06254343901543623
-0.06200428308919327, 0.08181977267562571, -0.062170139587615275
-0.0622006133562293, 0.08361093124457111, -0.06192588301245784
-0.060823618299829865, 0.0715929252381223, -0.06359390565264711
-0.06199508840573686, 0.06927647209287759, -0.06251471610408263
-0.06118593074560172, 0.06527638647312084, -0.0634178508618829
-0.05815290346294019, 0.07656829211739598, -0.06591656742958799
-0.06069184298823243, 0.07680766395319501, -0.0635793869721207
-0.058013224897432034, 0.07062851943873183, -0.06619093094760649
-0.0581776605094796, 0.059427286120301494, -0.0663355581240968
-0.05900258194477713, 0.05693470523285493, -0.06566627268189945
-0.06180952012846395, 0.06397256098687014, -0.06284206117454585
-0.06244560619074534, 0.05941506578674491, -0.06233812827920863
-0.05969620992194882, 0.04603525912847006, -0.06529154363165253
-0.0606864086204364, 0.04177494066803914, -0.06446152602903507
-0.06209427213833563, 0.035072947680878354, -0.0632390775995884
-0.05827136289799094, 0.04025399373772223, -0.0666842982468223
-0.060498455281514436, 0.04146126029334723, -0.0646453259333408
-0.05264172058025342, 0.061802556281833926, -0.0707537821250698
-0.051935064703063714, 0.0559924535379535, -0.07141395676578313
-0.054719468330718224, 0.06255456201670334, -0.06914398406917496
-0.05680789340920172, 0.06179568106094613, -0.06745357957638676
-0.057000535102148475, 0.04526144925224911, -0.06767494788952592
-0.05651457782596682, 0.057271861220500674, -0.06781176882895168
-0.05682637441639174, 0.04101968472204569, -0.06790518448952074
-0.0571058936418631, 0.04513580506906205, -0.06758934472444135
-0.05383601652297636, 0.047554146842738516, -0.0701719126220872
-0.054410827576260756, 0.037164113005146035, -0.06992662405719588
-0.05357747030510464, 0.04289129336724389, -0.07046554635281
-0.06997364510384663, 0.12315865978996685, -0.052137110791265595
-0.07257123381328943, 0.12257025606215582, -0.048469517627280946
-0.07366430955565142, 0.12017270479102268, -0.04682251023631355
-0.07060647756121788, 0.1249328258572246, -0.051263043838725056
-0.07168168861758949, 0.11712196830362147, -0.04985267439198746
-0.07416704388464011, 0.12526178422093856, -0.04594918801491415
-0.07604024621576311, 0.12575684144871319, -0.04277303012325606
-0.07702848840991441, 0.1213265991930978, -0.041033036386415436
-0.07380901230133309, 0.11807274329278887, -0.04662388186654836
-0.07666875200404773, 0.12118302596773473, -0.04169811898439233
-0.07529723821044965, 0.11525280438606686, -0.04423485770889582
-0.07483526608137009, 0.1055753939787012, -0.04521324566511031
-0.07551510135421152, 0.11272710144056888, -0.04390850389920629
-0.07635004374115703, 0.1063896224987089, -0.042589072165882785
-0.07726929175306609, 0.09290381527024671, -0.04130443611079602
-0.0772907008075685, 0.08544529509596512, -0.04152347834895775
-0.07632496433411429, 0.09522028085839632, -0.042949229256769555
-0.07568502447795365, 0.08479054345925009, -0.044408155007692865
-0.07215554630678625, 0.110319164296798, -0.04927833798098183
-0.0701632456001145, 0.10675999694202958, -0.052147473117410276
-0.07277936358346387, 0.11502232132324607, -0.04826888911671888
-0.0744229660518489, 0.10559430429492689, -0.04589177611684266
-0.07270129978596762, 0.10271958815981119, -0.04864477507274368
-0.07356002624583845, 0.09341223442422396, -0.04758024544592894
-0.07468813533013646, 0.10326348137124136, -0.04551678427012358
-0.07362595291065609, 0.08751280668996467, -0.047656103528491464
-0.07087894608839904, 0.10248907514679992, -0.05126799280171966
-0.07301842790034857, 0.0972760939145733, -0.048300250240077655
-0.07185418795779808, 0.08490952492995535, -0.05036794715528198
-0.07858980980866262, 0.12959217263848194, -0.037830268461316874
-0.0801437314542269, 0.131391220149011, -0.03438870059413963
-0.07993126339532862, 0.11900261979548962, -0.03509300816064667
-0.07848670095138036, 0.11976551738314395, -0.03819925688079802
-0.07899206176432713, 0.11679030180584338, -0.03719361144173783
-0.07895762955221532, 0.12171924786749339, -0.03717171691449223
-0.08081776739358884, 0.12973843287062453, -0.032798175037404745
-0.08151324348277204, 0.12246070503998593, -0.031158848748926667
-0.08239828427077808, 0.11361566265160676, -0.028976863989978813
-0.08023496204408602, 0.11789047630908013, -0.03440946068664437
-0.08229443556591307, 0.12153683388032775, -0.02905810184681609
-0.08030721573325585, 0.11214186577161761, -0.034380465414426346
-0.08081300183405773, 0.10909865174834701, -0.033269379574568894
-0.08194674228903374, 0.11084803043595712, -0.030315218911081736
-0.08252829249657839, 0.10235941932784846, -0.02900642254960147
-0.08285960803466462, 0.1021931631266924, -0.028049969014419373
-0.08289709377036944, 0.09521755304570895, -0.028253182668643066
-0.08208441191410779, 0.09657012573303755, -0.03047805136899781
-0.08158508979023832, 0.090151011525023, -0.03206641428513344
-0.07817395615779395, 0.10574499282241079, -0.0391516462576825
-0.07792529619226755, 0.10677870885834445, -0.039624021165924214
-0.07953500872265437, 0.11467804381037057, -0.03606996587442057
-0.08126689590643427, 0.10940388561038265, -0.03213351543901434
-0.07940964868228088, 0.1100331403464945, -0.03646510660097457
-0.08022696318697513, 0.09601883963429257, -0.03509893638558573
-0.08103777802968537, 0.10078529053107282, -0.032994592800797834
-0.08072304763292276, 0.09662246740327525, -0.03391121234069598
-0.07777033252731945, 0.0939361680638248, -0.040310245568538315
-0.0794850862629404, 0.09624251444904372, -0.03673735642940842
-0.07936454488983308, 0.08727723593977518, -0.037329224780371414
-0.07895612883713904, 0.08312190809667382, -0.03835961794129546
-0.07985450803874497, 0.09074863667114713, -0.03612755015450571
-0.08005781764146325, 0.07871452637362915, -0.03619465231483393
-0.07985432485873466, 0.08152277350334816, -0.03652075686097165
-0.0806322545986283, 0.07436002385742599, -0.03511300939466955
-0.07918129166646241, 0.06418729851014365, -0.038722707030921864
-0.08047062984142901, 0.0681032178622444, -0.035776421594907785
-0.07935207026614514, 0.07030870623391057, -0.038094643608037465
-0.08155157602138693, 0.07976956440990385, -0.032639920999866304
-0.0811810319805997, 0.07679645976682904, -0.03370454936824993
-0.08236113348703819, 0.08654705613696181, -0.030195162632502676
-0.08309476118655162, 0.0798255188373488, -0.028487504956907963
-0.08299695561832016, 0.07699959675917707, -0.028935540329530482
-0.08277478818247044, 0.06815494081357354, -0.03006579323279779
-0.081585638962666, 0.07242582934574067, -0.032930889505325224
-0.08300702917258847, 0.06684240840289468, -0.029493334343447027
-0.08167516126928001, 0.07065032716154457, -0.03280081387842052
-0.08176000798058515, 0.054341589300288415, -0.033421836654729954
-0.08251433266069323, 0.05406794427891253, -0.03152574528974001
-0.08292014699593221, 0.062550093509666, -0.02998324481363776
-0.08356475134728755, 0.05425980481329856, -0.028621316890662163
-0.08407035673712303, 0.038269339059558725, -0.027925218103139776
-0.083380168704875, 0.05046533731789456, -0.02935529708642669
-0.0834971786292904, 0.04464790356267543, -0.029312772569957287
-0.07929862013665756, 0.04909649784041218, -0.03910552088516489
-0.08019626797220156, 0.06214536810212684, -0.03666929238410579
-0.08113140132519875, 0.06398750022819882, -0.03445740701965807
-0.08057125869813277, 0.056590989333646396, -0.036091186018379726
-0.08150919622098857, 0.050297369254112795, -0.03421278654812228
-0.0813870494787203, 0.04618483719215823, -0.03467363403295892
-0.08073425708622076, 0.0506064390114603, -0.03598779317994555
-0.07947013144074933, 0.0434407702157638, -0.03896605589850702
-0.07205869246464944, 0.0782031157007423, -0.05029349586407871
-0.07108714079228443, 0.08095240625005545, -0.05157121900360627
-0.07085472556546422, 0.0731712157944201, -0.05213471404022882
-0.07268170508694713, 0.08497881306841316, -0.04916115214244476
-0.07361724020244612, 0.07718695593163596, -0.04801075770095298
-0.07503920519926091, 0.07007323615576752, -0.0460268338081309
-0.07360634571616496, 0.06705900462732413, -0.048387254902243125
-0.0717162999128243, 0.06650796340304724, -0.0511660298983427
-0.07158302824132515, 0.06797933443324877, -0.051303663606880254
-0.07271287460684683, 0.06882883056999851, -0.049658584233932664
-0.07517109096770438, 0.08377170421359498, -0.04530194092565415
-0.07579451799725657, 0.07748892486485012, -0.04448766636121078
-0.07719875537055784, 0.08418612344277278, -0.04173712442711887
-0.07661245092794707, 0.07854377615424245, -0.043022202159981655
-0.07829655176938138, 0.09037662209957717, -0.03940502555416711
-0.076632456780973, 0.08358645269751191, -0.04279544987941247
-0.0767691000994979, 0.07756920633296592, -0.04277770240148822
-0.07680750005558318, 0.07340825673427705, -0.04287539737845519
-0.07861824691008992, 0.05897764955499877, -0.04007787448197065
-0.07598745465911816, 0.07700520425321457, -0.04417180821460356
-0.07722917970180254, 0.06820399891520404, -0.04231565283401882
-0.07507581104133104, 0.05844823734873182, -0.04639220732134636
-0.07528802639610843, 0.05607113602892047, -0.04613562765473904
-0.07624111041714682, 0.04978559381795073, -0.04475992321962731
-0.07770958515322791, 0.052700574608176703, -0.04204650852869746
-0.07934848885616265, 0.05262916283893039, -0.0388692375039473
-0.07796877039052313, 0.04670413362946166, -0.041784276016824426
-0.07865400396420627, 0.04129295453048103, -0.04065789981455871
-0.07887772062948867, 0.03630345808979331, -0.040381816525665234
-0.0761405671747096, 0.043761227222953725, -0.045118519104460145
-0.07624450659540952, 0.03537108998819436, -0.045180196436596355
-0.07186165518150979, 0.05176987573042612, -0.05143737499590447
-0.07327063885886331, 0.04770578018095605, -0.049532045380072644
-0.07377613490621986, 0.06082993995044982, -0.048347595273351855
-0.07615598875483476, 0.05494539017552753, -0.04472588995280871
-0.07403662387677247, 0.04675793849111423, -0.04840623817339968
-0.07405944024879776, 0.042259666504399676, -0.04850041891292995
-0.07604503530699892, 0.04373325068037928, -0.04527881956583931
-0.07118157331266445, 0.04088492792416268, -0.05266965503276218
-0.0729511968303748, 0.04719836262860446, -0.0500152417627037
-0.07183626919506234, 0.042164937854268184, -0.051742268453641826
-0.0835166057352474, 0.13151708054065692, -0.02512104312789128
-0.08419990066513815, 0.12877674533774594, -0.02277177907276191
-0.08446741189815193, 0.11728544728386445, -0.022101893719149376
-0.08286751461887873, 0.11669280624755943, -0.027507433748415674
-0.08406813418139952, 0.12082178398571775, -0.02346316125514874
-0.08324314388203541, 0.11786369388169321, -0.02631570435892135
-0.08486653125660859, 0.129231905029407, -0.020141687902156154
-0.08589149416705741, 0.11844114301031913, -0.015610893219918685
-0.08626111789416877, 0.11425395678115943, -0.01368029336980248
-0.08493214723500236, 0.12439109140716434, -0.01999055518119494
-0.08547344272910372, 0.12110692054468186, -0.01764295788429866
-0.08499807183863457, 0.11561714280929855, -0.0200194641161323
-0.08518141126090863, 0.09929818562269649, -0.02008900829000421
-0.08616473631293546, 0.11043852366166662, -0.014484817651337887
-0.08576034988590571, 0.10575828542461346, -0.01702388699112857
-0.08586164911641204, 0.09806006020465187, -0.01704391626637459
-0.08562562971254244, 0.10340584116833809, -0.017818632061730476
-0.0859319030495782, 0.08755795076361482, -0.01752874745533458
-0.08319944381049146, 0.11343334603897935, -0.02659517881929713
-0.08313311199231987, 0.10224581710462255, -0.027233470289621073
-0.083620464138992, 0.10244390610484684, -0.025686324689469818
-0.08446374433171011, 0.10548558150282031, -0.022599689266934717
-0.0850257419885733, 0.09842732272191082, -0.020788720052930632
-0.08455780149943265, 0.10034267800080515, -0.02251546183703163
-0.08459905713314705, 0.09924226716657095, -0.022420956057676324
-0.08530504449974441, 0.09736512491335877, -0.019673485355139846
-0.08477214612241038, 0.08877579523787335, -0.022404751682564998
-0.08383502515492962, 0.09300883026467094, -0.02546236930159775
-0.08330561518875637, 0.08747401259807899, -0.02742979266098918
-0.0839611034316439, 0.09042023873062, -0.025180207797888775
-0.08633459008747041, 0.12736257965865322, -0.012477565772926674
-0.0867691263157504, 0.12694752661989842, -0.009005024169761424
-0.08684577439738791, 0.12291965829940918, -0.008548433323490449
-0.086364874703019, 0.12217687886610487, -0.0125112204930142
-0.08673238325896346, 0.11808477499346855, -0.009952176851978637
-0.08666981854489898, 0.1148104682706948, -0.010723678494474663
-0.08726132585569106, 0.12228990090252545, -0.0010268632739788928
-0.0872310064896333, 0.12404693245123234, -0.0021094008309512757
-0.08727378984122597, 0.12098148744465106, -0.0008502450612357512
-0.08699243099849577, 0.1187586619737128, -0.007272601685118063
-0.08723167081578592, 0.12054790297661835, -0.0029663623044928495
-0.08702940265839883, 0.11454449876382505, -0.007289683178983738
-0.08723661924568102, 0.11074023795919921, -0.004893131195600617
-0.0873357473790248, 0.10469267933685307, -0.004347682924823407
-0.08739284482801905, 0.10736891464502117, -0.0019536408668050557
-0.08742341807414321, 0.10268459082620368, -0.0029165745959422095
-0.08744017695921744, 0.10441081291445306, -0.0012260010721195705
-0.08773248176778459, 0.08534908727741301, -0.0011664431686153156
-0.08731264033815624, 0.10446695084741649, -0.004871514303175105
-0.08745724808121688, 0.0949731549057291, -0.004683489973509824
-0.08614434828107814, 0.11293393158682294, -0.014452754101174282
-0.08615660385511377, 0.10727900834888424, -0.014759963024694178
-0.08666523631268983, 0.09988987624561607, -0.012134913845590293
-0.08694768162679345, 0.11664791798769811, -0.00797304516825243
-0.08698309103286306, 0.1095788636482747, -0.008395509645270745
-0.08687631362957776, 0.10173683284992371, -0.010315326922523424
-0.08693001544969983, 0.0990460180285373, -0.0101684120688205
-0.08737078050496716, 0.08491298802407628, -0.008109762676150014
-0.08721885620147407, 0.08766163140328316, -0.009166665236023686
-0.08667828777098134, 0.10307571045073577, -0.011713008469453551
-0.08645262087834266, 0.08455644793350128, -0.015046487419253076
-0.08654251985720693, 0.0935171965210272, -0.01360770918260018
-0.08717568973351905, 0.08151218158388662, -0.010533734600431072
-0.08731114361581448, 0.09041341025069717, -0.007727758912669601
-0.08731724068058011, 0.07482953333619866, -0.010421199393772037
-0.08769956625040241, 0.06832868979866995, -0.007965630232197166
-0.08744584325845932, 0.06962651301957382, -0.010187921042907163
-0.08716235335709577, 0.07358971455288964, -0.011815494679103561
-0.08739687978203158, 0.06306230879958831, -0.011598784359896926
-0.08745421068203732, 0.08787191062150325, -0.0065247115834347605
-0.08763673091277982, 0.07093068766840947, -0.008097871893537861
-0.08765719358582805, 0.08671348846434572, -0.0032968914298542318
-0.0877294432603977, 0.07898955063763152, -0.0047208067692154155
-0.08785761728242826, 0.07824720518705892, -0.0016691287683226997
