0.07510633992969878, -0.2763424480104829, 0.008277739398181438
-0.1818692939678656, -0.25288081792765765, 0.008277739398181438
-0.05168996419791331, -0.25032404896430854, 0.008319284682365525
0.032256662694327226, -0.25036726203542287, 0.008294076615241511
0.22267205218491395, -0.2734217055827324, 0.025814988239104004
0.203465146469886, -0.25390524589949903, 0.008814766341597696
0.19997347859432468, -0.18291535657232938, 0.024995352332080587
0.19985976730961424, -0.16829305088746568, 0.02492591971369953
0.19955898650347745, 0.16964396982831506, 0.02453582885061372
0.19949477421837852, 0.09131872152128, 0.024309055086884905
0.19948553444605865, 0.01849464622280482, 0.024272815847381703
0.24156524240970612, 0.04173432147325415, 0.02235072328818416
0.24156524240970612, 0.11039668934460438, 0.02205808293318711
0.2415652424097061, 0.19653582881152895, 0.014350923469023665
0.24156524240970612, 0.1398720806830583, 0.018401619230969286
0.24156524240970612, -0.0964075911568534, 0.023855247895874017
0.24156524240970612, 0.24232620988949485, 0.02350416909069059
0.24156524240970612, -0.1409066704410511, 0.02381640704219757
0.24156524240970612, 0.13667058444408886, 0.024755530375470975
0.24156524240970612, 0.0024667658142873417, 0.026173652550284254
0.24156524240970612, -0.07938512336046842, 0.0246272250872964
0.24156524240970614, 0.1265229612145284, 0.017285348015234202
0.24156524240970612, 0.0027016035995017507, 0.01889768209577576
0.24156524240970612, 0.0796605527794363, 0.022255814833325276
0.24156524240970612, -0.04730290875475599, 0.021155637934610314
0.24156524240970612, 0.03830918314380647, 0.019105986746893712
0.24156524240970612, 0.01248261372252124, 0.026124110903832227
0.24156524240970612, 0.22486204845934402, 0.01825803759339987
0.24156524240970612, 0.24028159480750538, 0.01943645333271434
0.24156524240970614, 0.2428244199983365, 0.01485148379687804
0.24156524240970612, 0.2425894574946799, 0.013085293937535646
0.24156524240970612, -0.015532371660497618, 0.025766415403213287
0.24156524240970612, 0.03587388178799, 0.017941123257944776
0.24156524240970612, 0.08018243848514034, 0.020572194460905906
0.24156524240970612, 0.1160001658797557, 0.026083360638774866
0.24156524240970612, 0.1909098701808561, 0.017636360291951245
0.2415652424097061, -0.1977758698372874, 0.025897213041547455
0.24156524240970612, -0.07594575573207663, 0.022971630418122127
0.24156524240970612, 0.23233073078977573, 0.011652748272907368
0.24156524240970612, 0.1788502845239287, 0.02542633590671326
0.2415652424097061, 0.2504333307800334, 0.013821397449145574
0.24156524240970612, 0.16566631922234004, 0.020536158219920605
0.2415652424097061, 0.03319484165502492, 0.01960118098875815
0.24156524240970612, 0.2194564940362222, 0.017652542733569292
0.24156524240970612, 0.045545916281486215, 0.02180372870343873
0.24156524240970612, 0.08553962881597471, 0.020962658828511345
0.24156524240970612, 0.17680173526083426, 0.017999885147077482
0.24156524240970612, 0.15602933010334344, 0.014310704402452842
0.24156524240970612, 0.14227188337192076, 0.026153929581050842
0.24156524240970612, 0.026946309148098854, 0.021141652047901645
0.24156524240970612, 0.14090959075309173, 0.021557615974872886
0.24156524240970614, 0.0996763448949705, 0.021288785699262874
0.24156524240970612, 0.20381325083636892, 0.01565366607140087
0.2415652424097061, 0.03955346367310083, 0.016713339179239905
0.24156524240970612, 0.28913146606743484, 0.013451244319242151
0.24156524240970612, 0.19016194624040372, 0.021103577583490046
0.24156524240970612, -0.08567247523336405, 0.02505281297152468
0.24156524240970612, 0.10927495299117405, 0.024244583587210468
0.2415652424097061, 0.147227309264797, 0.019220171524517514
0.2415652424097061, 0.2643348712277416, 0.012553739760212304
0.24156524240970612, 0.27298537950195073, 0.018703745410178503
0.24156524240970612, 0.23670135205467172, 0.011863452893790464
0.24156524240970612, 0.05153480767256087, 0.024722340799085862
0.24156524240970614, 0.04034875406400226, 0.017104332914302682
0.24156524240970612, 0.18329612339350787, 0.022769731074430043
0.24156524240970614, -0.026678903276939357, 0.019228069662032478
0.24156524240970612, 0.13051059746382693, 0.02072235196114753
0.2415652424097061, 0.05016876510060378, 0.023965533954878628
0.24156524240970612, -0.013796662403587248, 0.021710067147363656
0.24156524240970614, -0.16039277833472215, 0.024991034927118464
0.24156524240970612, 0.08218012015022594, 0.018835527652973666
0.2415652424097061, 0.15820351884884654, 0.019337142645898534
0.24156524240970612, 0.013918756336240456, 0.023364594029596827
0.24156524240970612, 0.2873215594874119, 0.013929985357921188
0.24156524240970612, 0.03614911805282734, 0.01817801405471388
0.24156524240970612, 0.1112051593348609, 0.023214908664753165
0.24156524240970612, -0.010103810332163066, 0.023846029676442372
0.24156524240970612, 0.15236172130841644, 0.014368351559413003
0.2415652424097061, 0.2226888667923263, 0.012922090492899508
0.24156524240970612, 0.18085887333555967, 0.021813106675442253
0.2415652424097061, 0.09106180304920891, 0.01705112356028026
0.24156524240970612, 0.09401731836438124, 0.02372273158385956
0.24156524240970612, 0.004054994465888362, 0.0254860271113715
0.24156524240970612, 0.13777049208659176, 0.016826522385069372
0.24156524240970612, -0.11609638387712587, 0.022371010718032137
0.24156524240970612, 0.21988079537438054, 0.021850822009283885
0.24156524240970612, 0.20141067944970367, 0.022766836901696435
0.24156524240970612, 0.09529867547802066, 0.022574075239545847
0.23434342870389485, -0.21906651893434256, 0.026735596049323424
0.20224869117882655, 0.0725839831899462, 0.02516603298202909
0.22377506294245475, -0.15947858105654336, 0.026218760023857937
0.20094625239542782, -0.08723743781447954, 0.025102338433655308
0.2089786251331422, -0.09560883963772314, 0.025495154096410337
0.2097777359531475, 0.09026368557581992, 0.025534233862330714
0.21795207151902382, 0.007637332714054455, 0.02593399208418402
0.20261001430344777, 0.1382743833201916, 0.025183703150894687
0.21605170066310142, -0.15686240050260333, 0.025841056228039738
0.22533179077520962, -0.22008629757678, 0.026294890339932736
0.2289773521696881, -0.2062601836456758, 0.026473173104197698
0.20909414141152047, -0.09538310135303703, 0.02550080331177071
0.20979448551614688, -0.05683720329137226, 0.025535052984015587
0.2039597606093965, 0.17380769949379488, 0.025249711229333692
0.22079567327675215, -0.03745246056908914, 0.02607305576381491
0.21460634413013938, -0.07414861745695969, 0.025770372421031255
0.2056745745748485, -0.08825363892418263, 0.025333572599608237
0.23446904439043692, -0.25483960855456916, 0.026741739166777346
0.21682674402478572, -0.19226659406088542, 0.025878958997461083
0.21337574757287195, 0.06546359139282679, 0.02571019124941339
0.20936484730951943, -0.08447060586036019, 0.02551404193007273
0.21687725624249335, -0.04212593844785596, 0.02588142925014033
0.20183926439943511, 0.0436277087900977, 0.025146010348997987
0.2060720758624822, 0.003504021848337452, 0.025353012027638594
0.21812372973004945, -0.01685721497867472, 0.02594238686815797
0.2133504795264372, -0.11898919199486936, 0.025708955539277555
0.20344370637247997, -0.18654405810876729, 0.025224474080397602
0.20361214742411357, -0.23979490095619346, 0.025232711532205826
0.206109118285912, 0.06842125114087935, 0.025354823552649293
0.21122245148890406, -0.12826555750460528, 0.025604886321971446
0.2053277395711661, -0.059237447363429105, 0.025316610958722417
0.200688042428028, -0.07332456821433836, 0.025089710917131094
0.21829219443756806, -0.018406940043113284, 0.025950625476835087
0.22567853667187848, -0.25825469334962714, 0.026311847623123545
0.21923489455899825, -0.22573068888522757, 0.025996727343004736
0.22791706261061667, -0.14024779933065223, 0.026421320636756375
0.23399113675796634, -0.2419291325704489, 0.026718367541789977
0.21166472188391866, -0.08202856778877315, 0.025626515141251565
0.20845375535945093, -0.24126901815604077, 0.025469485831908046
0.20017185724796038, -0.14443464609300932, 0.02506446736454289
0.20028823324109324, 0.06576005648607289, 0.025070158623447823
0.2019417594093923, -0.03938919319665095, 0.02515102277142659
0.20346722004586015, 0.04978655369086596, 0.025225623994562976
0.21747304460097752, -0.0642554483326514, 0.025910565721584296
0.21080469424143933, 0.058204845300459114, 0.0255844562952045
0.21126945471064515, -0.007155016372267897, 0.025607184970490728
0.23503826787816623, -0.25071339813948823, 0.02676957650810717
0.2007723109391403, -0.2331420277872165, 0.025093831989711123
0.20403842424312385, -0.10341390776276488, 0.025253558200636735
0.20718928133055461, -0.23781353608517453, 0.025407647914281885
0.2015034231997824, -0.0712209623917914, 0.025129586349797527
0.2335596724683553, -0.25913304324880765, 0.02669726718496977
0.20958705995217536, -0.2121292989102133, 0.025524909031158262
0.21842042565622266, -0.199207662208358, 0.025956896504436333
0.2351029239733232, -0.28517352048355865, 0.02677273845386088
0.21098352229270298, -0.022934331916372105, 0.02559320171349747
0.22637311643208785, -0.24343742829779166, 0.02634581539550565
0.21148197746740766, 0.0371072854913998, 0.02561757819678564
0.20148170713747732, 0.03149170089709245, 0.025128524346117502
0.20674197573691697, -0.17017601379465225, 0.025385772853330865
0.21238331736329835, -0.03516026287612014, 0.025661657379878012
0.22946350612751615, -0.2588062992395063, 0.02649694800800022
0.21460259170745113, -0.24552631943695244, 0.025770188912315542
0.21832942968578126, -0.009970102806165292, 0.02595244643176115
0.20128908962185782, -0.09307151354776064, 0.02511910456699034
0.23868996485392088, -0.2854065527535929, 0.026948159327225663
0.23046686465186955, -0.18425381275520283, 0.026546016316530557
0.20092209560365892, -0.06523844235913813, 0.02510115706838771
0.2184190535039717, -0.16564706522522998, 0.025956829400616145
0.20543654398185754, 0.11253017912119254, 0.025321931936482297
0.2190835022469956, -0.23856673301434433, 0.02598932364383424
0.2202689422429961, -0.07360102434230748, 0.026047296476133075
0.20438972279108267, -0.09922861092230478, 0.025270738126973245
0.21794447132183806, -0.13500945990904256, 0.025933620403661702
0.22406277207161812, -0.15885883189672606, 0.02623283016924877
0.2218249032898971, -0.16760100151698037, 0.026123389293264132
0.2121332378494057, -0.06000329141697455, 0.025649427475564687
0.2102039402069615, -0.2273541413272023, 0.02555507698202869
0.20509948685862733, -0.04692005576404559, 0.025305448473678546
0.2271742698287965, -0.2318297076332313, 0.026384995051725896
0.23729933068603132, -0.2846142659195998, 0.026880151666208586
0.20500821616142081, -0.20178581692362008, 0.02530098496574832
0.21698566518474033, -0.26320357840886915, 0.02588673088788647
0.2098187425322032, -0.09194389012169357, 0.02553623925065806
0.20289234526518984, 0.09193749144971983, 0.025197510282046885
0.20206762415969873, 0.21590283495842977, 0.025157178069110546
0.23099645044546627, -0.17518361091207263, 0.026571915213567613
0.21089826752339208, -0.06894346462479155, 0.025589032408884316
0.20450407940442394, -0.1271285299442574, 0.025276330630001544
0.20199095552778973, -0.12263292537499973, 0.0251534286615022
0.21597047534255412, 0.024123787624526393, 0.025837083979842954
0.21247192219989947, -0.14192714757785502, 0.02566599051639312
0.20671267008538793, 0.11283980370170799, 0.025384339687900957
0.21100029012066604, 0.03109425426871091, 0.02559402172841328
0.20618194565160344, 0.06906707699390478, 0.025358385106732367
0.2169442261720192, -0.10733467467061043, 0.02588470435179589
0.2124438262570406, -0.18169433653658595, 0.02566461651063228
0.22406673300735136, -0.1914055564578465, 0.026233023875099577
0.2167695928315929, -0.13314491965454728, 0.025876164071906165
0.21443753294176368, -0.23596364934108613, 0.02576211686803246
0.22212315146650463, -0.2526253379380538, 0.026137974840895598
0.2044818591149962, -0.23503596102225724, 0.02527524396756652
0.20246849808868495, 0.13103640026834795, 0.02517678243300623
0.23411146651785822, -0.2509404395585191, 0.026724252155953754
0.21507709102401468, -0.1703595621627445, 0.025793393856806922
0.20511706646945668, 0.12919563393140543, 0.025306308188074826
0.21027999700531042, -0.05918096860787321, 0.02555879646849004
0.2169744947827321, -0.11047156072484168, 0.025886184609842437
0.20491206457578878, 0.06537147923966928, 0.025296282762542827
0.2232156191094723, -0.2721197882170873, 0.0261914009473804
0.23340806011136989, -0.22648856100089082, 0.026689852724705563
0.21641834496398804, -0.22569651284073272, 0.02585898662404488
0.21918574728824142, -0.06239718832294446, 0.025994323841777224
0.21222456188438998, -0.1575175332374727, 0.025653893591928954
0.2337912293620712, -0.27103314384750987, 0.026708591257898234
0.22629721311629733, -0.18398279934352937, 0.02634210341496501
0.20602390532873274, -0.19502978426594936, 0.025350656292819265
0.22104538609241633, -0.12560414393716718, 0.026085267735094952
0.21711417739701153, -0.14493288353456846, 0.025893015657217255
0.21277315340833625, -0.19199992323103993, 0.025680721946401218
0.20617440494749656, 0.11998046149599362, 0.025358016335663335
0.20703618363866347, -0.1587446440160783, 0.025400160815105807
0.2026770952708314, 0.1675580112701311, 0.02518698368275264
0.20197527920366082, -0.018679395235223842, 0.025152662025558707
0.22064989282451242, -0.257079831736697, 0.026065926507388055
0.21315938210115914, -0.1346463755765804, 0.025699610098744285
0.22175289437157386, -0.256277216550156, 0.026119867764582753
0.23374894740454139, -0.23343693055119416, 0.02670652349838159
0.2077566087390075, 0.056640723567784663, 0.025435392529631236
0.21360038475290619, -0.013356927859755098, 0.025721176920227722
0.21227104108417233, -0.06651648516519387, 0.025656166613645327
0.200583447877975, -0.006821733717044767, 0.025084595818661282
0.2123241649100976, -0.14862040882222294, 0.025658764584577495
0.21224334899473618, -0.18473464278535548, 0.025654812357957732
0.2217743806252476, -0.16770676334326473, 0.02612091852968699
0.20894180973790083, -0.07202224872836623, 0.025493353674000477
0.22355266271777255, -0.0813369736050543, 0.026207883749249164
0.20545688907368392, -0.09032298225123041, 0.0253229268941356
0.21819936496035042, -0.08968962627638667, 0.02594608573822893
0.21714875853882626, -0.13916237121958744, 0.02589470681555668
0.21697973485370958, -0.012040235912604683, 0.025886440870603874
0.2037614116586464, 0.07574546768852036, 0.025240011159741577
0.21972970019044127, -0.1694265538973963, 0.026020925348799163
0.2163444147940396, -0.20366827540759716, 0.025855371138352894
0.2085122226201774, -0.08311083673620646, 0.025472345118512603
0.23162271905484447, -0.2170980552888898, 0.026602542293122883
0.227929667201335, -0.27260825423313345, 0.026421937052455505
0.20723348807338685, 0.057638179570370617, 0.0254098098036203
0.2115801883690769, -0.2518899749355925, 0.025622381108912448
0.20708373555190857, -0.14055888790491305, 0.02540248629686899
0.20014904648568801, -0.2214531931908415, 0.025063351825586645
0.20520746101231943, -0.13621836458083952, 0.025310728848497784
0.21559501774029927, -0.09839722565885203, 0.025818722577592074
0.21554145348745005, -0.10261151538410425, 0.02581610306799385
0.21150094246657541, -0.11323800849843782, 0.025618505662300565
0.22242731595145138, -0.051257176178696615, 0.026152849720043062
0.21673703184616902, -0.15048816236430465, 0.025874571707422234
0.22373925707917303, -0.252251195917006, 0.026217008971662677
0.22753589925573967, -0.20308079065224513, 0.026402680200019554
0.2411942639826511, -0.26964177855726496, 0.02690782239710661
0.2409828413988723, 0.10654380825237213, 0.027028693215173774
0.24109266074563424, -0.18471938183444453, 0.02696590922093118
0.24149846032872496, 0.11494307611276555, 0.026406213242064526
0.24144723228060327, 0.126170190001044, 0.026576918530953213
0.2414904278054786, 0.13476007248992147, 0.026432979715735723
0.19944623112678528, -0.062228125251333796, 0.010252747329776272
0.19944623112678525, 0.11488073040435523, 0.01861475526817873
0.19944623112678528, -0.0656831013874038, 0.012278269717236926
0.19944623112678528, 0.24757666484779312, 0.01290609491803513
0.19944623112678525, 0.23594141512270744, 0.019913170558413608
0.19944623112678528, 0.20476789908645737, 0.015657407575225324
0.19944623112678528, 0.24498257734044573, 0.013903330289667844
0.19944623112678528, 0.23617215658167673, 0.014485686436100983
0.19944623112678528, -0.04731991057674469, 0.014853011047678505
0.19944623112678528, -0.03462347614123792, 0.014975327487779211
0.19944623112678528, -0.053000360427916934, 0.01264700471105174
0.19944623112678528, 0.04597288278260682, 0.01297237780485379
0.19944623112678528, 0.141430360686593, 0.01313191458406096
0.19944623112678528, -0.1529670494124233, 0.009531415358251626
0.19944623112678528, -0.1375808109824057, 0.009628502279341002
0.1994462311267853, -0.09626545199456518, 0.009739696553015074
0.19944623112678528, 0.18645863891739614, 0.0128860860871001
0.19944623112678528, 0.1886810992399067, 0.020838875964895375
0.19944623112678528, 0.10674199936993617, 0.018444755418035655
0.19944623112678528, 0.2433355282706105, 0.02052491852554771
0.19944623112678528, 0.1751274370297892, 0.02017751083362864
0.19944623112678528, -0.1585768334693958, 0.01022123000663513
0.19944623112678528, 0.23152538877499285, 0.02288763253353417
0.19944623112678528, 0.0872317974302915, 0.017814991953095497
0.1994462311267853, 0.08608841196862116, 0.014442674208503297
0.19944623112678525, 0.13251321345593386, 0.018712525534929025
0.19944623112678528, -0.14087872311756114, 0.009374869378811466
0.19944623112678528, -0.04813355174011907, 0.014298121652449107
0.19944623112678528, 0.2445349724896956, 0.021275559340904273
0.19944623112678528, -0.07642016592600889, 0.014328680661351081
0.19944623112678528, -0.0037234017000441766, 0.010697511900039588
0.19944623112678528, 0.020215619049396623, 0.014943442631605273
0.19944623112678528, -0.07858019508803483, 0.01418456499073521
0.19944623112678528, 0.005851094445494259, 0.016167741116105604
0.1994462311267853, 0.13793533100525562, 0.019743333302290562
0.19944623112678528, -0.01913609576958785, 0.012778054555005438
0.19944623112678528, -0.034704424256471675, 0.010509861738114658
0.19944623112678525, -0.17169244258417365, 0.011196932983187611
0.19944623112678528, 0.02472760159385018, 0.012017719291619263
0.19944623112678528, 0.029445353361859897, 0.009583565780267887
0.19944623112678528, 0.23232328334704333, 0.017537663334317086
0.19944623112678528, -0.129054106040362, 0.009483829293390705
0.19944623112678528, 0.13282648000242941, 0.019276834133002435
0.19944623112678528, 0.2236657539177409, 0.016235035311419666
0.19944623112678528, 0.12525082907694968, 0.011777102629288626
0.1994462311267853, 0.10371426586762943, 0.01949591454420576
0.19944623112678528, 0.12224166702418499, 0.020198563835620978
0.19944623112678528, 0.04869841109156568, 0.010165948741561414
0.19944623112678525, 0.16521217818188433, 0.016791469111817964
0.1994462311267853, 0.006553947593627218, 0.015660441144907906
0.19944623112678528, -0.12022361624815756, 0.010035938201694957
0.19944623112678528, -0.15785418542577573, 0.009260131314334105
0.19944623112678528, 0.009666269004592762, 0.014260284805586132
0.19944623112678528, 0.10910646238923093, 0.01876702841409826
0.19944623112678525, 0.04036749771488517, 0.01648802942702073
0.19944623112678528, 0.2293836103569281, 0.01723046128053738
0.19944623112678528, 0.1831077084683775, 0.010811123695190297
0.19953093180092424, -0.1375000637732579, 0.008896247288565539
0.19962612121203868, 0.16612040288261865, 0.00857207416677743
0.19959940000434243, 0.022626262775224268, 0.008662076382386991
0.20006029033728823, -0.21049976707488718, 0.008289967761404992
0.19984430251592358, -0.19546441990931296, 0.008418204254960244
0.2141343465759067, -0.2646163458230635, 0.009420466222024313
0.20965882182789142, -0.19412236824926485, 0.008277739398181438
0.23627289873570956, -0.15564181769036672, 0.008277739398181438
0.21812420821106074, -0.1276395612878816, 0.008277739398181438
0.23658344640402246, -0.21763078249359494, 0.008277739398181438
0.2118874801289998, -0.1562220920174731, 0.008277739398181438
0.2245023083836075, -0.0067199658446715355, 0.008277739398181438
0.2300735976165301, -0.10840960319342115, 0.008277739398181438
0.24052446626379276, -0.12775415643566468, 0.008277739398181438
0.21222126736206634, -0.1036434485104083, 0.008277739398181438
0.23654090664462848, -0.12488029647546635, 0.008277739398181438
0.23436892995902553, 0.035278845189241625, 0.008277739398181438
0.23166255201574712, 0.13075280285196533, 0.008277739398181438
0.20965944247932625, -0.19632593135807677, 0.008277739398181438
0.23510945181266596, 0.0024779601158076425, 0.008277739398181438
0.22461495156745093, -0.023835168263212747, 0.008277739398181438
0.21775073759221658, -0.019146246833503803, 0.008277739398181438
0.23065634181475025, -0.03212316129768257, 0.008277739398181438
0.22740333842411944, -0.16042300997870107, 0.008277739398181438
0.2197373850361037, -0.11572887813645252, 0.008277739398181438
0.2338966208735236, 0.16202368137662795, 0.008277739398181438
0.2396524684703677, -0.22402569441508174, 0.008277739398181438
0.21988345985831698, -0.04467964776103215, 0.008277739398181437
0.24061567280343496, 0.06813697476056049, 0.008277739398181438
0.21819456208572388, -0.15395731343141056, 0.008277739398181438
0.20936712509667976, -0.14861969312967116, 0.008277739398181438
0.2258919047534706, -0.2675262477846774, 0.008277739398181438
0.23559791871361588, -0.07389775792011719, 0.008277739398181438
0.21474421748444744, -0.19489254762408353, 0.008277739398181438
0.22304559428203158, -0.25465142763593346, 0.008277739398181438
0.23020889425319882, -0.20634322283811074, 0.008277739398181438
0.21798530000165983, -0.05984189993133586, 0.008277739398181438
0.23041511628947406, -0.2200245335317185, 0.008277739398181438
0.2368538289476974, -0.08147066696090424, 0.008277739398181438
0.2121537294306464, -0.11294205223469567, 0.008277739398181438
0.20979671475970907, -0.13953811774761732, 0.008277739398181438
0.20785989601325405, -0.24316052165749985, 0.008277739398181438
0.23900057146054177, -0.029444137157388875, 0.008277739398181438
0.233253925418013, 0.06965092682350131, 0.008277739398181437
0.23215613342386568, 0.09466430961511774, 0.008277739398181437
0.21761126780551412, -0.1314820981348108, 0.008277739398181438
0.2212260546135952, -0.006098486525571618, 0.008277739398181438
0.22993609927692948, 0.01995933333813675, 0.008277739398181438
0.23435883830429854, 0.18793359280906133, 0.008277739398181438
0.23267301881600264, 0.14814425512771792, 0.008277739398181438
0.23945875330252545, -0.14593253808193485, 0.008277739398181438
0.22248442710818206, -0.1876215824502547, 0.008277739398181438
0.24072514847004334, 0.0832161785255959, 0.008277739398181438
0.21576133250084056, -0.20143063324965388, 0.008277739398181437
0.21624144156185116, -0.23294555785520304, 0.008277739398181438
0.23978834593821363, -0.27747082468888656, 0.008277739398181438
0.2288982802879684, -0.09591292099077015, 0.008277739398181438
0.2393084956889167, -0.00657256694790026, 0.008277739398181438
0.2310263955844249, -0.13746030135684428, 0.008277739398181438
0.2281352318948334, -0.19309429839962802, 0.008277739398181438
0.21351749137797654, -0.08484294359642726, 0.008277739398181438
0.23400197861656902, -0.17939235822830063, 0.008277739398181438
0.23040978473982526, -0.10829287024886067, 0.008277739398181438
0.23258660075579055, -0.153731227193527, 0.008277739398181438
0.23671160407116185, -0.1850578354704719, 0.008277739398181438
0.23036875874859086, -0.24601773914865893, 0.008277739398181438
0.23409947286461322, -0.1490869138790615, 0.008277739398181438
0.22856028088219324, 0.009917242038185427, 0.008277739398181438
0.2288623486631849, -0.09181445088042427, 0.008277739398181438
0.23701223777018343, -0.22611903354332247, 0.008277739398181438
0.23760193493312498, -0.2427070611583073, 0.008277739398181438
0.23017978242559736, 0.003134283551303671, 0.008277739398181438
0.2342776146363597, 0.041114813377058246, 0.008277739398181438
0.20244998590078483, -0.24393514589205775, 0.008277739398181438
0.24085471651633006, 0.16432438457225584, 0.008277739398181438
0.23418197691573694, -0.08542471214947057, 0.008277739398181438
0.23321776552959875, 0.1859377308168935, 0.008277739398181438
0.21757272425945984, -0.14491545688001597, 0.008277739398181438
0.21743622613925792, -0.08419406163620737, 0.008277739398181438
0.23728097056041048, -0.12594910625292985, 0.008277739398181438
0.2391891651769316, -0.18142565211158573, 0.008277739398181438
0.23339236219653506, -0.13531331926956056, 0.008277739398181438
0.22879368675776948, 0.030652016950188328, 0.008277739398181438
0.22018919309404536, -0.19020416903889603, 0.008277739398181438
0.2329214435791226, 0.019907179260583982, 0.008277739398181438
0.24031321613137246, 0.07220557277415952, 0.008277739398181438
0.2289875953894124, -0.014275128809255647, 0.008277739398181438
0.2393052293461455, 0.1102496274901549, 0.008277739398181438
0.23542601606724556, -0.12091537739666972, 0.008277739398181438
0.23463976220329755, -0.15778696376115256, 0.008277739398181438
0.21991981927691873, -0.009886809856139015, 0.008277739398181438
0.21293925747956058, -0.2006320084138678, 0.008277739398181438
0.22435047679745113, -0.2677288071528372, 0.008277739398181438
0.2174257676880762, -0.14111924835780368, 0.008277739398181438
0.2285635391178976, -0.18221303945944095, 0.008277739398181438
0.23331652429630217, -0.19711454613843785, 0.008277739398181438
0.23996959105658253, -0.1757137952038268, 0.008277739398181438
0.22763768770511342, 0.06263065495357437, 0.008277739398181438
0.23299910613184327, 0.07757877102264862, 0.008277739398181438
0.23338396084547317, 0.0019530433898369282, 0.008277739398181438
0.23887004561502856, -0.1777890161843491, 0.008277739398181438
0.21808953002113013, -0.25835025499167036, 0.008277739398181438
0.2355127358541969, 0.0984219948616131, 0.008277739398181438
0.23477741376095668, -0.2489665239128379, 0.008277739398181438
0.22386560703762637, 0.028571355147258143, 0.008277739398181438
0.23687698706022633, -0.04977603522097844, 0.008277739398181438
0.22764161529673183, -0.14025319365316918, 0.008277739398181438
0.2343524414841265, 0.08941153466822256, 0.008277739398181438
0.22201044393051897, -0.16977134826741203, 0.008277739398181438
0.21697667371884133, -0.0844470365528516, 0.008277739398181438
0.23400661177203025, -0.283890783687965, 0.008277739398181438
0.24001876635594643, -0.1054787633026461, 0.008277739398181438
0.22924073300827774, -0.023826218347001354, 0.008277739398181438
0.21621897577870214, -0.1407940366108993, 0.008277739398181438
0.21976004246679115, -0.19988392467823318, 0.008277739398181438
0.22819093457582315, -0.19434853787571885, 0.008277739398181438
0.22598745741441767, 0.04258834095119475, 0.008277739398181438
0.22385838064862584, -0.15064857584322866, 0.008277739398181438
0.23045514006023177, -0.10933884394042502, 0.008277739398181438
0.2270187867474238, 0.04108893943132665, 0.008277739398181438
0.23820020692616622, 0.0025584779570839433, 0.008277739398181438
0.21061925075633942, -0.22504526160255836, 0.008277739398181438
0.23432601664428232, -0.08207215440510113, 0.008277739398181438
0.23497952035267441, -0.24897268424387392, 0.008277739398181438
0.23517628761611079, 0.18804225267739488, 0.008277739398181438
0.22295195287282804, -0.0775932993356285, 0.008277739398181438
0.2348544010129937, -0.0331414404274859, 0.008277739398181438
0.21892686206075623, -0.14999123442261247, 0.008277739398181438
0.23918079827570957, -0.27413305489100687, 0.008277739398181438
0.24078073161465027, 0.2885594523027387, 0.008277739398181438
0.22397328865833432, -0.10960730828233621, 0.008277739398181438
0.21510275881631183, -0.17195434627961842, 0.008277739398181438
0.21135902162437692, -0.2593801790830985, 0.008277739398181438
0.23883392776999507, 0.11733850048755544, 0.008277739398181438
0.22120146894402526, -0.041791467367246316, 0.008277739398181438
0.21640113202653294, -0.21595661765088517, 0.008277739398181438
0.22365542842250052, 0.04507215002409876, 0.008277739398181438
0.20804670622857463, -0.20928519235257226, 0.008277739398181438
0.23468734924049933, 0.06879154739645281, 0.008277739398181438
0.20533046772499802, -0.19125925606293515, 0.008277739398181438
0.23595973712872692, 0.11366429907010406, 0.008277739398181438
0.23578873694695232, 0.04511506983764145, 0.008277739398181438
0.2312147592513483, -0.20673670012662168, 0.008277739398181438
0.23764601015193992, -0.23421719896862947, 0.008277739398181438
0.22226685588206732, -0.21457602485305974, 0.008277739398181438
0.2348352228828523, -0.19554571066754184, 0.008277739398181438
0.22722459945282852, -0.10944823788887793, 0.008277739398181438
0.21033472059348718, -0.15766545176480437, 0.008277739398181438
0.24051814816510442, 0.15162150795740578, 0.008277739398181438
0.22984443123459092, -0.06256899217466318, 0.008277739398181438
0.22773396098765183, -0.18936787385858733, 0.008277739398181438
0.21616612613690642, -0.06385039103283656, 0.008277739398181438
0.23254571143203226, -0.11067288257086735, 0.008277739398181438
0.23231168893651563, -0.2379828776988948, 0.008277739398181438
0.2294504741677611, 0.0695444560928265, 0.008277739398181438
0.23481367931857688, 0.10617972350879074, 0.008277739398181438
0.2059922615625477, -0.1731421825019011, 0.008277739398181438
0.2213812727440262, -0.23563935494061866, 0.008277739398181438
0.22690815175538714, -0.17240279957084462, 0.008277739398181438
0.22227117974096566, -0.19159525608640463, 0.008277739398181438
0.21564834491432813, -0.07903204255940696, 0.008277739398181438
0.23485890300453738, 0.09646043079863295, 0.008277739398181438
0.22004704504707628, -0.16982758956458932, 0.008277739398181438
0.24020728733300498, -0.24152333200869863, 0.008277739398181438
0.22845187333990838, -0.15433551419187522, 0.008277739398181438
0.24011010567400815, 0.19235050544715188, 0.008277739398181438
0.240891371729671, -0.2278803118485056, 0.008277739398181438
0.2162847797031211, -0.12074627044237124, 0.008277739398181438
0.22479488956856564, -0.255463442516772, 0.008277739398181438
0.22471984998575664, -0.18495277525609263, 0.008277739398181438
0.20828484843716338, -0.19676532003307018, 0.008277739398181438
0.23581270804900997, -0.07824258462195309, 0.008277739398181438
0.22921483719715358, 0.13531093444264106, 0.008277739398181438
0.2165885519984394, -0.23972475146297245, 0.008277739398181438
0.22243927777966105, -0.15259047948035773, 0.008277739398181438
0.21729693638418618, -0.2649434204820465, 0.008277739398181438
0.20414655239580193, -0.20145509996601477, 0.008277739398181438
0.23011878056688678, -0.09371708200369884, 0.008277739398181438
0.22269745169701244, -0.254766006581481, 0.008277739398181438
0.22724335806915513, 0.07720020062124956, 0.008277739398181438
0.23661149503690265, -0.19316308681876326, 0.008277739398181438
0.23822386115397917, 0.14395373415839113, 0.008277739398181438
0.24031155028320558, 0.2618212660564403, 0.008277739398181437
0.23537817342800027, -0.1951574120131829, 0.008277739398181438
0.2307147206265151, 0.08170892374727975, 0.008277739398181438
0.22392644122110117, 0.008267003553754267, 0.008277739398181438
0.2379987919762334, 0.19293822965911603, 0.008277739398181438
0.22490203931721653, -0.12570961241891637, 0.008277739398181438
0.21424704450380067, -0.24639119422857259, 0.008277739398181438
0.23445094691394167, -0.15510431838582828, 0.008277739398181438
0.2369355704896351, -0.18367161424338718, 0.008277739398181438
0.24126865093630676, 0.007090102829559519, 0.008470243249314752
0.2410825443904247, -0.14401613393429813, 0.008363846447283819
0.2414651835965614, -0.15504460723406266, 0.008818437938364702
0.24150275198087232, -0.10207007802158057, 0.008943625645724738
0.2415077876040077, -0.04508306145748814, 0.008960405662406499
-0.04257719954538282, -0.24987015505956867, 0.02455119806237875
0.11473923090465313, -0.24979708845831805, 0.02430597315251914
-0.10540203499471244, -0.2503377925441466, 0.025025493241796974
-0.19287517143060812, -0.2503668533641638, 0.025042958958360964
0.07388199294534803, -0.25004059777583576, 0.008488355033661486
0.21875922069095077, -0.2694317119463753, 0.008463631023962694
0.184515058072719, -0.2498783657659763, 0.008767114411371263
-0.03568063673159369, -0.24978050402218294, 0.009094791183690647
-0.04987511029650261, -0.2497518751774957, 0.023111500929951442
-0.07509320640902081, -0.24975187612011016, 0.021304590487005816
-0.12717196762167138, -0.24975187806673566, 0.022457952172690376
0.1542194506690038, -0.24975186754874906, 0.022412460879626575
-0.01876591797150106, -0.2497518740146811, 0.018114380055978575
0.10529751838452865, -0.24975186937737703, 0.020120607196971035
0.05030859643710931, -0.24975187143277994, 0.019523773603467832
0.1367951927697238, -0.24975186820004153, 0.011602557965566548
0.0036487559528574354, -0.24975187317685443, 0.02169885818629469
0.132860404308477, -0.249751868347118, 0.022652856532532517
0.1895574590349581, -0.2497518662278676, 0.017961581869040264
0.15268815679851974, -0.2497518676059865, 0.017924897056824644
0.049394271711461504, -0.24975187146695604, 0.01656877180957682
-0.07293497567736132, -0.24975187603943874, 0.02228219012675883
-0.16387980473582295, -0.24975187943881919, 0.023048168019944453
0.09140509811905176, -0.24975186989665477, 0.018765078215378053
-0.07650540992723767, -0.24975187617289615, 0.021833616288717998
0.18204832847344007, -0.24975186650854758, 0.019657115249660406
0.1478858247587309, -0.24975186778549044, 0.019569520823107117
0.009433973749309411, -0.2497518729606117, 0.02079160908266115
0.04904280347772675, -0.24975187148009337, 0.015899014495517484
-0.1180720539198236, -0.24975187772659463, 0.021319171342797448
0.12627134566501141, -0.24975186859340703, 0.01632371384757788
0.0612875219540917, -0.24975187102240431, 0.022735601148668228
-0.15184377377222444, -0.2497518789889305, 0.02251160890936265
-0.07554129751150232, -0.24975187613685912, 0.022220606699207737
0.060647829556393223, -0.24975187104631502, 0.017819667987204024
0.14319295956602565, -0.24975186796090265, 0.012827372803128193
0.028955964226381303, -0.24975187223090917, 0.01940664451293975
0.08973768004974214, -0.24975186995898033, 0.0194709391909532
0.15434128380895265, -0.24975186754419512, 0.016342853011269212
0.0466432577144672, -0.2497518715697848, 0.017342432881027287
0.14606255006084298, -0.24975186785364167, 0.023034075039217422
0.045400545750209104, -0.2497518716162355, 0.023796373346988427
0.19711851289717458, -0.24975186594524681, 0.013826977107125773
0.07108641155292147, -0.24975187065613663, 0.015266352303164463
0.1247685700861091, -0.24975186864957855, 0.018995475739409552
0.16730563237430035, -0.2497518670596073, 0.01976155890932837
0.16649276997177623, -0.24975186708999092, 0.0166929996626028
0.10775799059636249, -0.24975186928540832, 0.016633524768597537
0.023478204697081548, -0.24975187243565952, 0.022528704025830168
-0.11274659364296982, -0.24975187752753691, 0.023436760477882054
0.09966729574250582, -0.24975186958782628, 0.014742056001318381
0.17171237206456264, -0.24975186689489007, 0.01474179198700145
-0.008469652057388616, -0.2497518736298222, 0.021834552347365324
0.13990538534281882, -0.2497518680837872, 0.016143265901969052
0.24146903118757923, -0.29254621462740976, 0.012046151172147605
-0.20170862564891376, 0.2521057523664761, 0.008653658672517238
-0.19980299262445694, 0.0637432576161423, 0.02489292230457702
-0.1996651911636436, 0.011975756366245358, 0.024809364327178115
-0.19944623112678528, 0.16259956216273547, 0.012941670790987847
-0.19944623112678528, 0.21348967886779593, 0.013127393075115134
-0.19944623112678528, 0.20970971053201978, 0.01981625360681142
-0.19944623112678528, 0.08769792304364363, 0.011626299127957596
-0.19944623112678528, -0.04133367649937267, 0.013936491331229766
-0.19944623112678528, 0.1859265958622567, 0.01625630819625516
-0.19944623112678528, 0.05875361046556614, 0.00982994011568627
-0.19944623112678528, -0.07648853338516506, 0.012689761401459797
-0.19944623112678528, 0.08206987429725351, 0.016257920000567673
-0.19944623112678528, 0.15787539519249588, 0.011466057472316403
-0.19944623112678528, 0.23100633629721443, 0.015065244819127575
-0.19944623112678528, 0.10676883071933929, 0.01222979171337087
-0.19944623112678528, 0.11389729964723407, 0.01568633528523924
-0.19944623112678528, 0.11993116110806368, 0.017716534843761195
-0.19944623112678528, 0.2317851010366804, 0.020942439430257767
-0.19944623112678528, -0.12672194439020823, 0.012103434443299196
-0.19944623112678528, 0.1212431169201649, 0.011401840492502344
-0.19944623112678528, -0.023747675083754874, 0.013716452687212393
-0.19944623112678528, -0.1703057769875584, 0.010107328702336467
-0.19944623112678528, -0.03138864802753816, 0.012878651865054868
-0.19944623112678528, -0.08462652042289093, 0.009721469008910235
-0.19944623112678528, 0.0738251832727582, 0.011935873374649082
-0.19944623112678528, 0.20154504560605296, 0.017115510260491587
-0.19944623112678528, 0.13012139790704466, 0.02038424143827335
-0.1994462311267853, -0.09979489700381304, 0.013188114972797687
-0.19944623112678528, 0.1386203210325199, 0.011298849691216188
-0.19944623112678525, -0.007270437264960093, 0.014529000022435965
-0.19944623112678528, 0.20239080401538748, 0.016268408227379474
-0.19944623112678528, -0.18869677242541413, 0.010217037756436932
-0.19944623112678528, 0.22718555046824912, 0.01903448761315854
-0.19944623112678528, 0.24214422911851624, 0.020819073045881792
-0.19944623112678528, -0.14416905460660073, 0.009296336221198598
-0.19944623112678528, 0.09385622164727617, 0.011970591959935132
-0.19944623112678528, 0.15772612862766514, 0.013044295862875751
-0.19944623112678528, 0.16350805129562007, 0.009377753944289694
-0.19944623112678528, 0.11407502872986465, 0.019184134191988694
-0.19944623112678528, -0.024641710017430277, 0.010285872493937608
-0.19944623112678528, 0.2487651990911219, 0.015706917149868663
-0.19944623112678528, -0.09300267462922474, 0.01237706402730876
-0.19944623112678528, 0.09985624794092376, 0.015627500603294472
-0.19944623112678528, 0.17654657794489403, 0.00974758032239035
-0.19944623112678528, 0.23918369670202666, 0.01787181486173373
-0.19944623112678528, 0.23243766333225438, 0.018414388453576187
-0.19944623112678528, 0.20881785823541738, 0.018668198809074707
-0.19944623112678528, -0.15853983737419727, 0.010749960099010705
-0.19944623112678528, 0.036376275161937685, 0.01093936712099838
-0.19944623112678528, 0.2247070746190827, 0.019827228605770464
-0.19944623112678528, 0.01834725453778646, 0.010242667661533103
-0.19944623112678528, -0.16289941022206458, 0.009245114084079749
-0.19944623112678528, 0.0525614562365002, 0.012598235606906268
-0.19944623112678528, 0.22208544527216656, 0.022254604687045463
-0.19944623112678528, 0.15266639668159998, 0.010848388676859586
-0.19944623112678528, 0.1508584717645159, 0.017397156697410415
-0.19944623112678528, -0.001845928280236192, 0.011649413417992164
-0.19944623112678528, 0.12320178102503798, 0.01121421241263475
-0.19944623112678525, -0.06623324726547544, 0.009568080235056406
-0.19944623112678528, 0.042390234772280766, 0.009650413093362776
-0.19944623112678528, 0.025356152795576126, 0.015214735414641111
-0.1996016502712605, 0.24873633987550203, 0.02467624658675744
-0.19952543928816527, 0.2149929345166306, 0.024406033882432388
-0.19945130952770104, -0.12768328079778174, 0.024161364240667366
-0.24142742172159837, 0.05317419959915319, 0.026642932508100063
-0.24140230502186347, 0.03745922539492946, 0.026726627937486654
-0.24139743330785085, -0.02768769874871982, 0.026742861765992828
-0.24156524240970614, 0.008182752666969308, 0.020698852460476633
-0.24156524240970614, -0.2498848222211133, 0.02273910124287689
-0.24156524240970612, -0.1971429411655012, 0.024526856353481293
-0.24156524240970612, -0.03548272609582419, 0.018745991384014348
-0.2415652424097061, 0.06762905352998175, 0.023166988835225395
-0.2415652424097061, 0.14347191349784127, 0.02263276833488479
-0.24156524240970612, -0.2653774861496196, 0.017283758262659862
-0.24156524240970612, -0.08118701502706374, 0.018534814512643487
-0.24156524240970612, -0.0764632442721421, 0.019607671610043932
-0.24156524240970612, -0.027696156774553962, 0.02448933513268626
-0.24156524240970612, -0.2012075543762149, 0.020987177052264154
-0.24156524240970612, -0.15296198818120343, 0.021706715131740516
-0.24156524240970614, -0.11640228802582092, 0.015818028298076648
-0.24156524240970612, 0.03108367507671385, 0.022333909111769072
-0.24156524240970614, 0.0744680525992249, 0.019968714717484425
-0.24156524240970612, 0.18279640714825374, 0.0232047200680085
-0.24156524240970612, -0.2572543553857466, 0.024636132646865837
-0.24156524240970612, -0.26989299213574297, 0.0243679312940798
-0.24156524240970612, 0.10295090404391588, 0.023902783606145273
-0.24156524240970612, -0.28168720465070946, 0.011491629894887969
-0.24156524240970614, -0.12917157175839325, 0.015192303192519772
-0.24156524240970612, -0.15355546739682074, 0.02366192343732488
-0.24156524240970612, -0.015802465460639036, 0.019664106858484777
-0.24156524240970612, -0.19971472715677197, 0.014003211229504053
-0.2415652424097061, 0.08220018456878536, 0.024287979295371635
-0.24156524240970612, -0.27532456269033706, 0.0209578710976026
-0.24156524240970612, 0.06177292923705273, 0.024882993488713975
-0.24156524240970612, 0.0032896785574110105, 0.020400545952365283
-0.24156524240970612, -0.1509420771527197, 0.016594145495694657
-0.24156524240970612, 0.13256999809133876, 0.02217011605445681
-0.24156524240970612, -0.27007483088750434, 0.01909645027288566
-0.24156524240970612, -0.054959181503582456, 0.018690811840463326
-0.24156524240970612, -0.25583361529362303, 0.01390206864763265
-0.24156524240970614, -0.17105281322607882, 0.016247851159304064
-0.24156524240970612, -0.19526862233656783, 0.024509941698456696
-0.24156524240970612, 0.036764390189381414, 0.02065935257286936
-0.24156524240970612, -0.1585575372485281, 0.017662175383303717
-0.24156524240970612, 0.0722986707338246, 0.021657677686575227
-0.24156524240970612, -0.19011934339826542, 0.013812781603524157
-0.24156524240970612, -0.012330291428426655, 0.017782138003581166
-0.24156524240970612, -0.12077149949887778, 0.01929289653688191
-0.24156524240970612, -0.12510836990325572, 0.023870459525276475
-0.24156524240970612, 0.05631075189921882, 0.020939576131645304
-0.24156524240970612, -0.25466813368073427, 0.022936749128772457
-0.24156524240970612, 0.16217022777656115, 0.025778342846400792
-0.24156524240970612, -0.04863982903786921, 0.0184048941023349
-0.24156524240970612, -0.27422711961653284, 0.014475473338959452
-0.24156524240970612, -0.17393367779297836, 0.0257184549275423
-0.2415652424097061, -0.1102484455934329, 0.01610039637516408
-0.24156524240970612, -0.016396608344972717, 0.018337545849699422
-0.2415652424097061, 0.22268833034856658, 0.025929517172869447
-0.2415652424097061, -0.11630455566907731, 0.01643930214719816
-0.24156524240970612, 0.1755157071689902, 0.025143273465216793
-0.24156524240970612, 0.17794313649578986, 0.024866994693449402
-0.24156524240970612, -0.1433773854371721, 0.015431000191826234
-0.24156524240970612, 0.06972046994626165, 0.023710504111563908
-0.24156524240970612, -0.2176445044210403, 0.02250384985057724
-0.24156524240970612, 0.1488474326706169, 0.025765132192359392
-0.24156524240970612, 0.02585477322453518, 0.02102609455362551
-0.24156524240970612, 0.042246502179067176, 0.02073734055980263
-0.24156524240970612, -0.27031969309707227, 0.016097849257582876
-0.24156524240970612, 0.13051180481206226, 0.023235013980594448
-0.24156524240970612, -0.27417747603348963, 0.01925442776521469
-0.2415652424097061, -0.008407580592654559, 0.018598271841786043
-0.24156524240970612, 0.10356132660333713, 0.023311056920344426
-0.24156524240970612, -0.2742578757440791, 0.02430071912065946
-0.2415652424097061, -0.17389003058880187, 0.016107061313023474
-0.24156524240970612, -0.2698205257041857, 0.02071289295894893
-0.24156524240970612, -0.2730780800550646, 0.02104233198942121
-0.24156524240970612, -0.06216359307918359, 0.025069578829067747
-0.24156524240970612, -0.11220530967062946, 0.021707154784112708
-0.24156524240970612, -0.009078706441945833, 0.025703987579352106
-0.24156524240970612, -0.22088018056128766, 0.024843004667960075
-0.24156524240970612, -0.28035839630083015, 0.014256639208161113
-0.24156524240970612, -0.2132981736034653, 0.02370968125702403
-0.24156524240970612, -0.02824564728235752, 0.018150866266726892
-0.24156524240970612, -0.11280694380820447, 0.025432888453219407
-0.24125638468006375, 0.28628740265914887, 0.02687230783957464
-0.24094094594380788, -0.1541909428088091, 0.027052644951248598
-0.2409375876621697, -0.055869689265100095, 0.0270545648892309
-0.2276089876089941, 0.22599617027137162, 0.02640625451745486
-0.22342744662571745, 0.08979431419990674, 0.026201760173589224
-0.20211595884164565, -0.17041007984569037, 0.025159541831443675
-0.23223798726809636, 0.2771428174404927, 0.02663263140861249
-0.21596783881396048, 0.23243914849494005, 0.025836955042882394
-0.22661102976324948, 0.10734468450001268, 0.026357450324051693
-0.21828498506247623, 0.26272063974945226, 0.02595027290910109
-0.20127858518853453, 0.2338446962316512, 0.02511859085752086
-0.20093662104150162, -0.16313922127670055, 0.025101867421315704
-0.20830375381770747, -0.046040382934232245, 0.025462150147053983
-0.20663607505645734, -0.14443986902162703, 0.025380593879777303
-0.20412205881269882, 0.17552298053583554, 0.02525764827089986
-0.20297494170474212, -0.029045899786028062, 0.02520154958353393
-0.2103114682716623, 0.03442760703672729, 0.025560335541283778
-0.22170992505267784, 0.2232376961308713, 0.026117766390302524
-0.20921419098812993, 0.15454428994141411, 0.025506674223833577
-0.20242859657224993, -0.11618934184781851, 0.02517483108673096
-0.20424600461628223, 0.028875657759386206, 0.02526370972429229
-0.20408694647892947, -0.018898940719268856, 0.02525593113511559
-0.20586250090309122, 0.09767427135383024, 0.025342762960612174
-0.2085170798147067, 0.23990370847587353, 0.025472582655060083
-0.2083142562278473, 0.10223438317816783, 0.02546266375758157
-0.20450584882307454, 0.11773764842107695, 0.025276417161762783
-0.21561781380818082, 0.011440072347247456, 0.0258198373979329
-0.22341935513304162, 0.11931597396156715, 0.02620136446672129
-0.20270258953385278, -0.11075471562333165, 0.02518823045579869
-0.2003563552367336, -0.13785853229319725, 0.025073490065817272
-0.22792413462468436, 0.13815912633646057, 0.026421666486978187
-0.22122247671956727, 0.19764448101467566, 0.026093928186289576
-0.2185383485036409, 0.13009369706958002, 0.025962663410800755
-0.21865889581257228, -0.0035167918940040856, 0.02596855866399647
-0.21154325204655927, 0.17355089954770764, 0.025620574772667444
-0.20592924008636226, 0.040019423760360565, 0.025346026777838343
-0.2102548883968618, 0.08220204634922322, 0.02555756855551953
-0.21562477677569805, 0.006583153326480535, 0.025820177915335335
-0.20173873757382024, 0.24392140957560415, 0.025141094178780545
-0.20254731009684557, 0.1915326908838865, 0.02518063666042191
-0.20664954405835287, 0.0051760005531840125, 0.025381252568695136
-0.22271437461859767, 0.1668729135973315, 0.0261668880551984
-0.2172029806716699, 0.1108023350195232, 0.025897358498159627
-0.21844767613904031, 0.13164924310277903, 0.025958229163766014
-0.20322873476306158, 0.07218394385504502, 0.025213961095258017
-0.20032378350863064, 0.10756973344236899, 0.02507189717597269
-0.2266185184512413, 0.24502930525550784, 0.026357816551321363
-0.2228422937404055, 0.0908764275260687, 0.026173143819995776
-0.20349166195598276, -0.08622803558160705, 0.025226819303276516
-0.20398856612579253, -0.008266279000320148, 0.02525111993612353
-0.20506494607289316, 0.13060652250536708, 0.025303759288915425
-0.233216488316538, 0.281636291015354, 0.026680484085573726
