-0.024285609721490922, 0.02422529146751551, 0.06214696031653607
-0.02149483016550894, 0.018280911326705094, 0.0599349737087868
-0.024587654843743287, 0.018916404286719382, 0.05906504516532681
-0.020350285060388076, 0.031261699533890554, 0.0674310232315117
-0.017403225064098176, 0.030762955707403263, 0.06792054554298783
-0.02381821936380357, 0.012030417787852759, 0.05552735168649622
-0.018854995239750653, 0.011831007874150798, 0.057381149237659815
-0.018848326591107578, 0.020882751788573416, 0.06225730251618765
-0.020111924334820466, 0.022976049079544814, 0.06305411998065061
-0.012488470292068711, 0.027065044999932585, 0.06716054090920094
-0.01096383394355738, 0.028790091969354017, 0.06825523584446543
-0.016250756848723055, 0.01901375476630809, 0.06192313032150261
-0.012273811540464752, 0.019463462353314077, 0.0631851032580202
-0.015323639704353138, 0.01280341239426765, 0.05883468010394368
-0.012017655406621655, 0.010259039159262396, 0.05832063538670324
-0.009261889747918245, 0.02018153508489676, 0.0639685404023092
-0.010808926256917685, 0.022801535066871773, 0.06514318696325283
-0.007397738599076747, 0.020433251098726363, 0.06433567213003548
-0.007507947091882676, 0.020742973246802587, 0.06448371340759856
-0.003936294348992564, 0.03165453659335935, 0.07057727626836142
-0.0019665673734514054, 0.029356406414277288, 0.0693849826390823
-0.0027950991595590965, 0.019905202268265698, 0.06448160225121312
-0.0023145258397035302, 0.022163608738264735, 0.0656532860085561
0.00011912191809576264, 0.0218762868439755, 0.06550422054972936
-0.009097954002458658, 0.011560810885254146, 0.059481182516686666
-0.00041113705866856415, 0.013008925257713813, 0.06090374320754349
0.0032685181154094734, 0.014700382993634851, 0.06178128902971926
0.010623821167609031, 0.010849224959134585, 0.05891630837833062
0.009935997711140595, 0.015737330077873604, 0.061559357128266046
0.0038470752495592736, 0.02030054222846925, 0.06468670855787337
0.003403593268031256, 0.02180860380095592, 0.06546910591327791
0.011065472126362497, 0.02088540156765125, 0.06410877002241251
0.006156188367512168, 0.023702049000609064, 0.06620188914360262
0.011027739716708226, 0.022460752010423794, 0.06493734205334173
0.013024693988259426, 0.016702229004479253, 0.0615132973598906
0.01640765057982164, 0.015135425192235093, 0.05980546881158365
0.005319987495223473, 0.019391622163223363, 0.06405346082516662
0.008025021974714042, 0.01979286343137623, 0.06392154983747922
0.01734620664018613, 0.021990162647044936, 0.0632361461250035
0.02050357991451551, 0.02474474281221408, 0.06390092782171496
0.006529114578780348, 0.02977775502993053, 0.06933197019125141
0.006428995438849469, 0.025219380554726563, 0.0669608899421836
0.014250714955891423, 0.019443637945799994, 0.0626669139177829
0.01388408152433661, 0.0215242692475837, 0.0638755158063544
0.02594553299357312, 0.015439226086709733, 0.056587176597249766
0.022700313989389896, 0.015191634858274104, 0.05773389187440807
0.024171780059891505, 0.022715379840031115, 0.061349502143808604
0.024943216276256633, 0.020707753488044475, 0.05992382636609539
0.014179859213756151, 0.029929892343671775, 0.06830194172484641
0.014867617611939506, 0.026677997034322908, 0.06638351913847515
0.02822054345671679, 0.01686046937047846, 0.056266394882997284
0.029568114418518126, 0.013921502069299277, 0.053785566471171484
0.02145043014375349, 0.022533990145696365, 0.062325743013452325
0.023102307940513135, 0.018641978880695388, 0.059500001865084876
0.03504099108702044, 0.02322101866441975, 0.05628252052364284
0.03444543968490831, 0.021949262964662562, 0.055856996185572105
0.022473096290466805, 0.03010622805615146, 0.06614610262432542
0.02427631248032993, 0.02663518056174729, 0.06349533952915562
0.03749291965100554, 0.013230130753793779, 0.04818281562751823
0.03891952773346734, 0.016942595719924826, 0.0495270686924873
0.03172236348285312, 0.01915193530853594, 0.05569789031020871
0.029730689811091268, 0.02102590936517998, 0.057902297804773406
0.02926715743542188, 0.02582421287895883, 0.06099792453389352
0.032077268752932764, 0.025771697578789617, 0.059421955378464564
0.030335637115637977, 0.02859067540081929, 0.06204837992242722
0.03991991758770996, 0.020094658089140266, 0.05082161078959355
0.04089314281405043, 0.023171380248531406, 0.05208757501849547
0.03712546378925461, 0.019788694044811178, 0.05265569368451703
0.038688920135244394, 0.0175296091681537, 0.05007105786117425
0.04295576612062429, 0.017041283083337057, 0.04607951579930647
0.04341465942275342, 0.011119798444016046, 0.041434244511873844
0.04666062411435772, 0.021555158236620447, 0.045812967380639336
0.04596134711337477, 0.022569149892248765, 0.047191293294266135
0.039757717610700585, 0.02921848909495156, 0.056790427214647596
0.03853119786733213, 0.028148626153445037, 0.05699546109585668
0.04442323979062343, 0.028601792845795043, 0.052929124837634206
0.04755786082161429, 0.026800081241644833, 0.04870323715516021
0.050412076859996845, 0.027990486041187288, 0.04680267834809937
0.0505083102723247, 0.028455581274318485, 0.04706490087661425
0.04674929130962453, 0.018530650115409265, 0.04353071003711206
0.04890475432849696, 0.024579291889898297, 0.045848291411297815
0.04816973225339469, 0.02205983691454313, 0.04468615495412194
0.04199782602892187, 0.017561442506769935, 0.0473492798438665
0.044311900656272475, 0.02098023364298744, 0.047609388038404865
0.04849537366902756, 0.018787615328489028, 0.04162920823953741
0.05068960658274272, 0.01967746224651462, 0.039701098293564385
0.057871993320098056, 0.029192009409583303, 0.03814057878977019
0.05831597972386004, 0.031193469047565037, 0.039378862980940635
0.053906979135076014, 0.020804356714609434, 0.03626717393569828
0.053351115221137446, 0.021461588926744615, 0.03777943710036323
0.04817087896546939, 0.010855378367267588, 0.035565280653307385
0.048056308892465566, 0.01263537788018199, 0.037152540839029385
0.05416532668523641, 0.017907367676297962, 0.03305508473636718
0.05310850015654462, 0.019138980272740167, 0.03591288792008001
0.06137253263058213, 0.030118694794083946, 0.03346551804382575
0.0616739933275956, 0.029313147614047432, 0.031843325570407054
0.059878601803329254, 0.023515163452411985, 0.028593905912887005
0.0594735020469813, 0.022411003715067004, 0.02810936968606277
0.050005260439659006, 0.010956775886729534, 0.032880457072538775
0.05019352032991092, 0.010847654559414076, 0.03247814961431734
0.06116952426637689, 0.023416086227487847, 0.025729815902816956
0.058779096688841334, 0.017599844170434663, 0.023722663469815098
0.06700009299474743, 0.030694681103749424, 0.02057622684187918
0.06491246608633701, 0.028405334245640797, 0.023157669759864476
0.053330201374276166, 0.010411520182720332, 0.02654323780915086
0.057084470703751465, 0.0151944176406353, 0.0243929321470711
0.06287651855445317, 0.02461636376200123, 0.023062352657026677
0.06127583827424061, 0.022059158286045964, 0.023695424535668717
0.06667750231746611, 0.02779738535298825, 0.01643536345988151
0.0675469353868387, 0.028939889427759914, 0.015040909037383948
0.0656925618885114, 0.025741208562410703, 0.015905591443277124
0.06265180494069376, 0.020631381760817736, 0.017063584906075832
0.05982444015825672, 0.018350381362907127, 0.021935692126265064
0.05687249802477118, 0.010999047887578361, 0.01867866402199039
0.058289417988383364, 0.012353419390731354, 0.01659171360205683
0.06606662336704876, 0.024129461683719922, 0.00948209415674031
0.06549090088905479, 0.023824445621762825, 0.011655657831724092
0.0684634561058435, 0.02802664603666112, 0.005840081613446572
0.0695992429275174, 0.030562174570092387, 0.008737214641215367
0.06282030765630076, 0.017719047408356347, 0.008751061625646593
0.06361489418023197, 0.01904891853644278, 0.008267758652831775
0.059754701776739645, 0.012861642398221896, 0.01137270639540704
0.060354437947960644, 0.012669482866920434, 0.0076966679277247095
0.06661192231461166, 0.024530835651596666, 0.006385078417212951
0.0643515708647631, 0.02028716488118694, 0.0072486935920871845
0.07034231873767804, 0.03190601597894607, -0.00803085957187261
0.07048597384921604, 0.0316420619470219, -0.0035660174297333083
0.0654438402144369, 0.021865897097917985, 0.0029319547561089208
0.06371025125772077, 0.01881228880266693, 0.005255908721425088
0.05953018658172847, 0.01053131422943285, -0.0032745578497732682
0.06028637166254846, 0.011849800135869412, -0.0021492430173214614
0.0605100564083413, 0.01214939000376173, 0.0010690176444715332
0.06036846178183136, 0.011881940619187015, 0.0011097858901674398
0.0645117300680945, 0.020036933733622097, -0.002635785184195433
0.06513531826284573, 0.02099006365194267, -0.0005991969190370736
0.06347910632622408, 0.01786220215981959, -0.0010798245828760066
0.06393292858179339, 0.0189698920417162, -0.0030191131821327784
0.0680418638032348, 0.029518509152757683, -0.01404873252863565
0.06898047505746854, 0.03197388561999369, -0.01592667863844214
0.06538180861819294, 0.024255817244934894, -0.013422227367498273
0.0630757960051049, 0.01798007827081243, -0.008134764172437067
0.06582664392801249, 0.023798847636511383, -0.009825029912459074
0.06263517395859262, 0.0189412704484234, -0.013105973451799473
0.06419388236932479, 0.022880730828454616, -0.015842334988215637
0.06544585707066398, 0.02572820837816347, -0.017021658804894774
0.06581530413457763, 0.029289976436537423, -0.021864463235638443
0.06045832467143165, 0.015132389144732066, -0.013971641302966142
0.05892286350658837, 0.01125067620573126, -0.011273320812146007
0.062328143907993336, 0.022449900018963045, -0.02111299722758762
0.0630648290773382, 0.023015409525784666, -0.019795159234053356
0.06475178482280058, 0.02973099859556264, -0.025811953593315153
0.06413622614099851, 0.02941884418836332, -0.02673972050702943
0.06049365902627152, 0.01925990815186022, -0.021403251443673346
0.0619615440226814, 0.02362522778211424, -0.024214521915250413
0.05698868308000026, 0.01297163367421018, -0.021633027780971953
0.05663145472153912, 0.01016442812578577, -0.018019463475765066
0.05947123676200735, 0.018934150099772225, -0.023877763962918613
0.06079617119966789, 0.023109521522077008, -0.02614980868600944
0.059455825783840455, 0.02685083252508626, -0.033378086128752454
0.05983972134647608, 0.0321442006882919, -0.03789843516353267
0.05774017580695338, 0.018912139204004027, -0.027529618068839648
0.05820045160138081, 0.021302278202640114, -0.029463853391899483
0.05575832218065712, 0.022734351454864802, -0.035218672156711914
0.05672940537099311, 0.024541416016563122, -0.03543816759352958
0.056473910676501246, 0.02070548392494776, -0.03212664088413626
0.055183773074226984, 0.010773878806870555, -0.023045827336662075
0.054661092472232116, 0.031905998208854806, -0.044853457681194184
0.05478997416402255, 0.02681078918121542, -0.04055058691060574
0.056418621287092796, 0.030884952985956955, -0.04189791984280368
0.05363436425145973, 0.019505757406810827, -0.03543943221221218
0.05412993444251574, 0.020160127921859873, -0.035292127641347
0.05190405094044254, 0.024480966806798274, -0.04214279391861952
0.05161704153184939, 0.019389445239388764, -0.03834564185041912
0.05170719323652587, 0.012706256620020642, -0.031892593204997134
0.05152917373871697, 0.013412971566841493, -0.03285738117346527
0.04719246385717488, 0.018559762946937838, -0.04301876313243748
0.048050429756183385, 0.021479263976937713, -0.04435789323998706
0.05063169495341058, 0.03183123342907298, -0.04939745972166804
0.05050794369364031, 0.0312744532195857, -0.049117407601724616
0.04489245418842042, 0.024201814160117456, -0.04935707554976801
0.047641365385690665, 0.0230079751233644, -0.04592602120899001
0.04582344606949696, 0.014860666342514723, -0.04166286469133686
0.04571293425562741, 0.012819231673127424, -0.0401348897548802
0.0439169992453038, 0.021878944928551424, -0.04861989265543071
0.04172905606072603, 0.019472098622295743, -0.04896154544666165
0.04335701949815222, 0.03170263491993645, -0.055768462484718014
0.03910834243943135, 0.03176041439083143, -0.058892356048781486
0.03210520369697885, 0.02431614195114318, -0.058544877092806924
0.030987828964182236, 0.024511179561286546, -0.059274631038405114
0.033674629090318875, 0.01537399423798988, -0.052331825742005435
0.03598757967878501, 0.011133623050791408, -0.04793209015755009
0.04115437460073651, 0.011470267894698209, -0.04380627421747853
0.04163188936383966, 0.014412568148795234, -0.045451905134658376
0.04184442866531118, 0.02240018798178965, -0.050901915225009906
0.038487254332403596, 0.022940325875604684, -0.053687425712747865
0.03594852625874859, 0.0256759735013139, -0.057237064594626755
0.03439702617654056, 0.030373893869108597, -0.06087137244052848
0.036069847291576966, 0.03070067949842123, -0.06014519961873087
0.03487959656151614, 0.018626585681891364, -0.05354220303763229
0.037336235888836306, 0.019226319407602676, -0.05214195417660336
0.034548668326899866, 0.04930481082556331, -0.0719958923981769
0.03716860673995992, 0.04866295923414214, -0.0701755642072719
0.03454689152302438, 0.06148002010068438, -0.07887216808856283
0.03401849098272536, 0.05704113947330039, -0.07660450642488736
0.03260580901362003, 0.05776722246295794, -0.07756897706831499
0.03341287749087954, 0.05249647743936542, -0.07430839084689267
0.03354438070675453, 0.047539907058867625, -0.07149058800735587
0.03806550668918952, 0.041246824664941686, -0.0652918319795257
0.03348457454046218, 0.041935321522276234, -0.06821784280108434
0.03696035505855361, 0.03989989179062245, -0.06510195567694571
0.025664595858028404, 0.05123490393783092, -0.07667220405336284
0.026874638060990247, 0.04908679632877425, -0.07499448293251731
0.026291558638520923, 0.06036102519248175, -0.08149228351467037
0.018280302939190394, 0.06030799339020176, -0.08352081763590453
0.019781902248466182, 0.05951992654854156, -0.08271315421807389
0.019734190276323157, 0.05197396672973685, -0.07868350393920295
0.022572062546469145, 0.053672527377865195, -0.07886467528927397
0.021477668144310364, 0.05369829255916027, -0.07915946877668284
0.028711453805292317, 0.042470251695444286, -0.07057524499222051
0.02404992384649767, 0.04532638774829486, -0.0740145824062142
0.009718125050893351, 0.059952877624176115, -0.08470868653963066
0.015549812258073361, 0.060854755679733454, -0.08444360088327445
0.008940504201948255, 0.06039201138879967, -0.08503655966019037
0.017762182353579112, 0.050942448629840056, -0.07863730842547668
0.01842026814734765, 0.048009029959097727, -0.07689708952331617
0.019071667147242323, 0.040882942995113386, -0.07291283845354478
0.019663453742012737, 0.041941377713183466, -0.07332783216872939
0.015909082069402832, 0.04406929062087498, -0.07543157707116012
0.007323978471174705, 0.05373134201957722, -0.0817576816009746
0.011616711809096441, 0.053750344933248886, -0.0812253284001741
0.0002758842468996805, 0.04643122632796879, -0.07824356096514193
-0.0003052484474381264, 0.04467040567513989, -0.07733003106751579
-0.004119445145521082, 0.04166139050766533, -0.07576892641243219
0.005821750047574132, 0.045167655408262106, -0.07746922096497263
0.009958042809268645, 0.04058239711255427, -0.07454890665937194
-0.005064321279889509, 0.05395740720234109, -0.08214821443105101
0.0025205863934624857, 0.05268258496607749, -0.0814868246333325
-0.0029277575709351377, 0.0498026419170739, -0.07999268302171139
0.008985542331069721, 0.04709557267275225, -0.07807771641553152
0.008777650799653602, 0.04995002977025648, -0.07959666847860739
-0.012573323686626062, 0.04238476484256741, -0.07516102704984759
-0.01049970478813181, 0.04407801710587468, -0.07630844351445337
-0.008908065095224241, 0.04451055634913442, -0.07673570374671955
-0.003302874726614798, 0.04730146855311338, -0.0786950506944802
0.0031782879802581335, 0.051713196377813464, -0.08098389669242859
-0.01185589024046803, 0.053815640785316005, -0.08122923986290612
-0.009770023996937032, 0.0516010202791279, -0.08033464890624549
-0.005718837131632647, 0.05409421497184639, -0.082150207694463
0.0011240095203259761, 0.05741805856936399, -0.08394363689661875
-0.0029585708999564073, 0.055546908349428215, -0.0829728641363336
-0.0023683743554548387, 0.05436170043081885, -0.08235796558334636
-0.020802791938511388, 0.045441107860769936, -0.07490985204327444
-0.020228571407229716, 0.04476090215019987, -0.07469294370700018
-0.0077318011421920576, 0.04951111161303296, -0.07949925498555042
-0.009290680537641427, 0.04895113439329588, -0.07900949170772549
-0.00742181610799611, 0.05173090721934443, -0.08069921948024635
-0.020058546564677975, 0.05325532554710197, -0.07928653340570291
-0.024551958487950137, 0.05245472576082244, -0.07770398900200401
-0.008707820011328096, 0.057525212037798965, -0.08356679560809577
-0.007403572706250519, 0.056251061927095364, -0.08306526416904164
-0.009062083718874668, 0.05464246289507672, -0.08201455351424153
-0.018994510537068555, 0.049741040274021806, -0.07767734648278524
-0.015227524335358728, 0.05072646707507031, -0.0791723792875022
-0.02774505663753875, 0.046561266306481996, -0.07324058890818355
-0.03212449830561129, 0.04599919369224022, -0.07119301835155918
-0.02982349361277191, 0.04244161800373873, -0.0701189449672649
-0.034162172949395275, 0.054336111454192454, -0.0750381952658062
-0.03190878932897609, 0.049130787833329664, -0.07302583389087518
-0.018054583783105208, 0.057075724554410776, -0.08184741972991116
-0.01677785093855154, 0.05788055914954556, -0.08260633038622645
-0.015753262423272164, 0.05625859450625172, -0.08200061145115223
-0.03838564518545532, 0.04696537495061544, -0.06850140519837687
-0.03838157701318566, 0.042841548230781054, -0.06606216771223788
-0.03635627071714328, 0.04382271396437486, -0.06775648426000247
-0.02546243203195251, 0.04907199778967511, -0.07554531500981357
-0.026956631788144343, 0.04993780850011345, -0.07543683915021075
-0.041324503236600564, 0.051225430120391886, -0.06940788026769013
-0.04219688526289408, 0.05193328788648656, -0.06934736481026796
-0.037996987041276915, 0.053699762070364095, -0.0727021121973995
-0.029359723847247506, 0.056590424142497646, -0.0781975078852446
-0.027268844707233585, 0.056461198558176266, -0.07895323753524958
-0.044270439100399475, 0.046918696858859577, -0.06486257918253266
-0.04509475237318143, 0.04399242367206481, -0.06238711284920305
-0.04420234390487621, 0.04484727233379806, -0.06358368445784797
-0.035065264913246075, 0.049071428040365184, -0.07157367857396403
-0.03616724546045033, 0.04872926018826598, -0.07076527944072404
-0.0469664481476033, 0.05252254685907521, -0.06649747796279801
-0.0511338359321959, 0.05406744488021495, -0.06446041027494062
-0.05036815035718893, 0.049054833206166285, -0.06180220708729452
-0.038646028312661077, 0.057510631948984495, -0.07460149135283714
-0.037843127529508774, 0.05684147093160436, -0.07464671990008626
-0.03733829109352766, 0.059043305862742715, -0.07622783430832028
-0.04663270512893268, 0.05037160747445711, -0.0653605931155957
-0.04838290825964638, 0.048084700974884875, -0.06262243942649462
-0.054992833966648835, 0.04252127237170464, -0.05291013465678719
-0.05438331786358844, 0.04275637072794606, -0.053649829511118165
-0.0505988499851474, 0.04639000751745388, -0.05978975805592327
-0.05663748329444638, 0.050171156358688816, -0.05681015439696223
-0.05548201828462028, 0.05184733434166282, -0.05908815218485784
-0.048673199288650396, 0.055171102482383126, -0.06695592607337517
-0.04899494272010201, 0.055335690088263875, -0.06682771308353502
-0.04563539330788559, 0.05694752539685042, -0.07030221378859253
-0.057237188259092284, 0.05496418666075285, -0.059658213936740756
-0.055121275807770265, 0.05822825656630965, -0.06396824106175783
-0.06202538387383795, 0.0575614921260389, -0.0568328846881343
-0.06545680661414255, 0.06163721376337292, -0.05600230237526166
-0.061716608455273714, 0.057773876070944974, -0.05737899268452147
-0.06008685599599125, 0.04980552821386792, -0.05286345544825882
-0.06211643973650237, 0.05298663728020758, -0.052999267590984875
-0.06018262408149943, 0.0523834841758679, -0.05484593342778746
-0.056412508633173625, 0.047395997067279566, -0.055046327355397204
-0.05624197568616826, 0.04713352762876761, -0.055019668177091224
-0.06877642557443323, 0.056624341336449266, -0.047519017630637345
-0.0699840382544364, 0.059217864731797513, -0.04812728179127572
-0.07211169706273468, 0.06023130224541688, -0.04575587635145021
-0.061234848549851804, 0.048387394414261736, -0.05032152896851302
-0.06146257028417551, 0.048171984622387504, -0.04987093530820946
-0.06119118152530773, 0.04927585952217704, -0.051097449185851566
-0.061354682164424794, 0.041514532226304794, -0.044582752237557796
-0.05785939430905865, 0.040321451287674066, -0.04783675978528003
-0.06897093553112779, 0.0526322464847327, -0.04334720581079227
-0.06854998026111644, 0.05321423389821471, -0.0445740302474768
-0.06632889348738466, 0.05025687334179126, -0.04521046583881812
-0.07043750559866337, 0.05178343801583977, -0.04021440803560992
-0.06911740620062538, 0.04906890223265224, -0.0396662275801864
-0.07676194511243835, 0.061305032828132044, -0.03876167783143325
-0.07544694201205429, 0.059074374511170286, -0.03883815844024748
-0.07572513569279443, 0.060876577633275065, -0.04044294013992472
-0.07278159859175842, 0.052092630049573846, -0.035995085471428635
-0.07262378526325047, 0.054155664784719136, -0.03884425375487293
-0.0650907168198111, 0.042006448431916504, -0.03917312178161117
-0.06259074081205085, 0.04122870543600318, -0.042359419525553325
-0.061758792748828936, 0.04013722142905804, -0.04261354127969275
-0.07328196724322533, 0.049310316485105435, -0.03154150837666251
-0.07411448426411436, 0.05015386938949305, -0.030800182332637004
-0.07928308723664985, 0.05833246561995874, -0.02917415718365076
-0.07988920412026944, 0.057984970468532245, -0.026725308445164683
-0.07897434213746907, 0.057352804796648366, -0.028479619454892968
-0.07655389804480897, 0.05283491319176108, -0.0283438758631124
-0.07618012938862172, 0.050279218634123324, -0.02520345495391577
-0.0774485328544151, 0.05213414438420367, -0.02441395280781027
-0.0694273583478585, 0.03991632670085296, -0.028286431104133977
-0.0717015172327924, 0.04547105897841485, -0.030222019813783065
-0.07334950084561301, 0.04697934830089613, -0.0283750677526862
-0.07479597984177558, 0.04779470664904256, -0.02529217715310392
-0.07799234967370994, 0.05182267195150788, -0.022217328160532453
-0.08448701698491319, 0.06115531266798589, -0.01543383221589966
-0.08256803158230847, 0.05882427097960582, -0.01903945843388769
-0.07977927600362524, 0.05245335596966699, -0.016019225715877147
-0.0777013327107025, 0.049512174991794486, -0.018768848241434648
-0.07871180640276737, 0.051830343265301934, -0.019890155774018488
-0.07341380580604963, 0.04380281051474422, -0.02284406167356982
-0.07133847258565057, 0.04106091080783264, -0.024627885564069488
-0.08301183173458017, 0.05645940215909856, -0.00952719916867698
-0.08291604317996427, 0.0560926903154353, -0.008019723829576842
-0.0851359953150728, 0.06044897561262858, -0.008728708159913548
-0.07742244000925844, 0.0470874839336419, -0.013517518040120472
-0.0776945692951092, 0.04733705003045226, -0.012781946306198156
-0.07608198258823026, 0.043193804021535165, -0.009763859993555928
-0.0752664856846551, 0.04225269639004829, -0.011433166601608001
-0.07619441888988569, 0.04369386222548137, -0.010558978142835164
-0.08073708604526345, 0.052028168378454656, -0.009069970726795792
-0.07922524392775535, 0.04898806906169313, -0.007981100623302588
-0.0847799614146547, 0.05961520670072125, 0.007498726447509235
-0.08520893743250861, 0.06043262420821605, 0.007434297650379849
-0.08297455088794739, 0.055405126387558574, 0.0014088851648148529
-0.07938207970521893, 0.04866992965109061, -0.0028595994795600705
-0.08060288299459954, 0.051162483310340394, -0.004050364538262583
-0.07884653926493947, 0.04753584962078117, -0.0020013628398149056
-0.0758987639523488, 0.04172394481475852, -0.0008338026864075376
-0.07818582813272859, 0.046027209721554795, -3.784580774413612e-05
-0.0810033837867207, 0.052235225291733134, 0.006548130753710395
-0.08147537678947515, 0.05320412304038419, 0.007051585618571253
-0.08092403452642213, 0.051326659652744404, 0.0003023411114810324
-0.0793591014749044, 0.04920405370645228, 0.007638086397091788
-0.07932097837859439, 0.04882064789123685, 0.0050761140176561245
-0.08287212576587735, 0.056463285339190476, 0.010908418915211115
-0.08369397571073313, 0.06034716014201119, 0.017353574955564485
-0.08380158443630997, 0.05949683980442031, 0.014435156771662247
-0.08084790155265792, 0.052731273951183794, 0.011186809879458682
-0.07885902889509477, 0.049964563406557326, 0.013952573126282206
-0.07997728270456265, 0.0541631827029706, 0.01971535724349633
-0.07450212426960544, 0.039676900219082774, 0.006119026051376778
-0.07459041233971678, 0.03974949940773041, 0.005315580158170865
-0.07779621361364164, 0.049913552516508614, 0.019382821338743743
-0.0777660125665153, 0.047089703388830284, 0.011722635227479709
-0.08163205668976943, 0.05891438360898583, 0.02292179647450369
-0.0815166482661348, 0.06149392567360584, 0.027607762395183304
-0.08108832179918948, 0.06085374154009637, 0.02785120679521954
-0.0745537435041443, 0.04174332650592434, 0.013759230870582097
-0.07441034248104667, 0.042615151959711356, 0.016924822970962556
-0.07469929861479177, 0.04151912752698531, 0.012375455649288073
-0.07703765876169118, 0.049879455285241917, 0.02189313512425741
-0.07795352969129492, 0.05402631595547933, 0.026036529991995475
-0.07699022978995612, 0.05930116669486659, 0.03583486283067967
-0.0786589599831242, 0.05922913152209765, 0.032200850193458926
-0.07747873652653643, 0.0566715133095125, 0.03159251199394837
-0.07463791723386118, 0.04873709836667115, 0.02736083868033417
-0.07568110598861821, 0.05024556908328626, 0.026682817285691496
-0.07538013178962436, 0.051676354083678155, 0.029965701172193743
-0.07366324428667534, 0.05218407057242468, 0.03423293371813551
-0.07481635397633862, 0.053079233943523554, 0.03287319874771688
-0.07211143484897001, 0.03989131196260195, 0.020285360884275287
-0.07235700844945463, 0.044647912224550744, 0.027515398853119405
-0.07343852366184064, 0.05777819419047627, 0.04128995836240305
-0.0721503860640564, 0.06141049982568442, 0.046836668619314466
-0.07142547869743565, 0.057961213450407154, 0.0446392073767175
-0.06954928620495224, 0.047672350638318775, 0.03747805115998528
-0.07232832363921535, 0.05280106033610418, 0.03782159280171183
-0.07120475005483852, 0.05068331104048229, 0.037628845353550835
-0.0678582913443235, 0.0517981317087382, 0.044292846300787905
-0.0714370197692929, 0.05360122273947464, 0.04039951259107859
-0.0686591808834274, 0.04241823849491198, 0.032967504927517904
-0.06809019918583843, 0.04230537213935057, 0.03403913049187214
-0.06747326989812771, 0.04277901696067086, 0.035927312903803084
-0.06845104938694732, 0.05883088111260494, 0.05009876985801405
-0.06617578220603702, 0.057758645617717805, 0.05197638874177822
-0.06690671361392618, 0.047505457782267016, 0.041635958395982824
-0.06806724057618699, 0.047098497927084565, 0.03941323058036149
-0.06833611897978835, 0.04723723412278037, 0.03912387664107135
-0.06258717084535725, 0.04393928823113599, 0.04498955001196444
-0.06198003469772213, 0.04062769579662032, 0.04273982871967311
-0.0661208288277163, 0.05414561856656968, 0.04910211623573211
-0.06469968301890588, 0.051645098126589406, 0.048784775958871804
-0.06363679791718627, 0.04706407067389527, 0.04634101678054033
-0.05817273221540404, 0.06165661410839507, 0.06354272422125291
-0.05805560942907291, 0.06050516421121693, 0.06283321844951939
-0.05555074183161199, 0.06149841998777193, 0.0658923532425832
-0.06008038072645583, 0.048340347843759374, 0.051678763269973955
-0.05974859407488979, 0.0523816927852013, 0.05536913941542801
-0.05767116082091223, 0.044221455208103, 0.051238577383926294
-0.05662367228604363, 0.043178191783959735, 0.051655644422858187
-0.059253707770611105, 0.042557508524028016, 0.047971299283278125
-0.058203472300703024, 0.053656898131045114, 0.05782042632361471
-0.0554143276378742, 0.0539688057466898, 0.060661596728813244
-0.049489448423629165, 0.05989951806822187, 0.06939516334345464
-0.0538737693330847, 0.060652676267392854, 0.06669275990481438
-0.052328280149531836, 0.06023810620026035, 0.06754976501524983
-0.05393161960430082, 0.047473103861087176, 0.05743093570757656
-0.05258319699746714, 0.05388663890306871, 0.06326173029202715
-0.05120998406243403, 0.05184803228743453, 0.06298183498135473
-0.048561691558066514, 0.049353604067250915, 0.06330629460274637
-0.05037788379908887, 0.05044062306847382, 0.06268384224284626
-0.04894947914077594, 0.040318311566560225, 0.057017391511652527
-0.04981331573389153, 0.04363844408261924, 0.05856914541451071
-0.04300534101879702, 0.05717914300080548, 0.0720086911230951
-0.04246068943934935, 0.057354429916680556, 0.07241189196249086
-0.04520531057767398, 0.06111506804308221, 0.07312947879154981
-0.04584179500696652, 0.04809361536511565, 0.06447440091438852
-0.04613511573894591, 0.04952935563429548, 0.06518200888105771
-0.044104606244560834, 0.04720297472043138, 0.0651653863605133
-0.03987862491396789, 0.052113864211616255, 0.07072876215136255
-0.042218429043838296, 0.05227024835937366, 0.0695350324419318
-0.04236130741617811, 0.043036099967757216, 0.06375981919830347
-0.04295980684848866, 0.04476659136301462, 0.06443471844229466
-0.04698922779834694, 0.03995142778136363, 0.05841929239906444
-0.030937324032373488, 0.060026673900901405, 0.07949030237100128
-0.03483799070095671, 0.059062238936453515, 0.0774077693593364
-0.036959482445879585, 0.05022394166953196, 0.07121466016524293
-0.034213960985114394, 0.048205413540166255, 0.07152897160332908
-0.03569641654560802, 0.04713765405452089, 0.07008182810545881
-0.030982728789994488, 0.05034652047115933, 0.07407086113773696
-0.030980612322227485, 0.0528087409610974, 0.07544560236035776
-0.031499065330419386, 0.05165658092305439, 0.07459743450174186
-0.03775557639949072, 0.040039811038856704, 0.0647475874600533
-0.03484699565595549, 0.044389469218353725, 0.06892176483522702
-0.024822738805106753, 0.04923680764236853, 0.07589055903588875
-0.02474973684252823, 0.04927511195006097, 0.07594083609537433
-0.024497565001449815, 0.05741303551675915, 0.0803738211238242
-0.022784877179412473, 0.057830019014939615, 0.08103691551347685
-0.024789901353959705, 0.059572562483361305, 0.08145548610324212
-0.02159333526113061, 0.051800566153719724, 0.07811324692792469
-0.02384202459546813, 0.04919530135577156, 0.07614040769085037
-0.02157261874344238, 0.04979832999097375, 0.0770460936368621
-0.027690068365758082, 0.04188190533571773, 0.07065131684825604
-0.024284859117174918, 0.04305712891965864, 0.07265530030647181
-0.022061876221761423, 0.047012127092909896, 0.07542807858292391
-0.017515817801945468, 0.04964210421414668, 0.07800401469987371
-0.018044711803437898, 0.047187054318498234, 0.07655320052204255
-0.015712032895851477, 0.05782013112737709, 0.0828361753807981
-0.012352406402849906, 0.05794274357811057, 0.08332471467356496
-0.01446871078141918, 0.048279128716136994, 0.07800392982620254
-0.007912036986044839, 0.053609696216172696, 0.08161976738868182
-0.008266979350631868, 0.05402273401918378, 0.08179091904165552
-0.015374693582041533, 0.04081275906151481, 0.07382443125779338
-0.014871971121883543, 0.04015796677775712, 0.07360277648891783
-0.007617713503546671, 0.049385375558674775, 0.079447911802904
-0.010477786937348884, 0.04936697379054466, 0.0790769743258945
-0.006269246068571044, 0.049081813725768135, 0.07945952192922986
-0.0040625447984220684, 0.05690901632389945, 0.08367954033159347
-0.0015364201655382447, 0.06008479134502848, 0.08532716640162216
-0.0022662180862110743, 0.058467576768944526, 0.08448813817114031
-0.00425377061797284, 0.04885762094717839, 0.07950239723100314
-0.004850082920789962, 0.052494032454933254, 0.08138900181250494
-0.0073200064126829134, 0.04484228911206512, 0.07710979236150824
-0.009031239502544435, 0.04131835391915083, 0.07505083056370995
-0.010870544967163682, 0.04203734421603814, 0.07519445362198329
0.004582187541891351, 0.042942937431502515, 0.07643380470554807
-0.0019061686776523934, 0.04167779094486458, 0.0757774351096079
0.009355514594382622, 0.04364057718863398, 0.07622423241084139
0.013614813480919521, 0.04535927556214711, 0.07658491512380342
0.0018090282247722543, 0.0471365110036676, 0.07860946916228176
0.002290768081976328, 0.04893863633885, 0.07954442878017569
0.0011882973810046266, 0.04826720139138802, 0.079196081997816
0.011743479830668185, 0.05082070772832577, 0.07967728903851434
0.012173906253373739, 0.05352702838717601, 0.08103814011323518
0.012566172603863772, 0.050083000741528265, 0.07918758576314203
0.02309059770359974, 0.04287326625974169, 0.07294701124964863
0.017336668958335643, 0.04471489889878486, 0.0754108180221157
0.013403545279217893, 0.04768513451747382, 0.07782787458999765
0.005713784961515616, 0.048061687369006956, 0.07899624387427695
0.007550601897040336, 0.05111317837887592, 0.08035992177366753
0.023601539136353877, 0.04974112229040264, 0.07649450523524516
0.02331337525498043, 0.04919858409660231, 0.07627788953655484
0.00922751052875863, 0.057178524969303375, 0.0833198522493884
0.009187961807761437, 0.05747465921301191, 0.08347970719755797
0.005562213778664685, 0.059461076296158204, 0.08497651538570467
0.029550827218898637, 0.045384128751490824, 0.07186880494799322
0.029789447853969385, 0.04547961038520858, 0.07182760644945231
0.015800195585642197, 0.05363723548386119, 0.08058446220754534
0.02154594317183536, 0.04781369698991303, 0.07598989179535658
0.016326712345149083, 0.05139608521139971, 0.07924882914499863
0.01765782860740136, 0.05767755701530448, 0.08227165035667618
0.01785048239141451, 0.059156781904658166, 0.08301451379540478
0.02762097956188251, 0.05319319395524448, 0.07699029251825082
0.03136832603988458, 0.04965325993020343, 0.0735313531393915
0.03334956329902852, 0.04865131201079224, 0.07218784574879938
0.026311546001754876, 0.04733611446211407, 0.07424052012056284
0.02751453809604512, 0.05027244485889106, 0.07540267600390695
0.02690690594892262, 0.05073654179737848, 0.07590221760562196
0.037858604738148185, 0.04334988767596094, 0.06665064274111994
0.03883728513555618, 0.04611236615924673, 0.06774811130823932
0.03907029965211354, 0.051053429447195674, 0.07054532338553697
0.040017421778966444, 0.05311344595567489, 0.07124425160858777
0.042061096918986254, 0.04836609148737998, 0.06731010340532832
0.026990067216759298, 0.054919711379957596, 0.0782034744389322
0.027751872046284976, 0.05659251705986992, 0.07883527079120578
0.037720767616284026, 0.05048308111491583, 0.07094956580809088
0.037304199856253516, 0.050708899803069155, 0.07131226988937951
0.03717620626358702, 0.048386133817456614, 0.07000746198999225
0.04553282675434884, 0.0425497471276124, 0.06114368835066364
0.04747356290800289, 0.04317344756887466, 0.06013362766000199
0.05025731191124386, 0.04924021690504212, 0.0620016333179436
0.04556740207844822, 0.05427497302575182, 0.06863776368501376
0.04992361920866689, 0.05016076883907005, 0.06283441063930734
0.03821948452077151, 0.05737411321744536, 0.07475516800765984
0.03777838101343718, 0.058810141181451205, 0.07584785517363063
0.03585775641255855, 0.05566259548562156, 0.07504025090378091
0.04526308636279539, 0.05254195648676366, 0.06774750677806654
0.048873291795322536, 0.04810433498798926, 0.06227876114953558
0.05541209695003657, 0.04241359856411654, 0.05243981536913717
0.056054956604657896, 0.0439194310707544, 0.05290783667252859
0.05447456581041154, 0.0422698021728148, 0.053217874719959285
0.059242130905973384, 0.05286015359487247, 0.056278022942066006
0.05391181254170959, 0.053624940865624166, 0.06182782461657013
0.047282003386951696, 0.05492813579611312, 0.0678108945805672
0.046887922801609735, 0.05626653064390412, 0.06895550248488677
0.04649441992949703, 0.058001561423209086, 0.07035404696755457
0.05633129645349676, 0.058130713115930696, 0.06276255672581503
0.05872995386805626, 0.05604630197972092, 0.059026583201428846
0.0653939601016799, 0.06020221634882246, 0.05491033210645535
0.06222675817313813, 0.056667380686731605, 0.05586176288962251
0.06413306596270674, 0.06121027225551992, 0.057254969285229634
0.06368325244357509, 0.052926248288539944, 0.05105618969396454
0.06396109004740079, 0.05376709630446658, 0.051404721092899855
0.06333053401470128, 0.05308715480960269, 0.051613518124330654
0.05559663972457475, 0.047345232449397937, 0.055776379359890035
0.05410360978349447, 0.049130890365795064, 0.05844928529345063
0.06123416255730383, 0.04800967099559966, 0.050014955110096265
0.06262700183033451, 0.0481199368005955, 0.04842104718589732
0.06357755031104637, 0.04965235593454131, 0.04851928976928742
0.0712660414565765, 0.0591637912621295, 0.04605484296863138
0.07298327979354997, 0.06071970110072607, 0.04485540745496151
0.07063021026416982, 0.05912454355027657, 0.04701874999079497
0.06052967021572134, 0.04301323734298763, 0.04679986288444872
0.05865996611018038, 0.04184818397100841, 0.048111692207667214
0.06969308952457125, 0.0531220975152117, 0.04268360330337639
0.06518336361511881, 0.04884284900864987, 0.045646450403987196
0.06944584983154564, 0.05378088763278785, 0.04371105629093193
0.07171353381772998, 0.053616189327443026, 0.0399782947143295
0.07007206333837118, 0.05025485572653242, 0.039310252768423065
0.07312288569305186, 0.05599691039512283, 0.04002721069258855
0.07722220868010536, 0.060660507567483035, 0.03699827285595948
0.07871369065365212, 0.06028648134852784, 0.033372961740432305
0.07229137774431178, 0.05330808252325775, 0.03851793055366496
0.0695064053798367, 0.04765377871132374, 0.0375465529098202
0.06443770054317134, 0.04268466779327427, 0.04085882201217229
0.06274093030219954, 0.04022968632249606, 0.04115549266002766
0.0659442401196674, 0.04242740428313356, 0.03823580086726605
0.07426311947046824, 0.04965249057482755, 0.029873442271234386
0.07169501628308672, 0.049414476050005984, 0.03504091850453924
0.07851968347224295, 0.057415128917654566, 0.029983622186092643
0.07978805129698467, 0.05992287428488267, 0.030290252133158294
0.07872620568694494, 0.05807303184242922, 0.03045256825204908
0.07865448531380799, 0.05428416506436887, 0.024312164026416044
0.07778320627113973, 0.05417277920210925, 0.026806675656260347
0.0771631422981509, 0.05274514338225852, 0.026318173794609663
0.07007871778988053, 0.04264527891649016, 0.03022750317984929
0.06789451113405172, 0.04001371379164115, 0.03166263340346085
0.07785659035759478, 0.05117789968603739, 0.0215527114946224
0.07746765504055209, 0.04994643313755823, 0.020682215390007204
0.07645856376312095, 0.04978979431190077, 0.023524897401831633
0.08461446024123383, 0.06107629385244952, 0.014547058938157597
0.08471761087165894, 0.061031000777803476, 0.01388091921282346
0.07183814522541768, 0.041250674810475736, 0.023408727466633698
0.07243972664167106, 0.04249347736185509, 0.023643793216535276
0.07551926239150897, 0.046184600466375, 0.020362992301068857
0.07762914778338581, 0.04926580885782446, 0.01846520938055788
0.07917922885962397, 0.052434407215905574, 0.019112427996597795
0.08595423945810086, 0.061488199565231424, 0.004309817638307915
0.08334199817149608, 0.05696638735980002, 0.008468558926640658
0.08581881961887626, 0.061253544327411216, 0.004523406500321291
0.0790845563415793, 0.049506299132497565, 0.011501511966837998
0.07719803779964293, 0.04798227265581229, 0.017171381823127833
0.07371332783195757, 0.04047396506699617, 0.014650338506562142
0.07414479461404591, 0.04076080383682478, 0.01318267958877066
0.073449490114523, 0.040450312103639995, 0.015967945992311494
0.08004420691442128, 0.050743226208794685, 0.009466228147322309
0.08201651432714796, 0.053954190650118486, 0.004648046445982247
0.08522800871433536, 0.06024408976861247, -0.005574074965396344
0.08365805300835245, 0.0568550179038372, -0.002525022633784806
0.08524808220597438, 0.060276578698481215, -0.005523450242588465
0.07920029951290868, 0.048227763940706, 0.0020955271082100614
0.07895662145683857, 0.04802247786781577, 0.004272504900733356
0.07915018063531225, 0.04839587797582945, 0.004281210075517101
0.07529464463592235, 0.040772768311777986, -0.002577228266604549
0.07480024648115585, 0.040074437468266805, -0.004665735396399764
0.07466484616473604, 0.03990157135340974, 0.00538897656398742
0.07549814306185776, 0.04129199711861834, 0.003632545879955826
0.07900756745295695, 0.047626372937978174, -0.00018986470417958515
0.08146226006174118, 0.0533498552689604, -0.008465305055428658
0.08083553092451175, 0.05170150315466718, -0.004806807039704901
0.08071818901838965, 0.05191809807151121, -0.008462017427925446
0.07910969742334446, 0.047970288598378555, -0.0014083342941901957
0.08037304678916049, 0.05144319356917881, -0.010024197459891863
0.08372987652420916, 0.060373468761778785, -0.017238654512943888
0.08419395068990418, 0.060140904343819926, -0.014161987101573702
0.08048421879170915, 0.05270199176779248, -0.013012651593012119
0.07914385461580474, 0.05013042986663091, -0.012919105232068608
0.08006447914718318, 0.05316764182372867, -0.016502267074898536
0.08093638359824572, 0.06116071597869827, -0.02883447287437632
0.08054398016559118, 0.06124302354976569, -0.030180351021682112
0.08161180525296549, 0.06091841986737806, -0.02634895027428407
0.07960391708540257, 0.053696659710168244, -0.020381332044678964
0.07842037750465831, 0.049271502495393485, -0.01433356296058486
0.0780744479846893, 0.053732270269131535, -0.025170955821533388
0.07830429995951563, 0.05232295701696664, -0.02209744733817951
0.07895569651169773, 0.05353783609359013, -0.022132317661425104
0.07320002453541617, 0.040333612318474946, -0.01695294149621715
0.0738588288073691, 0.04050131143354993, -0.013963668588520092
0.07518432488605456, 0.047650685294941986, -0.02385544371634831
0.07652162002092767, 0.0531372699511983, -0.02895111808416124
0.07624857922245018, 0.04961691961669974, -0.023881131099987084
0.07788733229552444, 0.06098508901060709, -0.03598044831569431
0.07792970578735406, 0.05926992533114016, -0.03380048220629675
0.07303957906029562, 0.04986253817746514, -0.03272966447875756
0.07520902413354592, 0.05295740452645002, -0.03189044542170801
0.07466671214025267, 0.05060934016435269, -0.03018181027264337
0.07149220666653386, 0.04022588093542093, -0.022753082542623766
0.0723829470639721, 0.04218511234803053, -0.023301023777195288
0.0717527660846872, 0.05036823014388819, -0.0360804619297318
0.07099008296080772, 0.04948574574150316, -0.03662594191030068
0.07151625833198501, 0.05179514752109256, -0.038321757831635654
0.0720896638930156, 0.05550099340253484, -0.04121064584601382
0.07200052208749112, 0.056405303187415726, -0.04222670257054942
0.0729929079743111, 0.06023709706379654, -0.04437306010465026
0.0709606959359126, 0.051449041308214497, -0.039066342007766694
0.06882066287575418, 0.05080735233034429, -0.041817183778331185
0.06937660625739563, 0.03995202081538149, -0.02843796825417418
0.06649353002986058, 0.03965238346545762, -0.034199696316181846
0.0688474840098455, 0.04099711750092691, -0.030835850972496123
0.06666732837755032, 0.04841544511621545, -0.04289435158716397
0.06473201991429374, 0.047464718566966435, -0.04502337783814813
0.06675197509160354, 0.05482409186964665, -0.04889150382115868
0.06644173006189333, 0.06169890338685502, -0.05486205923632749
0.06772163474945597, 0.061126878495651925, -0.05284933764709325
0.06294953031701447, 0.042764868352722425, -0.04328153536913975
0.06292246588527903, 0.0429289186204599, -0.04348302261785478
0.06359800875231314, 0.0497246585475203, -0.048553483120159155
0.06406006237425971, 0.053188602275223665, -0.05081431964322995
0.06286390266880143, 0.0535889246584888, -0.052586060500820764
0.05883370517872001, 0.0494443026011731, -0.05408435839465964
0.06230585399210274, 0.04722533746681717, -0.048081190737152966
0.06142353175958558, 0.06133026158928823, -0.060257829408491066
0.05940271593851915, 0.058234138402584484, -0.059951977310000806
0.06034540895114132, 0.05997373629936038, -0.060304808836682246
0.05776269061479726, 0.04094915210340557, -0.04846463978142261
0.05899336655035699, 0.04116717392005682, -0.047154455707950904
0.05669856382279699, 0.042336225480792244, -0.050879915314340475
0.05459688742270791, 0.05384249109480928, -0.06133938859333096
0.05758706947284971, 0.04841037883726841, -0.054665372752023496
0.054495642899410696, 0.04942587458048525, -0.05829114153463161
0.055867297998380853, 0.04898435469533058, -0.05668884271475577
0.05085400061626683, 0.048833860268163984, -0.06128952673001092
0.05399559084299381, 0.06112488912240263, -0.06690711818476833
0.05156967619084654, 0.057230941167544735, -0.06617251680007356
0.04176401331468714, 0.041088780328269604, -0.06294503383782482
0.04154364862815907, 0.04397645033022582, -0.06495695256659292
0.043035297544180735, 0.04480150953978467, -0.06440230441387644
0.03787504122159074, 0.05408662328764722, -0.07299823138512063
0.03993254128395163, 0.05253371806544783, -0.07094772489079061
0.05013648967104191, 0.04444190147508495, -0.05883754298472196
0.05039064889683412, 0.03970518603827373, -0.0552277385862767
0.050021611067971136, 0.04379702754173805, -0.05848646253021584
0.046548650142812266, 0.05192395468685594, -0.06641721233569484
0.046672410500359904, 0.0541033835235246, -0.06772492767725806
0.0444280981627318, 0.056422545364074046, -0.07077861494052916
0.043460513596857014, 0.05849184849530623, -0.0725356651477584
0.043800154111131015, 0.05508147176149976, -0.07032985784025492
0.04666758349972612, 0.04777501166811483, -0.06367015394044018
0.04622002525693242, 0.04992687861818579, -0.06537528019685791
0.045360041158466174, 0.04823706570863186, -0.06491644568527548
0.024630912785795725, 0.0358044052371077, -0.06847134512960255
0.024173851364970682, 0.03340107532818742, -0.06731126530674776
0.016408600109328954, 0.04601427788382031, -0.07634513208260124
0.021814252712124362, 0.04288710015829082, -0.07328216699097509
0.025324125254781456, 0.026035491651681775, -0.06274589025808307
0.02546776952093993, 0.02762004503640695, -0.06357318829088643
0.021687521249050205, 0.02636904904931397, -0.06437184735133425
0.01665319441881025, 0.03826345128244161, -0.07213069498720238
0.021103258489682586, 0.03615008576410199, -0.06985612113305567
0.015415681493811131, 0.03229199050793458, -0.0692498899167915
0.016026986269298934, 0.03302911795423829, -0.06948776848001656
0.007481322921879002, 0.04650697600914684, -0.07795994484794566
0.009196136974589287, 0.044345888512618524, -0.07661321053530859
0.01237671535878744, 0.04436513240130738, -0.07622147720106942
0.011755403513725242, 0.03591814575679179, -0.07188275456047447
0.012522755793319688, 0.038027280427286245, -0.07288875367493945
0.019760019820026377, 0.025722079960846238, -0.06461537473522419
0.015280054916197461, 0.028939653092627856, -0.06748907504064762
-0.0025412913858018104, 0.03181442670130885, -0.07066022890473866
-0.00401174523718786, 0.031431625706019206, -0.07046162780192913
0.006104416038565465, 0.028160836657108355, -0.06854008349041958
0.011120280159040279, 0.025582506129056923, -0.0665581354996241
0.010432016932876558, 0.025455956391268884, -0.0665789063335682
-0.003361907745882166, 0.03938436466213564, -0.0745875844704454
-0.004283513882356398, 0.03947731703747581, -0.07463580903931069
0.004609102490926418, 0.035503310846741784, -0.07256861092651277
0.007993705370870054, 0.032261650561559496, -0.07044586449523814
-0.011523334718511906, 0.02979238516196094, -0.068708695149681
-0.010871968871936939, 0.03099112194179452, -0.06941784247285168
0.0030530635481000913, 0.03738123828259218, -0.07354834361530163
0.004151790021926527, 0.034026014162564275, -0.0718076217021433
0.0012911602631499274, 0.03309659529947008, -0.07132543043157111
-0.0013234907555859762, 0.0421461720422073, -0.07602043551695666
0.0005400789357499234, 0.04250967364987316, -0.07620902348354168
-0.011631692887186355, 0.03725763573659585, -0.07259883700670805
-0.007023996854219187, 0.03823390836234201, -0.07369145169610837
-0.019323323853114985, 0.030336554548870028, -0.06719915060001075
-0.021278399421171056, 0.0317679048217801, -0.06746385481318717
-0.020777942986108952, 0.026078375721050023, -0.06454483126696159
-0.0060991542401815525, 0.03541965455354155, -0.07233662090271174
