0.4880268473734523, 0.6887584534850486, -0.22632291680099267
0.45741584338304264, 0.6707494922761066, -0.21685766523128033
0.4679572133107498, 0.6634253265684332, -0.21447467220419092
0.5389088597103334, 0.660722605688912, -0.2170011002507574
0.5219749230349869, 0.6556249962833374, -0.21425552232200437
0.28400802976412565, 0.6797632873617369, -0.2186578025181879
0.24625460294639964, 0.7010982862788744, -0.2280576458632009
0.27601390393585185, 0.6994585485518459, -0.22734506723442277
0.31055494273223805, 0.6841129701952918, -0.220586774594035
0.24332319815600364, 0.6925897958042206, -0.2243023421996944
0.33826316690554514, 0.6741661478170621, -0.21620808247162257
0.23761104207169925, 0.6864324950889266, -0.22158344005753913
0.572732193458903, 0.6354255586203058, -0.20959399874191714
0.4585999298906053, 0.6391067578349494, -0.20493952792230252
0.44654254317408504, 0.6392406334073604, -0.20438941910443004
0.4424891519625149, 0.6492952317727563, -0.20793674337961365
0.4851927806503684, 0.6026175796108679, -0.19300664790131783
0.5118764864398009, 0.6101178008272261, -0.19692083173000485
0.30362183366876033, 0.6232377270098435, -0.19687621564795427
0.3570196172786167, 0.6168981785408436, -0.194559052428335
0.2241999130733573, 0.6325524423539978, -0.20028077269667857
0.23376953634397002, 0.6453021366954663, -0.2050005381102767
0.22357908034975651, 0.6540721271362042, -0.2082656400831001
0.25126092898528907, 0.6386422704615651, -0.20252419938246422
0.2614947252865592, 0.6616947870386232, -0.21111872055136754
0.5073845866958804, 0.6341118975115685, -0.20551615851879712
0.4288659894966892, 0.6350532193688652, -0.20195687931634215
0.5446842531920479, 0.6111294686173291, -0.1989441869219547
0.41573494834076974, 0.6249307103901629, -0.19758424138098957
0.473411660561187, 0.6154164652164782, -0.1969313664426096
0.5740175640824787, 0.5534184729282111, -0.18185303931520225
0.4377022643252411, 0.5830478972189516, -0.18395282630286275
0.5002808720723176, 0.5650015699011247, -0.1811390604199983
0.3069624505578236, 0.5198796886095347, -0.16366948487468302
0.30868581130876693, 0.5252699103533675, -0.16523249968893367
0.24482002991405535, 0.5269054773613997, -0.16568290879987618
0.2742601106834867, 0.5187269390439567, -0.16332323782277425
0.3459259548982894, 0.5307074574530158, -0.16682239308149685
0.23638861069102066, 0.5408628445992653, -0.16972538024010386
0.47340336944660444, 0.49888250060377215, -0.16134203146959916
0.527938183824577, 0.48516230386515646, -0.1606701494387177
0.46913384435442096, 0.5025215390318984, -0.16203061991021533
0.5384262079155075, 0.505348940013045, -0.16620067064863353
0.5016989443538036, 0.5044392604096657, -0.16413643705918823
0.3127376541289598, 0.5755254348522361, -0.18029560140118595
0.3000946628399059, 0.5727994872098245, -0.17938870965352366
0.3325496641091578, 0.5698602746026111, -0.17842987657788495
0.5260821261434274, 0.5568658762055619, -0.18001210306755588
0.5032586980092342, 0.5332050010204616, -0.17201729799279886
0.5058754202529009, 0.5399750774975971, -0.17410943889310032
0.47777740489270576, 0.5463104827248803, -0.1745420829468015
0.4274031659862547, 0.5483197403358588, -0.1726092457657244
0.4331626040064071, 0.5530448270478407, -0.1742656995421339
0.48153209394021007, 0.5275143067320778, -0.16928392514362067
0.4802545812499843, 0.5208870093348379, -0.1673001276680512
0.5619904299251638, 0.503754796148839, -0.16677415262530587
0.557614898330441, 0.4242717846877278, -0.14887064849477288
0.5454966195899177, 0.44438591977912956, -0.15228327254761834
0.5717844202419132, 0.45014807854686695, -0.15416542309688955
0.44432015882749476, 0.478764630626169, -0.1548960912537484
0.44470595066255497, 0.46025734143454866, -0.15032520058711935
0.4245557882482005, 0.4953252482994128, -0.15801347048860576
0.4541092144456877, 0.4610197485175599, -0.15098531401320092
0.24425168731839014, 0.4218209241184621, -0.14159462681666363
0.3984867954472132, 0.3468630638686383, -0.12780498727843811
0.3898440315388809, 0.34704150667174705, -0.12783439265828841
0.2947232395638333, 0.3578454066496516, -0.12979179494771675
0.2689504607521447, 0.34974976374529876, -0.12828493349921258
0.2611537886394748, 0.35478935499579195, -0.12921310690977877
0.2681619919089744, 0.3984891601448621, -0.13729242943629863
0.296467290986708, 0.3722959890404296, -0.13246321543103026
0.250472326946315, 0.4294031979627955, -0.14299852478346908
0.26903279833874, 0.42651217813456355, -0.1424718925647994
0.22746513107338406, 0.38485698757114706, -0.13475615754539505
0.3244686919058961, 0.3979709913353471, -0.13721994588649286
0.3089333658068804, 0.36141054247590226, -0.13045656498294866
0.24364299254739974, 0.35619796241310964, -0.12946619957734784
0.4843874077927486, 0.42883906065320193, -0.14651089356774255
0.5358689775151946, 0.3628561889073495, -0.13690581832951146
0.503929870223059, 0.39530996658321405, -0.14129859581307203
0.4468196685306474, 0.439122611754184, -0.146527958956627
0.47491236507498, 0.42455563784699635, -0.14524533753153068
0.5264400589489137, 0.36781566419024847, -0.1373492886265623
0.5011173222932035, 0.4035243830138693, -0.14267451737901427
0.5287930542675098, 0.36526050113280245, -0.13699533776465997
0.4604660467395083, 0.444704865219202, -0.14824229286874915
0.5268815883497145, 0.44205930056084436, -0.15108061158843755
0.27840985082695824, 0.48643623615697995, -0.15521369537930824
0.2392688613444714, 0.4948707744326154, -0.15729198296364016
0.3383329228768823, 0.46358623816263944, -0.14956435359837966
0.23850011748679406, 0.4605906736916095, -0.14877924286820454
0.25187708838399614, 0.482356652504781, -0.1541896906652762
0.2573242514872474, 0.4613446175267929, -0.1489742405011706
0.2622842654108012, 0.4813350418355373, -0.15394030515335
0.4747196730139667, 0.3905502989036395, -0.1389557387428617
0.4437858533213833, 0.37470267286530606, -0.13447754314499885
0.45089502631831935, 0.3685894195203172, -0.1337048431032937
0.41871548188256474, 0.375194213502829, -0.13331129336130634
0.4306245088931046, 0.3489957286317288, -0.12906938823456063
0.4550276442699589, 0.37639811999459694, -0.13535437200857095
0.4425347614269894, 0.36122815799043284, -0.1319259828062664
0.4864161516826876, 0.3556566524910414, -0.13309712380327918
0.46993586321382164, 0.34835657745645887, -0.1309224231485971
0.700409697639063, 0.6080187770192713, -0.2923893901383966
0.6729978334048867, 0.6406842900054542, -0.2522404117418722
0.6836404057303147, 0.6258685043425603, -0.2614010450690911
0.6321000811480646, 0.6589595314400262, -0.23212379545871414
0.6229931876670111, 0.6897018097138959, -0.24106452507276122
0.7052156247292504, 0.6342501951549524, -0.3274308043718447
0.6060452166700524, 0.6154060187843485, -0.20619464356040473
0.5883401824573041, 0.6559789469470981, -0.2190727999240497
0.5440387742517215, 0.6492976033827692, -0.21301969324065279
0.5576248831240465, 0.6714919868588914, -0.2224806032483584
0.551256536100156, 0.6715176404158244, -0.22205355968814205
0.5605614719139621, 0.7344216244193992, -0.2515084573697216
0.5871627351123138, 0.7056982848544746, -0.24010220239404587
0.5860001461514153, 0.6381090075825, -0.2118615577306946
0.5797206890514208, 0.6883978770642282, -0.23157880752660748
0.006800166007708221, 0.8887695722744868, -0.38286237318518573
0.006378425796072017, 0.828664083254749, -0.31753986275767127
0.0031442163536631595, 0.7257587319328851, -0.24834731049248365
0.002094966522320334, 0.5706802021383429, -0.18694486859826068
0.003141560219131272, 0.4691838379315589, -0.15977924827543483
-0.004732276214276203, 0.8928196372243098, -0.384874391898813
-0.025100141038180056, 0.8439359674227092, -0.3251759258843197
-0.022149642502903966, 0.9016599637450536, -0.4065850179630418
-0.01970472797274943, 0.7936109709412444, -0.2868748213065034
-0.00207289199888727, 0.7847214833862821, -0.2812287048601184
-0.008185316911298559, 0.7361286619985766, -0.2523255274941952
-0.025372884193211813, 0.7097594347323702, -0.2380061670945696
-0.0017599542775963255, 0.5993968193098778, -0.1957950842343662
-0.02496977835252265, 0.5852386332689534, -0.18963714609756885
-0.009145573901564324, 0.521190704831673, -0.1709933123741137
-0.07108476962591512, 0.8996849315655663, -0.3975134978384207
-0.0012966557955524428, 0.8999124935231366, -0.40275296772836844
-0.04831535136426847, 0.896502192568393, -0.38906294147918596
-0.07139465207022012, 0.8945094476179033, -0.3842563885731727
-0.04202829252696974, 0.8446678430994969, -0.32526872261602335
-0.07055796771772692, 0.8558649335153916, -0.3354463864418412
-0.10779144761934553, 0.8485923311097219, -0.32700418230591827
-0.0470072265219792, 0.8523629590581466, -0.3327437417214351
-0.057628797279625374, 0.8526049495207381, -0.33263505644576363
-0.0584874960099798, 0.8572105791076088, -0.3371786342829968
-0.005286768344684511, 0.8502106057297603, -0.33284448074355266
-0.1780171961173523, 0.8779873012468251, -0.35425829644910584
-0.18979999617719678, 0.884730752143029, -0.3645245787299878
-0.20495760778604424, 0.8783257943162702, -0.35390412461684884
-0.15043030766927745, 0.880438771115687, -0.35904213062491286
-0.08378015864471915, 0.822698464030671, -0.3066943096710346
-0.19018506961608148, 0.7897641417457198, -0.2781316091743903
-0.13589405628647253, 0.7915859160546653, -0.281298107572233
-0.0395583703686405, 0.8379758705715514, -0.319775465816298
-0.033306128911909885, 0.7885383608063041, -0.28234024687407355
-0.14877209381532497, 0.7895644575356144, -0.2793369393115728
-0.20568430693130538, 0.7869579350164914, -0.2754870454589164
-0.06562908926242664, 0.8142433561312273, -0.300851784564088
-0.0005336153325305647, 0.8015882268095096, -0.2941779576533812
-0.005144305419048872, 0.7783180853997389, -0.27721600872778
-0.002608612886587405, 0.750073856659998, -0.260821072921258
-0.06734523019725862, 0.7252507541469349, -0.24353381224301168
-0.10262505365422948, 0.727811034088692, -0.24388426743483305
-0.0723028235638132, 0.7273001590298801, -0.2445727594331844
-0.044371289983251266, 0.7292303476006257, -0.2466132286567827
-0.10484200691376824, 0.7328855763482335, -0.2467844648247525
-0.12724221455319357, 0.7341400690271634, -0.24678960436716146
-0.10979434465818126, 0.7319702300305471, -0.24608697972070537
-0.05860500543824512, 0.7337639165125062, -0.24880510855678373
-0.03853379817136181, 0.6782566440261806, -0.22363021708593878
-0.13202555049672374, 0.6883045478121496, -0.22503009392830337
-0.0685662236726604, 0.6994675589979362, -0.23202029790360088
-0.2005425786752831, 0.670260469182419, -0.2148373101300884
-0.04151719432469286, 0.7109614310337724, -0.23797394211874595
-0.10769320158974922, 0.6756610717435849, -0.22023777612587753
-0.04532278103540348, 0.6903922146309833, -0.22876810120225688
-0.01044763674988741, 0.7224652182347758, -0.24444266084580057
-0.007481780152730544, 0.6643283983014103, -0.21917857697847903
-0.10623727852807707, 0.6500602992784117, -0.21022873307977163
-0.17356190788335155, 0.6441590579420327, -0.20584098046197913
-0.03178971600652752, 0.6572774690898637, -0.2153382611518635
-0.002128795914098047, 0.6325303639362281, -0.20766830002444833
-0.039896024307357544, 0.6212919085310189, -0.2018073376917067
-0.08228319542824696, 0.6289974743717436, -0.20322264221509842
-0.059509572660505355, 0.612869198507144, -0.19809733612938618
-0.050068023338067674, 0.5945737858312448, -0.19199415278284748
-0.14471669649877286, 0.5902388549647251, -0.18738672470957846
-0.12146276634215007, 0.5909457985872385, -0.1883933894406718
-0.08335672276832377, 0.5639074299066601, -0.18060969856870793
-0.04433169712628601, 0.5836204677253765, -0.18842723174120612
-0.06685247580353154, 0.5761363707382354, -0.18520924406634173
-0.013590731406455746, 0.5810922040302487, -0.18886840364080298
-0.05154484205701421, 0.5311494775764399, -0.17213512993298274
-0.10589233079781352, 0.5220511292168978, -0.16773165205691823
-0.04131669386508145, 0.5263702950369811, -0.1710831014049696
-0.06061129777736208, 0.5170501770297118, -0.16775532864039155
-0.05461567707053227, 0.5472376720609787, -0.1766964499727222
-0.13595496016191377, 0.5340323473781365, -0.1702252671002463
-0.003226487264563692, 0.5329708962187001, -0.17471938895849629
-0.021361905855359267, 0.5135306094008316, -0.16822954386278482
-0.05084534340254259, 0.5074987585972343, -0.16566098169612503
-0.10632269833228415, 0.48357026301289135, -0.15791806156878796
-0.04590145788345243, 0.4762872516979212, -0.15807573301648564
-0.14424079815566906, 0.477697788608391, -0.1552273733423306
-0.05685662180040737, 0.4837520544003409, -0.15957203160226452
-0.05183625519282718, 0.46728324801041277, -0.15564810140320037
-0.10296522360769678, 0.4720334570628856, -0.15516406656169363
-0.07591244715944928, 0.35040836304132417, -0.13281784615038744
-0.030528519322256045, 0.40378806737465855, -0.1441613297068315
-0.07349826224721741, 0.41280873656558387, -0.14443017153743265
-0.07704739457114954, 0.35305974796348805, -0.13327097611898392
-0.15520238536292447, 0.35642698698309433, -0.13134973094651686
-0.03203971718723945, 0.40235873181461923, -0.14384795555997998
-0.04060453473015152, 0.40047123824102815, -0.14322033122861516
-0.12810056645806994, 0.3756906311806101, -0.13579237478560688
-0.16159760987389335, 0.3570221461042792, -0.13125159839463685
-0.13577859584650456, 0.3850720527539347, -0.13727649820579693
-0.06065008120008474, 0.36076701239578135, -0.1352292119207136
-0.16946612918261483, 0.35054504455243457, -0.1297983169937128
-0.08193356062271569, 0.36188668602973106, -0.13474347557427355
-0.014092932396370952, 0.46518410253743747, -0.15661105818651172
-0.005730745328308772, 0.37798730327138, -0.14060686626938404
-6.89892511834802e-05, 0.4088897189649222, -0.1466107915765362
-0.025958336579828087, 0.37634965125777603, -0.139259288724918
-0.01673023295393461, 0.4198271262258954, -0.14777171711550666
-0.2137914083924889, 0.9019705015949793, -0.4080502606576525
-0.19594630915227326, 0.902066048589548, -0.41019457753584343
-0.3592406353174261, 0.8987708487504521, -0.39446954597832584
-0.09039886289906726, 0.9009192978839268, -0.4016170894730597
-0.21164648364347804, 0.901407275836305, -0.403240377527299
-0.36029828710448175, 0.8937632126039122, -0.3782191825850816
-0.39239302228191597, 0.8941949253174731, -0.37961689847130614
-0.12779717064344862, 0.8963051026986962, -0.38647201577736195
-0.16572721816389172, 0.8985509379963329, -0.3937532800672061
-0.07805919172896152, 0.8870656613110111, -0.3718948892637761
-0.027255800048619293, 0.8908462220292444, -0.3795349401858021
-0.03913816037249041, 0.8894590510880391, -0.37695394513379804
-0.2882291314929585, 0.882136966766008, -0.3596653454526329
-0.38797844822810607, 0.8782264844702596, -0.353467212362608
-0.3285282771553595, 0.8803934035012735, -0.3569023917022578
-0.3348110289655367, 0.8807052404292326, -0.35739460117157956
-0.3609509482992997, 0.84474338151005, -0.31973615150054524
-0.2259571436148135, 0.8638612584007175, -0.33870179862551686
-0.35222777987415077, 0.8497956313653205, -0.32474819939553295
-0.23336898144494558, 0.8649334399752859, -0.3397654580634437
-0.2671471881685963, 0.864695774048517, -0.3395297174093693
-0.21543351404821184, 0.8761170863077978, -0.35086011485225144
-0.24045102052513675, 0.8508118625756231, -0.3257562317482242
-0.2609673054957259, 0.796608065699718, -0.28260502872988524
-0.36316963576809974, 0.7977712896923926, -0.2834974465795399
-0.3498166934122495, 0.7991462547283059, -0.28454305610378267
-0.24884444371462883, 0.8080050022528094, -0.2912787718719345
-0.2743832166106469, 0.819069193141228, -0.2997018494618269
-0.29148332509246533, 0.7921546361636392, -0.2792174836195128
-0.28024397213861846, 0.812200899532456, -0.2944745719063878
-0.2161934283803889, 0.8054924720248531, -0.2893641509675027
-0.3159101936580991, 0.8075964576823444, -0.2909724416832992
-0.12759464122143177, 0.8688542513711301, -0.3464604867274284
-0.06089764327296694, 0.8717099018789906, -0.35149179346216936
-0.1809466251584514, 0.8515492148174096, -0.32753451930365435
-0.08218748019105937, 0.8711735266163763, -0.35025796128879544
-0.1943049181371246, 0.8520784511804008, -0.3276192540710952
-0.20785282459215054, 0.8654745130723878, -0.3404622768391315
-0.17083783521555745, 0.8061188597335187, -0.291215808557702
-0.10355929634662803, 0.8220729153070313, -0.30556900109339497
-0.2112023093553201, 0.8020067740074996, -0.2867600491057294
-0.13146063973713668, 0.8178747410010878, -0.3014571082814668
-0.11907317290665526, 0.8288166565005237, -0.31019230425380584
-0.19978500872382507, 0.8379422521086966, -0.31448688581449624
-0.2079238662513644, 0.8308416996345048, -0.30881505016538346
-0.16191195160870928, 0.8017186945300009, -0.2881598823602848
-0.21683623658294743, 0.7446949815316428, -0.25017718269924083
-0.29026922022748775, 0.7339330339308953, -0.24389918862962245
-0.28762195591349626, 0.7589027879019724, -0.2585089443929169
-0.2878999474128737, 0.7565059399194074, -0.25710655938785204
-0.27872515197861547, 0.7463117051555563, -0.25113926474933423
-0.26666491137840576, 0.7427588836082348, -0.2490572811051724
-0.2611431046577791, 0.7302405598400142, -0.24173105234863762
-0.39152132368679166, 0.7290090141901814, -0.24104435102162297
-0.26554961431492685, 0.7651180851871463, -0.2621399340490147
-0.17809288358160463, 0.7378949634861418, -0.2473313223963269
-0.09883790926968708, 0.7773008895183267, -0.2729865900590896
-0.19219435189762732, 0.780968683000608, -0.2720728257890977
-0.1942077467035168, 0.7824046346731977, -0.27284705130073494
-0.11293010612514529, 0.7653538633245507, -0.2655341406266155
-0.13620904596208772, 0.7815682596417469, -0.2742586585059351
-0.20742446043886198, 0.7376497919993403, -0.24622647870524172
-0.14657915475991534, 0.7633209786309973, -0.2632417417087257
-0.29380054354458063, 0.6721564728988044, -0.2153071250588638
-0.2587677463580094, 0.682716070462094, -0.2199541381120681
-0.28134330399686247, 0.6959490700223145, -0.22580085637483754
-0.38553881349831, 0.6717195009690976, -0.21514634570806904
-0.24256692005562433, 0.7123957629683308, -0.23304414356971784
-0.3239163854521971, 0.6714306514026518, -0.21499738248297956
-0.21332359293926878, 0.6730582015764767, -0.21567690193287004
-0.26692355203914625, 0.6950767308103237, -0.22541091734307123
-0.39126770509901826, 0.638119037632772, -0.20237480225716672
-0.265804033786191, 0.658246979176232, -0.20983748676880995
-0.3242501498715271, 0.6408853504534217, -0.2033851355081834
-0.33244399116841755, 0.6497242183992044, -0.20668172476055055
-0.19896255497310927, 0.7003311736022206, -0.2281575639962937
-0.10387895037312611, 0.7076042785076802, -0.23446406433590467
-0.17464937275328218, 0.6839704357921784, -0.2217306085817836
-0.11719219929614555, 0.7060458729510298, -0.23334276085774547
-0.11437468107602822, 0.7201619213967252, -0.23966305766502088
-0.15090412804860012, 0.7025329386791641, -0.23069456255336843
-0.21012533321391547, 0.6894953830706164, -0.2230127906756062
-0.11401288492272271, 0.7243214459760184, -0.24151017738036534
-0.28234879344717645, 0.6142445133398302, -0.19358375075904208
-0.28030017425209053, 0.622650309394532, -0.19666021615078058
-0.2286868056388215, 0.6325631123322498, -0.2002854714848319
-0.150313159935125, 0.6576856415025788, -0.2116375888801055
-0.16165003386456117, 0.6469447501874684, -0.2072661237640664
-0.16599979049383928, 0.646676854622944, -0.20702499080312797
-0.04866702020950227, 0.6656972275034724, -0.21792518098597227
-0.23339234749411802, 0.60135268911177, -0.1890475668515798
-0.27283360867738016, 0.5981616856025611, -0.18794248766590688
-0.22738877367312782, 0.5942781567951001, -0.18657883260284946
-0.11761905694665192, 0.6378182831564736, -0.20529962996917359
-0.16353052141147173, 0.620999033516895, -0.19764983136292094
-0.194353879784609, 0.6371157679666654, -0.20254631788033617
-0.06439734994405698, 0.6082434401345004, -0.1963088668190473
-0.16142030202667998, 0.6043351847081426, -0.19176339854055507
-0.1755676463429732, 0.597751121723064, -0.18900270127575675
-0.2139247964779059, 0.5818949205751284, -0.18236570035990946
-0.2465097795049925, 0.564800209818858, -0.17672396471504004
-0.2647475986531364, 0.5781137096779161, -0.18113489738424107
-0.21601428207715473, 0.5717443791224968, -0.1790089682073288
-0.15591071020826286, 0.5797451312036057, -0.18350516409320317
-0.1887830147965478, 0.582847094929378, -0.18345808474361014
-0.20441866530495817, 0.5813328583956516, -0.1824466396373709
-0.2523370155653044, 0.5498183398647568, -0.17232995170327353
-0.321855860306721, 0.5192780675700118, -0.16350222631417663
-0.26607026661388916, 0.549188102899721, -0.17215211303223912
-0.23566292127906144, 0.5345564961905235, -0.16790037365794674
-0.22064638040138976, 0.5358618723309215, -0.16827345194031673
-0.26881519203755716, 0.5433984991500744, -0.17047494108974132
-0.25859287026397426, 0.4639877567328083, -0.14963418081353305
-0.3232938278670797, 0.4645009159116211, -0.14978702353410522
-0.23259536754888901, 0.4667701191184152, -0.1503148842466625
-0.32850028173926593, 0.46784278855318867, -0.1506189216269224
-0.22082242074946948, 0.47603582877325235, -0.15261111833515947
-0.25431511618213903, 0.48384291852733, -0.1545629290937195
-0.2333196664533408, 0.5026431962471375, -0.15922316196053796
-0.19090426589338075, 0.5243633947355923, -0.16563745991400078
-0.09682060949015946, 0.5491704562171018, -0.1758846455164624
-0.21042834207800387, 0.5495359786469006, -0.17230260593545527
-0.11649957845928159, 0.5484964604511086, -0.17505038167671963
-0.08689236820426918, 0.5553999736207123, -0.1780132325717426
-0.13189251042880076, 0.5442309442928512, -0.17331387022016578
-0.11751961361462962, 0.4270453301294394, -0.14562926161866643
-0.10380179160843317, 0.42464584615552614, -0.14563202386627297
-0.19651378338015296, 0.38541707132825753, -0.13536409581532202
-0.19965450159664008, 0.3700526291684235, -0.13242176121767932
-0.19957225972115133, 0.3797685513027296, -0.13422044640525246
-0.13244879667732007, 0.42808214618370577, -0.14533519535331155
-0.1211896267791889, 0.4539269598170034, -0.15047898497355505
-0.1850956096608988, 0.3953938584792762, -0.13757981929692936
-0.10743475582326514, 0.43959075687282173, -0.14827642403801192
-0.16364821520506742, 0.4441486741131815, -0.14729004877346658
-0.18353994918167568, 0.38658237226304243, -0.13600161054762738
-0.14817087575382593, 0.43878500271212006, -0.1468021207541812
-0.20991667345274664, 0.3579575484076059, -0.12985207728821002
-0.18815278683478978, 0.42879241172520416, -0.14365414895061768
-0.23881298333855444, 0.3806695737147986, -0.13399042482137702
-0.3225984801907429, 0.363780697844875, -0.13090202147269722
-0.23456832458047833, 0.4080134033207398, -0.13904233521461806
-0.22677802177141865, 0.42653548741644964, -0.14246245176414413
-0.32311704681834436, 0.3867356943152358, -0.13514467722904971
-0.3093782093253187, 0.35634176598654715, -0.12952199115978508
-0.3332868653330443, 0.3645903560600787, -0.13105586040729586
-0.22574078869392744, 0.39338247172967916, -0.13633483444550168
-0.2457177090731796, 0.43202305069491076, -0.14348408586127373
-0.22191484547638113, 0.44208736638599017, -0.1453347772284624
-0.2434732804098454, 0.37850485359879943, -0.13359218152651317
-0.32030511333512646, 0.36316829142798707, -0.1307879375201016
-0.23857882061157354, 0.3799883644777604, -0.13386443437807177
-0.26035606045121, 0.40307939917999214, -0.13814058795742568
-0.08183109044854672, 0.5026936160012611, -0.16346158310309492
-0.19715485705071317, 0.4812615584060668, -0.1543956894754227
-0.08471714508108538, 0.51079988509738, -0.16538216882063844
-0.18941048028925928, 0.4838448694328294, -0.15528876776713063
-0.17179297226971396, 0.4811114465097447, -0.1551810165227357
-0.17126883092121928, 0.5085641678403883, -0.1620193024119133
-0.05517330890533073, 0.5155152924921269, -0.16751209425583083
-0.6176927980417691, 0.43021072478708444, -0.16166818409118525
-0.6174828880850446, 0.4997033772154248, -0.17770018632916226
-0.620065479298372, 0.5776006365781579, -0.20116584347158192
-0.649566765400479, 0.6121180716112901, -0.2241313332106704
-0.705944351465459, 0.5890802173806153, -0.3232807605764999
-0.5939273590231399, 0.6250024449867226, -0.20812590027993905
-0.5917961717787051, 0.5629016600798221, -0.18649360880190968
-0.5435457788881353, 0.581795016331605, -0.18883599064261525
-0.5234455589816231, 0.5948157644614124, -0.19219247680014354
-0.5050627253423267, 0.6111170648833668, -0.19692703853714488
-0.4619316734253659, 0.573325492820571, -0.18195597812170766
-0.4760937497475189, 0.5672888896061457, -0.1806780130855386
-0.32769633960826416, 0.6017680465331084, -0.18920714197741742
-0.23181718864106096, 0.6104907087821538, -0.19223349466935472
-0.36183151790057133, 0.6056805864824111, -0.19056905894943788
-0.5640345505427126, 0.5827579489663819, -0.1905909532675838
-0.587697110786099, 0.5219969115530221, -0.17366389912573987
-0.5606907914683861, 0.5582179583964684, -0.18240799107210015
-0.5812025536962931, 0.4945069333791222, -0.1654520362895226
-0.5609018735431476, 0.45364068692422177, -0.15449117497377904
-0.5565252315255697, 0.4495066376274862, -0.153581050447331
-0.5893328027812819, 0.39076857234622875, -0.14406652433328024
-0.5759495898728175, 0.3479869956220265, -0.13509749387011175
-0.5539799314287324, 0.5047193658585825, -0.16664919015738058
-0.5892813426388265, 0.43037792844946404, -0.1515997057602838
-0.5833248471178182, 0.4435032959490834, -0.15360525801290945
-0.6026575083559836, 0.4593070017359612, -0.15839194674409665
-0.5970447944493624, 0.4970825473953461, -0.1678189238681544
-0.6089715396472943, 0.4712637678990486, -0.16244934169846242
-0.6028762427850635, 0.4947195716595172, -0.16791857942560456
-0.5935943936917847, 0.5530971602151973, -0.18372937041531195
-0.6147849520357214, 0.5696547204938703, -0.19405082428419138
-0.6120038791146117, 0.5300516337319598, -0.18044401900953266
-0.6485537132259387, 0.6124560263536112, -0.22342213139105227
-0.704201113965438, 0.6006546769859458, -0.3086977783925551
-0.6464538419977897, 0.6171112994027312, -0.2233685954878556
-0.5504607048588726, 0.8809030164105096, -0.3624298602582088
-0.5328904903844923, 0.8948113889403305, -0.38498362656042284
-0.24519947834491085, 0.8932199636751343, -0.3771805777083734
-0.27080141602930635, 0.892705486680091, -0.37636659615165224
-0.22966776358476282, 0.8921152504220633, -0.3754357166701626
-0.23826149193877538, 0.8817803139470657, -0.35910552672481494
-0.4059685153590896, 0.8958321102638549, -0.3849282459652973
-0.29968728434088765, 0.8966979847259444, -0.3877391626875635
-0.4281641074127502, 0.8919314652387798, -0.3755890485898819
-0.4530981372852379, 0.8776184726259098, -0.3538122167921664
-0.5211762049960071, 0.8774983436865973, -0.35596072406656953
-0.6172294144141475, 0.8956435989038078, -0.38835648604925804
-0.6546011769670044, 0.8946924343188192, -0.3883686260155078
-0.6824254333830118, 0.8814544733310661, -0.377888186898635
-0.6736608110003164, 0.8933293539863942, -0.38722067085752315
-0.6236612818938488, 0.8485304549572923, -0.3334309409555269
-0.6701517275333075, 0.8426696134516469, -0.343163206692907
-0.6487608283949458, 0.8669365878588395, -0.35541757073863556
-0.6694934242392301, 0.8879353435623292, -0.381406828607093
-0.685414236856867, 0.9017790783616303, -0.4081974090238589
-0.7028594080980962, 0.8771181492781175, -0.3883609831951803
-0.4329626127435266, 0.8937141767898596, -0.3786775025246068
-0.4658481905784831, 0.8962286687126169, -0.38796902809874945
-0.25606875890147757, 0.9014661451242747, -0.40343579952925657
-0.5360871615265824, 0.899038860607084, -0.3953570815669804
-0.6662986327024638, 0.6636764370611629, -0.2535957532211124
-0.6643485096726771, 0.650578354811036, -0.24716944672819607
-0.6513098485078852, 0.6738436230747258, -0.24744881640523536
-0.6949087804674609, 0.659575476780802, -0.2930124597173981
-0.6847094864438977, 0.6487365939468356, -0.26963103408139255
-0.6920594659575805, 0.6689193216283377, -0.2914089135265908
-0.7046306460851125, 0.6541172412924745, -0.32807096353514
-0.6027422606720454, 0.8286862381699889, -0.31518950374064314
-0.6177966386652094, 0.8776052984300983, -0.3610892479911674
-0.6365001277580252, 0.8141114691434835, -0.3116568212158555
-0.6082831695036631, 0.7674559105807777, -0.2754775566878205
-0.614221498182368, 0.7068395742735617, -0.2454655878695489
-0.6241458021451557, 0.8366382651740304, -0.323593502248534
-0.626255410873721, 0.8762394105721208, -0.36079936724529876
-0.6406201517625196, 0.8416519529104769, -0.33078288425312113
-0.6329106730955374, 0.7190143575324159, -0.2577787302988763
-0.6360908583247862, 0.7519862135958088, -0.27577642037831607
-0.6763718465883144, 0.8193717198766286, -0.3326163949990264
-0.6596499698223618, 0.7203613960020173, -0.27246587706910314
-0.649974390758193, 0.7283142161140681, -0.2706974989720894
-0.6530520338961314, 0.7954162483906788, -0.3053976285511033
-0.6543487956893801, 0.7709399403896173, -0.2925180635820799
-0.6485509214711918, 0.712646242996041, -0.26269800434041024
-0.669615852347146, 0.8287484860017865, -0.33356645531403567
-0.6832311403505762, 0.8245771000796907, -0.3416391538262527
-0.6853177255047271, 0.8627986045860665, -0.3667320497455858
-0.6821374489459132, 0.7858148738974448, -0.32001323706285323
-0.7009585836969884, 0.7191232215695892, -0.32788835458600896
-0.6830630963772031, 0.7114969961366302, -0.2948448505259988
-0.7001194413571264, 0.7865779735204181, -0.34669030101953835
-0.6752491779329566, 0.7272550665048229, -0.29034626756434656
-0.6845713918400267, 0.7294374844194106, -0.30291026019577005
-0.6696493575596837, 0.6959575495339149, -0.27126645873794636
-0.7061142208789293, 0.7143162444869718, -0.3444972014423159
-0.6927216225659341, 0.6789360094568196, -0.29705414436198363
-0.6941211105524703, 0.7984912734867587, -0.3423275014126568
-0.694351099963211, 0.7561765937828697, -0.32682519241781616
-0.7088745479512603, 0.819554809513853, -0.3762360703029092
-0.5959982886127898, 0.8840382197049467, -0.36898929078636
-0.570705873803091, 0.8811836979108083, -0.3637110253919034
-0.4491658695140329, 0.8934334923564031, -0.3786908218082
-0.5365090947554167, 0.8873896041638181, -0.37214022333944086
-0.550100579438286, 0.8573425873396606, -0.3368570999853504
-0.5563081233213868, 0.8563220576996318, -0.3360360212112352
-0.44547403511025685, 0.8577639199255798, -0.33369936410674406
-0.48047830911876965, 0.8548407288813312, -0.33201177061320697
-0.5354851157196452, 0.8434430472020982, -0.3226142389103486
-0.5945095379404445, 0.8709587223320371, -0.35260157094528777
-0.5696800302581628, 0.8665377746654768, -0.34677348543520914
-0.5833853095063282, 0.8091607775359755, -0.2989742451380002
-0.5560648041876785, 0.7859210016287598, -0.27969339610779936
-0.5529048016286373, 0.8087091730975683, -0.2968478452945587
-0.46159653983912685, 0.8679485047696628, -0.34435178458555643
-0.5197743951732121, 0.8488118068084931, -0.32739342294300355
-0.47150654351158383, 0.8691151636595595, -0.34584867635989647
-0.5021071784300406, 0.8552164898840201, -0.33313112538840706
-0.29519389811346397, 0.8716603305561385, -0.3464335396937105
-0.2856495955484061, 0.8766741481363787, -0.3514053359493935
-0.2990531619065717, 0.865410445544971, -0.340236895946485
-0.41179012973753754, 0.8667433801934326, -0.34154632101359594
-0.376120308897132, 0.8696750886429048, -0.3444566790183997
-0.37340091686035737, 0.8683804222022693, -0.34317341815989166
-0.5053297743240647, 0.796367550601649, -0.2855660208927977
-0.4495884260085272, 0.7884187176321895, -0.27758413235085455
-0.4303811237701093, 0.8038132616640069, -0.28863128341116984
-0.462160685396825, 0.8206478868927902, -0.3025429720856376
-0.4198437439600491, 0.8280057111112055, -0.3066733997706079
-0.44948019131355016, 0.8199175690133057, -0.30154738113145124
-0.5983382320405697, 0.7412875501401546, -0.2585379696808835
-0.6113881171647568, 0.8152694077676171, -0.3063466460536405
-0.5943319925411341, 0.8138914218275846, -0.3036863885403668
-0.5772566140467184, 0.8105412936127799, -0.2992169043828176
-0.5787456796286312, 0.730764536887766, -0.25071678866844277
-0.5420894893061433, 0.781089026954876, -0.27603630850187283
-0.5655007356097529, 0.7377750227748566, -0.2537018950132622
-0.5202074558194081, 0.8295557787520473, -0.31132607111609123
-0.5263437177837832, 0.842340500202636, -0.32126284825690243
-0.5007577323331142, 0.8296659132531482, -0.31073726581312333
-0.45912126768593114, 0.8332995429724852, -0.31206135024799264
-0.5070686307855072, 0.8278334581278071, -0.3095616583808122
-0.5123785205069055, 0.8012963983064166, -0.2895601009163135
-0.48002908177113407, 0.7442256995168316, -0.2531821374934943
-0.48775924467770915, 0.732684944922616, -0.24682159113525348
-0.45003356593701926, 0.747342962426438, -0.2535112532449809
-0.41840068933745445, 0.756679470139485, -0.2573938645430085
-0.4304663439921093, 0.7687262650256674, -0.26503539332796416
-0.3879096258694589, 0.8195289909477264, -0.30005321484688274
-0.35588745617681095, 0.8372243626023609, -0.313517477535052
-0.35938677447647865, 0.8257327702827846, -0.3047736065294705
-0.297172958331299, 0.8368835697229762, -0.313258126558304
-0.3920496111856298, 0.8324378451062618, -0.30987547637367496
-0.32457281455881015, 0.8281825680751901, -0.30663761473630297
-0.3300242344311638, 0.8110399241059669, -0.29359389882640485
-0.36334758800754746, 0.8075031927099643, -0.2909028491922351
-0.3533393867617938, 0.8213106627462816, -0.30140885075888213
-0.39160747000273743, 0.8077518776699435, -0.29109209305505224
-0.710933303855694, 0.8434068659803974, -0.3934394682768543
-0.7106543508812919, 0.8256147225096333, -0.3852328649877806
-0.7061208947548699, 0.748652657718276, -0.3497603845722846
-0.7116038596065679, 0.7581926219011557, -0.374287030653308
-0.7020007372145447, 0.6940455226497037, -0.3243367471536819
-0.7105584248939361, 0.7269790412166892, -0.36586127914842415
-0.7070714759459544, 0.6800232096664962, -0.3437007353655141
-0.7080609956771793, 0.651984319493454, -0.34594347288452415
-0.5822344687341608, 0.9020828181606338, -0.410576082057504
-0.35065431157365007, 0.9019647054551189, -0.4079205578659748
-0.46996947570696346, 0.8993993789655464, -0.39655820359592897
-0.44515658861698315, 0.9020145902857905, -0.40904148281458963
-0.5426453604367673, 0.7129056900313339, -0.2396952630492352
-0.4592373274286954, 0.7711863625148508, -0.2676730584363304
-0.47526397857280855, 0.783425918128454, -0.27499530057467136
-0.4418184062581142, 0.7834260279602695, -0.273835096903637
-0.47194742722512867, 0.7650699054333758, -0.26473269197949906
-0.4644306239161341, 0.7665950115461552, -0.26531503337818296
-0.4989912184764921, 0.7757416018274471, -0.27157038859338256
-0.2826734892194282, 0.7786702877639637, -0.27006477511444427
-0.4141356386771771, 0.7271358344204106, -0.239952712579512
-0.3584611884320301, 0.7738707455043417, -0.26726472796188383
-0.336457866741024, 0.7487904562300036, -0.25260416725766593
-0.36080010537540297, 0.7498430045203258, -0.25322103984299843
-0.3554311114832174, 0.7754301380157431, -0.2681759607634997
-0.3145940365471576, 0.7721913990077937, -0.2662801585460882
-0.40889116525930563, 0.7345154544815854, -0.2442656275239103
-0.44695109655168247, 0.7048798119965323, -0.23137568698928368
-0.4442698832813087, 0.6989652863331516, -0.2286341287746519
-0.4964484565986539, 0.6835737676475636, -0.22445235461654342
-0.47331195964782147, 0.6921064028567927, -0.22705960519054338
-0.431469459846901, 0.673222386042686, -0.2166451048937959
-0.47409681051267083, 0.7225023271170372, -0.24049255729804575
-0.42405449749969387, 0.723960922104924, -0.23864465108120955
-0.5276628251874832, 0.7091202765422635, -0.23726261567490253
-0.4929742989074668, 0.6941867193511359, -0.2289568161132056
-0.45349324068857794, 0.7117717313249886, -0.23473947922823854
-0.40267271414496664, 0.7235719276219843, -0.23801471327525386
-0.31030716916764844, 0.6987850688460105, -0.22706184788982753
-0.3928955582544497, 0.7042609499030197, -0.2294977023475001
-0.33909964857931835, 0.7023187647485394, -0.22862738515286482
-0.32721184748806253, 0.7121544994920441, -0.23296100324611724
-0.35268794202030734, 0.6993773778278819, -0.2273340197118838
-0.3923196211648809, 0.711673484004811, -0.23276583865301223
-0.3645423957709431, 0.6994715197123544, -0.22737860912489558
-0.42168714591696793, 0.651601197529873, -0.20775026740910174
-0.4631718765267063, 0.6531444490377267, -0.2103939943298307
-0.44638403977945385, 0.6584536461931207, -0.21153663492359442
-0.454910576733523, 0.593435862902541, -0.1883109459107889
-0.4625550530270798, 0.5896828576558786, -0.18738680486806886
-0.3183089441253925, 0.6299275171403418, -0.19933687721370974
-0.39934492787291165, 0.635944775655414, -0.20157596872746186
-0.4013429901877714, 0.6247001013740174, -0.19743889368915524
-0.5554369807046352, 0.6471688978684605, -0.2130074475286854
-0.4667031099231085, 0.6582837446550102, -0.21248691799228653
-0.46209965932403196, 0.6655789612937291, -0.21497900399169095
-0.5129732250415967, 0.6488002070108873, -0.21125806492581234
-0.353988524018769, 0.6570168647693804, -0.20940894590452697
-0.37270938404579285, 0.6619918386102249, -0.21127092507207107
-0.3857032887642197, 0.6550937288206679, -0.20870276929346598
-0.29254724181712755, 0.6611267242969012, -0.21092029956625674
-0.4208712784441567, 0.6191350897941708, -0.19569448521607966
-0.41896676083627327, 0.623247040704765, -0.19711310185915004
-0.5624291316770602, 0.6133534105776007, -0.20086446409402747
-0.5129666571054682, 0.6189181385579988, -0.20017203474148978
-0.43699818022340375, 0.634227292858171, -0.20204642981614615
-0.533324478107825, 0.625572308541695, -0.20364799223418878
-0.40182739531899636, 0.5493282901994314, -0.1722456680092735
-0.34090585184081457, 0.5381187614714337, -0.1689707201022532
-0.3258328889895675, 0.5547417401401625, -0.173785909729853
-0.36038612314263785, 0.547044163756833, -0.1715669603118189
-0.3222669985796148, 0.5503710164569732, -0.1725168867105666
-0.38858341702180776, 0.5298872244619878, -0.16660205473328216
-0.4475007668848716, 0.4921444836468042, -0.1583652191153433
-0.44915627143921394, 0.47111236076059815, -0.15323188915930339
-0.45958443836311585, 0.4715600676196006, -0.1538662637760127
-0.4750918944342395, 0.46400223072009283, -0.1527699967142615
-0.4617738379052201, 0.48671348517766655, -0.1577345057467166
-0.5424794882481184, 0.5615435491278041, -0.18218218972019282
-0.4877307073933246, 0.5859253671345753, -0.18737270070091783
-0.532167499910384, 0.5821240914449834, -0.1883368425478349
-0.33236981192514664, 0.5746829938318407, -0.18002468864101248
-0.3926932025857122, 0.5673222823263735, -0.177613725534923
-0.26989810882670745, 0.5855466449611295, -0.1835883725468851
-0.4436962652912818, 0.5385655661734947, -0.17058767818603532
-0.46935045529436314, 0.5287398858966698, -0.16902418064984745
-0.45759218862946927, 0.5379302833261935, -0.1710986535626282
-0.47095606443475796, 0.5292742518940032, -0.169259300496165
-0.5616532640657455, 0.4661300556495477, -0.15721610692491067
-0.46403121580955947, 0.5511059566485692, -0.17523796482224463
-0.5147387922619422, 0.5330609323074873, -0.17254630479066246
-0.5250107880306476, 0.5523583027721342, -0.17865112997363086
-0.4413882831896769, 0.5597667069112728, -0.1766145847184397
-0.3490140322121068, 0.39406347806193376, -0.13650914349491072
-0.37998545893546976, 0.4340871157716869, -0.14391830303643283
-0.39723155835296714, 0.4073670537578975, -0.1389867924809549
-0.3726400851646655, 0.40203037996358915, -0.1379908320019595
-0.31383627516600593, 0.4555870804506876, -0.14786584842656103
-0.38629476958653697, 0.405004874649029, -0.13854592879274
-0.39267001707546995, 0.36709958406409854, -0.1315429430389229
-0.3728175213266579, 0.41578465197683345, -0.14053290609471927
-0.2712896579834465, 0.4320885817385951, -0.1435062459482172
-0.32854847348610716, 0.40395130542285695, -0.13832852942885085
-0.39491715644236874, 0.4443836008612318, -0.14582711969145534
-0.3677384786105696, 0.44191732980858556, -0.14536063821322004
-0.3572876026805558, 0.44769705712372554, -0.14642471692995593
-0.37173017445735657, 0.4195476805339518, -0.14122794545320938
-0.3716614494283695, 0.38437481770163273, -0.13472742379016622
-0.5499537371848746, 0.3755831024256532, -0.13965712473966785
-0.5500963965376446, 0.40272039813069, -0.14467361748372626
-0.5379374379395243, 0.4620006348601225, -0.15542739015965684
-0.4206628204340327, 0.5147867728041686, -0.16263408514544161
-0.4805880550286241, 0.48880426495014595, -0.15919713690218565
-0.44497142581084254, 0.5160193906854833, -0.16415894835765416
-0.42283369928671627, 0.5143878597027691, -0.16264405442108434
-0.4346673614896972, 0.35117002063222014, -0.12966385667607927
-0.43204338696365047, 0.42215236310218446, -0.1426429261757402
-0.45784743295017083, 0.3832270511879097, -0.1367494238228927
-0.4894923456006035, 0.3482658912828638, -0.13188153658192703
-0.43070546076323746, 0.3848924472508142, -0.13569357686916322
-0.45716554552590943, 0.3522518842455187, -0.1309938625690789
-0.41870450787309027, 0.45286241254522736, -0.1476451961820505
-0.4312117491495353, 0.3959274685260077, -0.13775724735811612
-0.45001960211454506, 0.37519963086399144, -0.1348734840150052
-0.32657940551476583, 0.49124934349663674, -0.15643157634148236
-0.41365593207999857, 0.4611864105338435, -0.14899960666960313
-0.3813227889633031, 0.4787934328635131, -0.15336049689200282
-0.34492254935555466, 0.4911177304934892, -0.15640692376633147
-0.2854969343941228, 0.4982328195824921, -0.1581488336705436
-0.39601520565444304, 0.5109688167122483, -0.1613620481385468
-0.33965257634290724, 0.4846447164307641, -0.15479616331387455
-0.36798608813616734, 0.4733547243412724, -0.15200320521931807
-0.5311608417627893, 0.3816368073193472, -0.14013704364781404
-0.522217215414887, 0.4523276619176369, -0.15274136859774334
-0.5231768564212879, 0.4566860858303096, -0.15359431644946892
-0.4754218326254278, 0.4541708775825779, -0.15073331107516547
-0.4965389174615272, 0.4269399289707553, -0.14676483462800957
-0.478781117123332, 0.452748172892692, -0.15063919131573877
-0.5175466913391711, 0.44487748295243124, -0.15113129482989401
-0.4959331638778612, 0.45548546860419625, -0.15200540588562206
-0.4643769674179843, 0.4152549354803099, -0.14299314942958227
-0.703192130860395, 0.6272563023798042, -0.31188554465482654
-0.6917284167177055, 0.6449255487505066, -0.28144408888770833
-0.7011865902964202, 0.646781859713336, -0.30563881108159724
-0.639916584993837, 0.6477424909928393, -0.23092409813438478
-0.6269509784753975, 0.68115958951865, -0.2392338018795001
-0.7067355376176752, 0.6205486540437636, -0.3313990402803816
-0.6158117156866142, 0.6395776372974402, -0.2181373173549075
-0.5597930019595195, 0.6311767589829862, -0.20723015552770876
-0.5635392615565469, 0.7686116492175816, -0.2704669375545762
-0.5672863122822711, 0.7808867537336968, -0.2773760195618009
-0.6170197973395383, 0.6780032757750645, -0.23414469461235857
-0.5952818277159009, 0.7840908339631247, -0.2821015897937156
-0.580439318325394, 0.7103785395486149, -0.24124609818975548
-0.5736842456643978, 0.6921254490626908, -0.23267578146001283
-0.5967276685364691, 0.6694583384727083, -0.22547945825413918
-0.5490088959020262, 0.6499429248314212, -0.21362370959121008
0.7101852953398344, 0.6600536458467301, -0.3554937050438873
0.7080061956958177, 0.6759925996612, -0.35351418147678393
0.7138115560558481, 0.6860018712656275, -0.3612640506725543
0.7114348176132395, 0.7626804976624142, -0.3767722887771729
0.7154070665405884, 0.7208133916805757, -0.36971305322154946
0.7101854676461786, 0.8318191133639938, -0.3965896057915491
0.7154376885963586, 0.7881119633180163, -0.38242075610994025
0.7129704072812856, 0.5981777802551526, -0.34035806150975445
0.7143472333802521, 0.8913516646916058, -0.4079012893834184
0.09036717798611862, 0.8985502083496556, -0.41197960583257653
0.22768512023032317, 0.9013709403245714, -0.40990722545069813
0.03199509294925673, 0.9038382843874933, -0.41051315875985184
0.1662441563374156, 0.9033793020172949, -0.41015773337303707
0.5273602609220821, 0.9051570226263688, -0.4120789901074236
0.15004932214608455, 0.9054242891630964, -0.41431494826327364
0.1308414028069961, 0.9019673112171603, -0.4167727367245594
0.03972190508996671, 0.8983805153435018, -0.41324691463336743
0.098004663775898, 0.8984887583644604, -0.41406571891160177
0.050702085444363325, 0.8995595335708781, -0.41589044812333087
0.7104112323406284, 0.5682177233473138, -0.39658384871106844
0.7098534464480527, 0.5846464364143308, -0.34681688792008636
0.7072903578022933, 0.5860404273733504, -0.3360436532680615
-0.711570704222159, 0.6262756273051833, -0.3466446083433364
-0.7075408689465346, 0.6423171221114616, -0.34393800438513267
-0.7127726739824021, 0.7117351051865339, -0.3691178750021252
-0.71363097257059, 0.7722855543210396, -0.3781490669227077
-0.7158660097496905, 0.7702653544752108, -0.3843590458938276
-0.7110488677426072, 0.8118939445388306, -0.39360071908125177
-0.7100930146523694, 0.842202926686121, -0.39637958846826354
-0.7101736991671824, 0.6202180780865705, -0.3461432987451157
0.6812707479431159, 0.8984617803705259, -0.41381972656544774
-0.16673237501038435, 0.8984180133156932, -0.413523872456252
-0.6073820591786543, 0.8986213188275867, -0.4150433793681151
0.6364162167171418, 0.8993496583192502, -0.41089975990291294
-0.022906831908367793, 0.8989289551123907, -0.41149048096402613
-0.08677959538821263, 0.9021554920550487, -0.4098121196873755
0.3805045973832398, 0.9023013103925475, -0.40978476259125013
0.5950852429093214, 0.9008944446862097, -0.4099512177246649
-0.6869129811820925, 0.9049548760997543, -0.4113676351703134
0.10996173075473396, 0.9047497031542728, -0.41121068454386744
0.31653232592158664, 0.9053129031377606, -0.4132642008091878
-0.5809139848648495, 0.9047347253246099, -0.4152130086125785
-0.35744575153329994, 0.9047709952613885, -0.41516577209831435
0.020670500724346882, 0.904654316832072, -0.4153184341943909
-0.058418680508267005, 0.905393391853923, -0.4138752846695741
-0.6250401184718357, 0.9016905079444044, -0.41679970075792516
0.09798328221853381, 0.8987421923016582, -0.41526016241129565
0.5351083621729259, 0.8991021787648094, -0.4155156499950582
-0.5011523073114972, 0.9005135754854152, -0.4166094381938069
0.6921591744551754, 0.9015515583101599, -0.4168173907935515
-0.709850426337164, 0.8892266855979749, -0.4065467187795685
-0.6738520580328069, 0.8985539214637269, -0.4119282311523658
-0.6437600202512579, 0.9010143013100601, -0.409935393909719
-0.7092089455901257, 0.901482521892819, -0.41063342870209457
-0.14895838491787056, 0.9036806565443436, -0.41039227257133387
-0.4023439480444624, 0.9053736111844555, -0.4137247923639562
-0.24938753619393994, 0.9038690605651217, -0.4163412978352685
-0.12482585245839926, 0.8997644596382344, -0.4160411572346082
-0.4136627292457343, 0.8989120767290442, -0.41537093916376094
-0.6675053349951933, 0.8982901685503712, -0.4125091782228383
-0.4829270132437802, 0.901498280687252, -0.416825603423099
-0.705743060916024, 0.5561213730984879, -0.4088696579019497
-0.7129565487802665, 0.5722403706195821, -0.3836981732050004
-0.7114292864201651, 0.579806615515323, -0.34113582113759555
0.7076814184148874, 0.5617037621921411, -0.4192069613690317
0.642762384456366, 0.5655936980799234, -0.42066518773747585
0.7002433113200163, 0.5896940294572274, -0.424194620974156
0.6235407723631441, 0.5717301507266698, -0.4215638588176806
0.12919355599668458, 0.5798211675046849, -0.4227487634010111
0.18457369652144107, 0.5864380600187085, -0.4237177935127305
0.29149713671987165, 0.5736043842261327, -0.42183833150432964
0.2644697591653257, 0.5795926475338044, -0.4227152990811067
0.1489529965819016, 0.5700797217199893, -0.42132215042005383
0.1606447571122271, 0.5685772607834754, -0.4211021184942166
0.1291748933979941, 0.5844779195352364, -0.42343073447083635
0.18719913951422767, 0.5774955049665342, -0.4224081760746128
0.26391997059604005, 0.5878280893365373, -0.4239213613720729
0.22033677659124745, 0.5724831897214436, -0.42167413402733833
0.1867495266142716, 0.5748092438024692, -0.42201477904200424
0.17224203954823403, 0.5675372574342026, -0.4209498124612998
