0.4606513089631267, -0.24173482516306724, -0.622509599296356
-0.13488375064723723, -0.24173480478103676, -0.04158784887057704
-0.3546544523416221, -0.24173481590784068, -0.3587205504509696
-0.28272133735735294, -0.24173481693637167, -0.3880353705342309
-0.290101429701245, -0.2417348136036368, -0.2930468371619648
0.03679136850352993, -0.24173480564833422, -0.06630718995316182
-0.7545450715597486, -0.24173480673173622, -0.09718638881758909
-0.5866275224418367, -0.24173483112995148, -0.7925763748304366
0.11724652254140722, -0.24173482069311528, -0.4951086527227111
-0.09158104148404272, -0.24173482854412864, -0.718875818688456
-0.4390049460450001, -0.2417348306769119, -0.7796639079808452
-0.6373633751069695, -0.24173478750204774, 0.45089206244518143
0.26806794538128026, -0.2417348157416389, -0.3539831856480572
0.031073557444159294, -0.2417348177838183, -0.4121888535501891
-0.355760855031024, -0.24173481016616577, -0.19507318030740037
-0.12293929184463898, -0.24173481406278852, -0.3061333432723064
-0.43562651758866555, -0.2417347915384884, 0.3358468383129939
-0.4473074807090681, -0.24173480248784296, 0.02377185587856978
-0.2629729993101959, -0.2417348213101421, -0.5126951565527567
-0.5152807088240429, -0.24173482568160004, -0.6372891780016673
0.33158516461603704, -0.24173483109517183, -0.791584603961285
-0.7860571359121237, -0.2417348285786992, -0.7198615117181864
-0.7496668750500317, -0.24173478828114928, 0.4286863022901672
-0.22747035187229186, -0.24173481132706048, -0.22816056000900525
0.2560581439199493, -0.24173481440928257, -0.31600880172075435
0.39400123524772246, -0.2417348224459808, -0.5450681128125188
-0.46154485592051764, -0.24173479189265135, 0.3257525864215789
-0.5162504203707592, -0.2417348144029919, -0.31582992061187953
-0.7034819863122944, -0.24173482171648256, -0.5242767771231884
-0.803157544340595, -0.24173477858999554, 0.7049004155272567
0.5518668594276366, -0.24173483200682633, -0.8175681684185244
0.14773947827179706, -0.24173481424030846, -0.31119281369755925
-0.3772183666231925, -0.24173480398343078, -0.018854869607770247
-0.36924580361947057, -0.24173480254757296, 0.022069490814211
-0.19451257263157773, -0.24173480360037705, -0.007937098711752633
-0.5692432344386111, -0.24173480763493205, -0.12292888612712405
-0.3986108196885283, -0.24173479755573274, 0.1643452974754899
-0.7201802607263887, -0.24173482890726913, -0.7292262700992176
0.04285567834443743, -0.24173480940265502, -0.17331162989602822
-0.7666557202287255, -0.24173480469779834, -0.03921575343253894
-0.7614833109287601, -0.24173480360901228, -0.008183520875552588
0.04547069055774883, -0.2417348088033002, -0.15622900999543804
-0.6907877815989918, -0.24173481637059588, -0.3719100292666614
0.45572124556156524, -0.24173482445092492, -0.6022123519885393
0.3176983054620274, -0.24173482219292947, -0.5378557656163336
-0.08855878986506166, -0.24173481667796198, -0.3806701565938979
0.23098464519011114, -0.2417348112967948, -0.2272976906378819
-0.120206678386302, -0.24173481424537896, -0.31133747499378606
-0.4592584107209402, -0.24173480796741506, -0.13240515154251375
-0.21895224139454916, -0.24173480262002983, 0.020004429749220565
0.13176399727048937, -0.2417348193512471, -0.45686314963365765
-0.5210136584114162, -0.24173482880926744, -0.7264329507376586
-0.6432571209183213, -0.24173479046413984, 0.36646746401312785
-0.1619991010634963, -0.2417348017489145, 0.04483270771648268
-0.22807900493320182, -0.24173480726993568, -0.11252569546781102
-0.5339908313758204, -0.24173479633649683, 0.19909549454699343
0.2913795211913754, -0.24173482896512374, -0.7308746807457354
-0.7649891820996249, -0.2417347813904587, 0.625082536715557
0.025861009231263887, -0.24173480773111067, -0.1256698192095893
0.4371523053427737, -0.24173481908940503, -0.44940004742222883
-0.05446433224694286, -0.24173483195105297, -0.8159788595882776
-0.43853869951109525, -0.24173481012196724, -0.19381349326621866
0.05675398682446836, -0.2417348317741384, -0.8109364384221254
-0.16664419770258382, -0.24173480812942322, -0.13702249896498342
0.4380445982344252, -0.24173482612281946, -0.6498641604930886
0.10642362925054999, -0.24173481735781882, -0.4000471123785324
-0.22798294865858798, -0.241734809362865, -0.17217769250720313
-0.6129207563163637, -0.24173478244083882, 0.5951450229478193
-0.26681653480379564, -0.24173483022613607, -0.7668159466445594
0.5189051808772955, -0.24173482327387336, -0.5686643726165708
-0.17907858755444317, -0.24173482355621312, -0.5767119048889364
-0.4244796079791976, -0.24173483203643797, -0.8184126739792074
-0.5059097360781908, -0.24173481097642915, -0.21816712699193194
-0.1531473209283432, -0.24173482715493602, -0.6792815305059965
0.06264955294148644, -0.2417348186799738, -0.43773077172491626
-0.786250171458481, -0.241734776590225, 0.7618972409589235
-0.47091383741291604, -0.24173482654272072, -0.6618325384580045
-0.5742181695945182, -0.24173481114899908, -0.2230856965332548
-0.46241564731479057, -0.24173482774107524, -0.6959876485229337
0.2156984101331677, -0.2417348119221308, -0.24512082554626846
-0.030781985394846167, -0.2417348270264811, -0.6756202853606303
0.041224338563295604, -0.24173480477937814, -0.041540481991913625
-0.45129927564278366, -0.2417348109529103, -0.21749677021974817
-0.6090169691454059, -0.24173479144509552, 0.3385086002051905
-0.431685230599809, -0.24173479137428727, 0.34052684850716786
-0.7058807456499543, -0.24173480527982052, -0.05580433034449732
-0.4169774844851286, -0.24173480915693543, -0.1663084554342969
-0.2580702768840252, -0.24173482291012482, -0.5582973458830327
-0.3827390967497504, -0.24173481588384937, -0.3580367728309388
-0.3340147761590589, -0.24173479126053465, 0.343769040926261
-0.48652105705756854, -0.2417347929217748, 0.29642082825600236
-0.7208661382175026, -0.24173483246320032, -0.830576276348535
-0.2820233503133628, -0.24173479975429335, 0.10168269303165056
-0.6412421342965413, -0.2417348302973713, -0.7688464719097214
0.5354565307415884, -0.24173482567547933, -0.6371141637681728
-0.4674131544744543, -0.24173482483073988, -0.6130382094842377
0.1308074251753345, -0.2417348180308636, -0.41923000549202827
-0.029170067456696702, -0.2417348087084874, -0.15352672635445802
-0.8010504636260961, -0.2417348234915564, -0.5748694120789543
0.07603611978678582, -0.24173481541257427, -0.3446043953028335
-0.07817911047048937, -0.24173480614468273, -0.08045401809521585
0.3250412524089204, -0.24173482638170263, -0.6572428256016163
-0.8319567270283519, -0.2417347778199922, 0.7268467881999398
-0.7100485387743045, -0.24173482670413526, -0.6664332509320638
-0.4616352213531513, -0.24173481729010027, -0.3981173241983491
-0.42477515795445187, -0.2417347915953613, 0.33422587230839934
-0.31727963585424285, -0.2417348205181561, -0.4901222547498908
-0.783606368971113, -0.24173482813239636, -0.7071411292935535
0.17173041025004376, -0.2417348321424093, -0.8214327146850029
0.5192424711737507, -0.24173482389463757, -0.5863571954791356
-0.6431615511610334, -0.24173481815174586, -0.4226757677506224
0.48521942557887565, -0.24173482368509, -0.5803847558782862
0.22294556836892038, -0.2417348239481405, -0.5878822764493568
-0.6494404812529065, -0.24173480555116836, -0.06353816880310709
-0.6233041742165274, -0.2417347913946811, 0.33994548664972135
-0.5661526958125991, -0.24173478425145353, 0.543539489706204
0.2067584117460155, -0.2417348189334566, -0.44495537895991794
-0.808166825542085, -0.2417348244537749, -0.6022942574759186
-0.796298610673206, -0.24173478092823228, 0.638256749563827
-0.756741965032577, -0.24173479637679043, 0.1979469390720897
0.5990833087053362, -0.24173482645665179, -0.6593788558984709
-0.358774969108235, -0.24173480471841896, -0.03980325744596752
-0.7827578123784394, -0.24173480130103617, 0.057597660085109775
-0.08000069432912477, -0.24173482424037257, -0.5962115430563092
-0.6424379119739501, -0.24173479348659682, 0.2803223695113527
-0.8237568620034128, -0.2417348147208078, -0.32488837197952325
-0.44738935820269965, -0.2417347994974336, 0.10900353979256194
0.32518093723797603, -0.24173482845464517, -0.7163251667204016
-0.7618075689491886, -0.24173481259439963, -0.26428213816363066
-0.10982222235709077, -0.24173480527362026, -0.0556272923757935
-0.8211409128685936, -0.24173479242558596, 0.3105628623274081
0.7780075985925968, -0.24173483247105212, -0.8307992616153459
-0.6485313769678941, -0.241734826926705, -0.6727768300455412
-0.3306691217938171, -0.24173482936694357, -0.7423275533609669
0.087763182407324, -0.24173480818462884, -0.13859581497398116
0.6249108326904014, -0.2417348284055113, -0.7149246084079858
-0.7134344666934102, -0.24173478482985777, 0.5270539193499068
0.5443316472831251, -0.2417348270412653, -0.6760413515850656
0.057405344546572146, -0.24173481351829892, -0.29061437937759377
-0.01801925422397538, -0.2417348081855937, -0.13862337241676687
-0.5353972693819007, -0.24173480142030657, 0.0541983853720413
-0.7299638609097735, -0.24173481031398994, -0.19928661902133615
-0.23422211873454402, -0.24173480278314186, 0.015355454268203339
-0.7808027208362842, -0.24173482816420833, -0.7080478219503382
-0.18732708276410437, -0.2417348135782157, -0.29232223803850377
0.025503496742229015, -0.24173481516176598, -0.33745596504729136
-0.620374380878816, -0.24173478784928565, 0.4409952088137669
-0.14779547142913546, -0.24173481554851456, -0.34847904206343017
-0.5012792480833028, -0.24173482289527362, -0.5578741910968396
-0.331411388858189, -0.24173483042536162, -0.7724942440957752
-0.23807921469761123, -0.24173481787920426, -0.41490765770653937
-0.5005859703266133, -0.24173479107334045, 0.34910430144634885
-0.6776583108038926, -0.24173478001653906, 0.6642415986011627
-0.8096429387170028, -0.24173481174201544, -0.23998778431904996
-0.15096842116571724, -0.24173482255077053, -0.5480550880270538
-0.22653167280776842, -0.24173481620263998, -0.36712275534002925
0.0014819075926132408, -0.24173481585095852, -0.35709912132320404
-0.4477080972400047, -0.24173482089336432, -0.5008163897596113
-0.6257072113207514, -0.24173478662671297, 0.47584057826239484
0.43972765507047074, -0.24173482611082184, -0.6495222076197913
-0.665419120747438, -0.24173480030103295, 0.0860994926329888
-0.41331218464708797, -0.2417348013633681, 0.05582129274705544
-0.6816069616235438, -0.24173480671155245, -0.09661107984819782
0.2298148112753194, -0.2417348183993988, -0.42973382389089726
-0.5855281776334894, -0.24173479224769207, 0.31563326436664196
-0.39854771849194937, -0.2417348234056052, -0.5724194435572076
0.5702604854711845, -0.2417348315069051, -0.80331956617373
0.15332363624411322, -0.24173482243135475, -0.544651374377886
-0.513234447438061, -0.24173480525625032, -0.055132436053615036
-0.6647786448577614, -0.2417348035154211, -0.005515963565360424
-0.8183774877770924, -0.24173480479050913, -0.041858194854461205
-0.6734293763376098, -0.24173481192175775, -0.24511066835847026
-0.4722202108450747, -0.24173480517453128, -0.05280328366704268
-0.7451025494423867, -0.24173481232291055, -0.25654423427130857
-0.6016156556120635, -0.2417348227874716, -0.5548017074613618
0.08776619862537582, -0.24173481390464352, -0.30162583193570514
-0.6225039155737946, -0.2417347816320649, 0.6181964304029425
-0.5156717868218772, -0.24173483138205426, -0.7997616883823175
0.1695897290627233, -0.24173482583398176, -0.6416319461714433
0.43528319278131866, -0.2417348252705949, -0.6255743321953415
0.24253369602241637, -0.24173482856737227, -0.7195381220051253
0.04671960708483258, -0.24173481824709298, -0.42539295039059055
-0.5634261017407824, -0.24173482844692468, -0.7161055961309508
0.2539962734625893, -0.24173482773815486, -0.6959040281509815
0.36553709976871024, -0.24173483250013908, -0.8316285100040408
-0.6764991327785208, -0.2417348208797372, -0.5004281150882443
-0.2036486307154859, -0.24173480170879452, 0.04597617213590449
0.2047400309448419, -0.24173481750811932, -0.4043308767429854
0.6379238616422652, -0.24173483188040917, -0.8139650216868524
0.2893040159048146, -0.2417348207508362, -0.49675370308589967
-0.518875952938914, -0.24173481164312366, -0.23716904724573815
-0.5269771746969818, -0.24173480343457607, -0.0032116704568073695
-0.6166343635872683, -0.24173479381190663, 0.27105050699067373
0.25594787109423234, -0.24173483055124195, -0.7760817301148981
-0.7290313688086844, -0.24173478987847902, 0.3831597344259787
-0.3648438347448172, -0.24173480861346197, -0.15081852247333197
-0.40045689858364164, -0.24173482668820723, -0.6659791104276807
0.12747243019006393, -0.24173482512219907, -0.6213449666831203
-0.7894705253902783, -0.2417348019690788, 0.03855732015352854
0.2517575490025775, -0.2417348173335885, -0.39935643078126704
-0.6893924921019076, -0.241734828401439, -0.7148092460134522
0.249416547364061, -0.24173481544738012, -0.34559632795256706
-0.6010823537562907, -0.2417347910280149, 0.3503961011618039
-0.5391738690237929, -0.24173480836376815, -0.14370192307382434
-0.4714961487413866, -0.24173482338140556, -0.5717297532625291
0.2096926621820414, -0.2417348103040953, -0.19900409989472667
-0.6046662619009966, -0.2417348289909989, -0.7316126468609074
-0.19385958962046618, -0.24173483048391237, -0.7741629652204375
-0.10999704041529429, -0.24173482017830017, -0.48043567952518673
-0.35008197738181707, -0.241734810369708, -0.20087447355879248
0.6238355260986619, -0.24173483198583073, -0.8169697209943068
-0.7767616288859246, -0.24173482864959508, -0.7218821573858791
0.28362441352326395, -0.24173483067740592, -0.7796775998223723
-0.6788364269080384, -0.24173479696442726, 0.18119834584203376
-0.5189866130176045, -0.24173481822032708, -0.42463038054042934
0.004254353566852165, -0.24173481005437955, -0.19188689287512448
0.0637601232525769, -0.24173481474492825, -0.3255753696739583
-0.8148937679372844, -0.24173481343249334, -0.28816924378370895
-0.37509278755585473, -0.24173479348205354, 0.28045200331999964
-0.3590486469322225, -0.24173481837584937, -0.42906294133815753
-0.4215444967919472, -0.24173480756061091, -0.12081053021005841
-0.32648574765575117, -0.2417347960036404, 0.20858257380065603
-0.24728125574156756, -0.2417348050733995, -0.04992073851737924
-0.7734355476067757, -0.24173478355636743, 0.5633504991973087
0.018854312208221313, -0.2417348047206586, -0.039866888470422746
-0.820967347243599, -0.24173480333345002, -0.0003295663722469224
-0.06632217143800234, -0.2417348234943696, -0.5749491988131162
0.8186480249896485, -0.24173483232551685, -0.8266512406247086
0.1490313306353817, -0.24173483097575432, -0.7881811031378043
-0.7140901844150092, -0.2417347802216015, 0.6583969557721445
-0.5390276758491525, -0.24173479635247064, 0.19864021138585988
-0.38314027938013584, -0.24173482040474906, -0.4868900002023021
-0.47315489906869734, -0.2417347960047132, 0.20855191713633836
0.4284789525563287, -0.24173482507416122, -0.6199756471923346
-0.7540289867461588, -0.24173479353194885, 0.27902970005154004
-0.7262996864436919, -0.2417347815074766, 0.6217473506313668
-0.40190529747612935, -0.24173481343785425, -0.28832181729823003
-0.5447392669751194, -0.2417347962799999, 0.2007057469089797
-0.3468841786535662, -0.24173480106203032, 0.06440996044394143
-0.48058411696588443, -0.24173479941706713, 0.11129410084887245
0.5354157878373998, -0.2417348242961852, -0.5978019668575587
-0.38622099822980915, -0.2417347943301139, 0.2562808535710815
-0.27368292074447126, -0.24173480262527286, 0.019854965175472417
0.75850387832257, -0.24173483226427345, -0.8249057335559697
-0.12939123311256245, -0.24173480485620086, -0.04373015025914745
0.5174194939317159, -0.2417348251825724, -0.6230654992253084
0.40860028651072267, -0.24173482867149357, -0.7225056655462653
-0.5030094593618095, -0.2417347949928668, 0.23739122130292484
-0.26427745132558844, -0.2417348223894047, -0.5434559510027699
-0.42029107564391743, -0.24173481816993703, -0.4231941266789406
-0.6803522614263728, -0.24173481997754487, -0.47471412262883117
-0.18465178601028037, -0.24173481559130822, -0.3496987520056136
-0.7280497527665939, -0.2417347792428259, 0.6862936947651429
-0.5384264340223505, -0.24173479718504243, 0.17491051913723785
-0.01096393536797774, -0.24173482540282393, -0.6293433207930712
-0.7815710267938161, -0.24173480789079826, -0.13022161684140238
0.17343992734563896, -0.24173482993150708, -0.7584182901935922
0.7305968642301901, -0.24173482974937127, -0.7532268165182978
-0.8070074884251637, -0.24173479463687977, 0.24753728638947417
-0.22712964625013154, -0.2417347991735404, 0.11823515544954172
-0.5828033573693401, -0.24173483226210152, -0.8248445479975712
-0.5804045653847923, -0.24173480691939433, -0.1025348676576488
-0.6836602600962984, -0.24173479464128544, 0.24741178266567432
-0.5908270803647747, -0.24173479585456886, 0.2128312187846863
-0.7234303661694585, -0.2417347891171419, 0.40485912217343656
-0.5614146170046723, -0.241734825237489, -0.6246312914290375
-0.638173732397969, -0.24173480827299734, -0.14111485521919387
-0.6710858503506303, -0.24173483189954886, -0.8145112365501509
-0.34348504011627146, -0.24173482388944073, -0.586209538757568
0.1434398302208031, -0.2417348093751156, -0.17252665569633052
-0.4772710034547958, -0.24173482512010602, -0.6212856358164356
-0.4262608688918611, -0.24173479821713495, 0.14549421035822493
0.5915586725392386, -0.2417348270332761, -0.6758136200303576
-0.6221070330042835, -0.24173480619363102, -0.08184941722397385
-0.28448010752339575, -0.24173481643491318, -0.3737429632905975
-0.5888845385254011, -0.2417348060562026, -0.07793245895314267
0.5073767796663388, -0.24173482419629694, -0.5949549991848377
0.5608900916033561, -0.24173482927759093, -0.7397803755366411
-0.5635828881381709, -0.2417348282256934, -0.7098001329612891
0.2891876641121575, -0.24173483127399775, -0.7966814652516578
-0.45267406540329935, -0.24173482044182693, -0.4879468182308174
-0.3797266394290424, -0.24173479148992377, 0.3372310414768227
-0.43201576924041607, -0.24173481952618656, -0.4618495196969794
0.09944243931267283, -0.24173481998077637, -0.4748058079408476
-0.7739995717158641, -0.24173479688593555, 0.18343544026466493
-0.33564899738688936, -0.2417348265408707, -0.6617797371888725
0.045317767992050395, -0.24173483038468085, -0.7713345725691614
-0.008034020396567365, -0.2417348313610704, -0.7991633413859631
-0.800858065704827, -0.2417348288924433, -0.7288037510291498
-0.7369562794019913, -0.24173482061283216, -0.4928209068342448
-0.2820344861545692, -0.24173480880078546, -0.15615751137887318
-0.5084586191874947, -0.24173480381934823, -0.014178312405838445
0.1397033817167898, -0.2417348268008716, -0.6691899438918198
-0.4050677281890259, -0.24173479347715246, 0.280591675628553
-0.3309623439379608, -0.2417347973087327, 0.17138525054849546
-0.22385516936481992, -0.24173481063916227, -0.20855430418134363
0.35773346752971275, -0.24173482733668694, -0.6844614641098096
-0.6198855230874437, -0.24173480845679907, -0.14635350371519906
-0.22070306622734842, -0.24173480510772155, -0.05089895992215271
-0.0881090830847131, -0.24173482011740705, -0.47870011226562037
-0.3332470166373465, -0.24173480005171805, 0.09320556350351158
0.16217711306334637, -0.2417348242038263, -0.5951697834540336
0.3335438760400395, -0.2417348179536185, -0.417028281833451
-0.363100931644429, -0.24173482690354048, -0.6721164490568664
-0.14487601346250106, -0.241734806880283, -0.10141989513047817
-0.1681100791655304, -0.24173481527373347, -0.34064732983447354
-0.5018699552780559, -0.24173483080937216, -0.7834392807868575
-0.14987474891635705, -0.24173480470327144, -0.03937141550252865
-0.26951637143458707, -0.24173479594126185, 0.21036049718934302
0.6437730781037082, -0.24173482695233162, -0.6735065383356272
-0.7400579536330988, -0.24173481604882874, -0.3627391525237676
-0.5795407709942578, -0.24173479495218136, 0.23855078315940595
-0.4801477697785149, -0.24173479002765175, 0.3789081939197314
0.1013092828997833, -0.24173481462217544, -0.3220766877925947
0.4596534392632617, -0.24173483000179738, -0.7604215289413911
0.38445939216006925, -0.241734829617449, -0.7494669948995774
-0.8274952130111787, -0.2417348186001287, -0.43545552964065437
-0.44712843201523567, -0.24173481309541625, -0.2785617838733869
-0.5806510489370943, -0.2417347925852125, 0.30601336834827203
-0.05389610277181717, -0.24173480918619247, -0.16714213546079204
0.3283284945240763, -0.2417348147615575, -0.3260491893486147
0.22156415199168794, -0.24173481816790462, -0.4231358554229177
-0.34192129301225965, -0.2417348272515389, -0.6820349770336829
0.0622923102816233, -0.24173481315046363, -0.28013045302934086
-0.5691523458998422, -0.24173480932891062, -0.1712101180079291
-0.6311480680527317, -0.24173481771891886, -0.41033946466549054
-0.3412497968023436, -0.2417347975804187, 0.16364173682770866
-0.39131835170764967, -0.24173479279721433, 0.2999710618358938
0.2786039668004837, -0.24173482502107282, -0.6184626187583947
-0.014446381675558895, -0.2417348294774726, -0.7454776461889971
-0.21158538626816753, -0.24173482401602403, -0.5898173031495266
-0.7204662116213939, -0.24173481378058137, -0.2980902860459308
-0.8027560347703997, -0.2417347959343043, 0.2105585128023515
-0.36090202288224826, -0.24173482880015004, -0.7261730031063642
0.257250122531203, -0.24173481275933478, -0.268982520606824
0.45660253309071097, -0.2417348254242923, -0.6299549543496955
-0.33302529958184024, -0.2417348095101062, -0.1763743703757701
-0.8198965117105006, -0.2417347817870671, 0.6137785016051164
-0.05644975854895512, -0.24173481762166493, -0.4075672565054062
-0.2683861372166597, 0.005242536201919959, -0.12441290683685874
-0.8115187961480662, 0.00524274313147811, 0.7663584625482921
0.7037119814776862, 0.005242361787417072, -0.7879080224288875
-0.767526416409303, 0.005242527871027632, -0.2487204583216978
-0.212761417305077, 0.00524250857711508, -0.24619562407663365
-0.08514964188123389, 0.0052424245575828764, -0.6236485412028414
-0.2191341518856477, 0.005242552825420629, -0.037085692608754384
-0.01861009668002013, 0.0052424295718952706, -0.5885334837377729
-0.4870045013363108, 0.005242523011378331, -0.22418405772841193
-0.8228260217368504, 0.005242436211461087, -0.693516495198172
-0.6065969009317106, 0.005242636527598699, 0.2947476934457734
-0.4846478542613994, 0.005242675393309987, 0.5000725669792927
0.3254227844185125, 0.0052423680520101235, -0.8223674138390253
-0.13839480628993645, 0.005242390714997472, -0.7934490753098149
-0.5349460007232634, 0.005242417654235486, -0.7327982884067491
0.08537062309973784, 0.005242431878385259, -0.5599253640108321
0.2693941624289343, 0.005242409248485734, -0.6361840514123607
0.15362398186986076, 0.005242421116618736, -0.5994601347058668
0.24687001047718715, 0.005242486961744685, -0.27084812900363703
-0.014274106693997257, 0.005242521747409948, -0.14993807605355114
-0.811873914670775, 0.005242694532394948, 0.5354390143561638
-0.4838190136057153, 0.0052426496286475735, 0.37782395671196506
0.10997782344213591, 0.005242425755294662, -0.5848344567711379
-0.22378996171325155, 0.005242498533071423, -0.2957798187267036
0.6093136393007875, 0.0052423952226923, -0.6451061215025347
-0.761865121952777, 0.0052425351353992955, -0.21325161720292124
-0.688896487705406, 0.005242636246414684, 0.27944090534727134
-0.11267745406566475, 0.0052424004062661105, -0.7430471045351471
-0.09749031657639529, 0.00524256066093424, 0.02078529806010221
0.21120149466291685, 0.00524240127239411, -0.683951427502679
-0.743445138268549, 0.005242624039615617, 0.21219509634517375
-0.18631555357357985, 0.005242535024705168, -0.11607279407003979
0.18919319148727426, 0.00524242418617779, -0.5788406861070593
-0.7110328759865442, 0.005242440956447608, -0.6519986099364193
-0.04376558600940364, 0.005242403908250527, -0.7147133027747208
-0.7236688727401851, 0.0052426631935684675, 0.40154446042798503
-0.4843653593238838, 0.005242483594647533, -0.4109764756481843
-0.5726241765401282, 0.005242468347278343, -0.4983884387091121
0.17334534821757247, 0.005242480209344287, -0.3154053736226954
-0.7673220142669115, 0.005242648982800757, 0.32662885235992045
-0.6248759093208711, 0.005242660838343456, 0.4071274694574451
-0.244758927354079, 0.005242403299244304, -0.751726656571184
-0.5341214897164039, 0.005242653095327712, 0.38575235959663035
0.33020945527220724, 0.005242402088986227, -0.6598697295039413
-0.5896823959805879, 0.005242616990472579, 0.20481229724088051
-0.25429818609917376, 0.0052424851151723385, -0.36469761384337895
-0.1840534436178733, 0.005242419499209466, -0.6644670207369617
-0.3296390072271024, 0.005242502537779884, -0.2947251551467832
0.0871791880563964, 0.005242498057778216, -0.24524781859957762
-0.7408517406505665, 0.005242719991189834, 0.6684320166885063
-0.7240803734725668, 0.00524250869479382, -0.3324375514610127
-0.8031217025520692, 0.0052424243977603835, -0.7462898765309368
-0.7679528731267993, 0.005242683640908749, 0.49115741215638853
-0.5599881316977593, 0.0052424951959068765, -0.36870490394008565
-0.4935739155934791, 0.0052424140274250275, -0.7430033680443965
-0.4781082084394682, 0.0052425626112989525, -0.03456319466871999
-0.7208548332051643, 0.005242731577531055, 0.7268650130630193
-0.03489231240417079, 0.005242521514796494, -0.15454317821171754
-0.47649186643606767, 0.005242494796568504, -0.35642763968749247
-0.14557948690572237, 0.005242389174386011, -0.8019870716421788
-0.7868978248285593, 0.005242705484426699, 0.5917041247427934
0.1684483662531638, 0.005242427635769468, -0.5659757844066522
0.08867703669507437, 0.005242464631380041, -0.4037782349266782
-0.09428754928394095, 0.0052423976760386124, -0.7528945949473783
0.3960641714351712, 0.005242427716894615, -0.5269506128748593
-0.7831270261625107, 0.005242452451582197, -0.6096321453808982
-0.3836454317911926, 0.005242570583942668, 0.019344976020150728
0.14490555072454384, 0.005242380181125218, -0.7953951469275885
-0.10576242162888333, 0.005242568732102739, 0.05772133025514714
0.05688835293099467, 0.005242429386058246, -0.5765997289314981
-0.5348909619737561, 0.005242595371120148, 0.1114156919673377
-0.2716044936967552, 0.0052425393094854625, -0.1101974508758995
-0.6530990908433598, 0.005242649673593494, 0.34930066574398316
-0.2275163737690276, 0.005242529895140667, -0.1474338574754392
0.4643839460305027, 0.00524240142657797, -0.6402390415036386
-0.19754526807380135, 0.005242586850761714, 0.12820904703429264
-0.7853425027997276, 0.0052425517014555115, -0.13854373596660008
-0.3097242434978298, 0.00524253362689636, -0.14366249591046287
-0.5575156070671005, 0.005242531710781619, -0.1948293586792847
-0.7152580444589153, 0.005242657282431531, 0.37489272850434274
-0.12205945486985226, 0.0052425304095103245, -0.12708820991743908
-0.5917993625210068, 0.005242469496716392, -0.49618344636747
0.578964905188654, 0.00524240754152888, -0.5917401882237714
-0.676536830635234, 0.005242597213406198, 0.09612141892416709
-0.7792512333730509, 0.005242655190405659, 0.3540916114981494
-0.37771895133304, 0.005242542878851507, -0.11125584093096363
-0.5872754087561196, 0.005242517381947834, -0.26794729561116815
-0.29864026691726053, 0.0052425428342795025, -0.09804326133160579
-0.6574434016641801, 0.00524255805840438, -0.08663445218551391
-0.2428757445279649, 0.005242594232392282, 0.15557859456980272
-0.5390331410807112, 0.005242687630569357, 0.5489705675248144
-0.11623552373422524, 0.005242445168801906, -0.5310166219980086
-0.5893730195109436, 0.005242400605318242, -0.8230248575918513
-0.3020672147724701, 0.005242573945643402, 0.049162616500977474
-0.8200377958101932, 0.005242649372877349, 0.31953285255816205
-0.6319275515402575, 0.005242480168575691, -0.4523012626296615
-0.12100834749109603, 0.005242426901281283, -0.6186026555893422
-0.7289170502066222, 0.005242497008859946, -0.38877005682842514
-0.26467558710799477, 0.005242530421868102, -0.1512398621446122
0.1667866557371658, 0.005242411519081589, -0.6428166250731486
-0.3420738732017637, 0.005242440079942012, -0.5935281876682492
-0.7593397766800486, 0.0052427330606666205, 0.7273771585957548
-0.815110129247002, 0.005242544070694128, -0.17984529413223066
-0.015387759613245039, 0.005242455113659709, -0.4666559774512631
-0.027752768751278523, 0.005242530194611185, -0.11209964304224918
-0.3671558243670726, 0.005242610784201542, 0.21310664535817653
0.18069694419872434, 0.005242442997504344, -0.4909239657293928
-0.3653671483975869, 0.005242417235866219, -0.70599814249034
-0.8272297860956719, 0.005242592151063437, 0.046492415051932634
-0.5950904579669485, 0.005242442660987152, -0.6242193177456019
-0.25631634220708455, 0.005242617289303746, 0.26282367685779706
0.11735893242353389, 0.005242406044318776, -0.67721406636244
0.14656341183062552, 0.005242380457396927, -0.7938013428099723
-0.5062277898228358, 0.00524267964727664, 0.5166167061679311
0.23076043533423293, 0.00524243863935315, -0.5031276739327935
-0.14107455444008146, 0.005242516347781657, -0.19711331462743642
-0.261176039084582, 0.005242521784694131, -0.19167476172170295
-0.37343927739713967, 0.005242605256892451, 0.18578371770423402
-0.017786612370377666, 0.005242408262294838, -0.6896202196361227
0.35182631005172604, 0.005242457660540907, -0.39221973353458073
-0.5294607049376846, 0.005242554045035007, -0.08397287362860806
0.0051268836377004745, 0.0052425156675109255, -0.17552579721550293
-0.6338718280080112, 0.005242689936310064, 0.54382376783468
-0.5247315660168549, 0.00524246304826203, -0.515430044206046
-0.20067360371474272, 0.005242481608480886, -0.37225212455408996
-0.2276218135356718, 0.005242569697645224, 0.04162121155967985
-0.40029127842180917, 0.005242655845518683, 0.4215353987188955
0.10462614646267462, 0.005242407440978222, -0.6727410489943686
0.26371010540355055, 0.005242483681880029, -0.28356964278559055
-0.821919182380783, 0.0052425659343986715, -0.07714251304218861
-0.5449813839834402, 0.005242664321895246, 0.4372381147357246
-0.24718259571929768, 0.005242548391270885, -0.06291060977965957
-0.20729023410835085, 0.005242450236479904, -0.5224010876400369
0.1074864965416395, 0.00524252120256978, -0.13185627457993593
-0.4468849472341814, 0.005242482959757898, -0.40762974518319434
-0.7988292840361257, 0.005242490197719872, -0.4329930894351237
-0.0011562946458382427, 0.005242383368293223, -0.8050505078580972
-0.5944025352399227, 0.00524241153623805, -0.7719537528498079
-0.5032301099320782, 0.005242419215208479, -0.7199991783287926
-0.352595068034313, 0.005242526930953859, -0.18274778860386337
0.25356510351278083, 0.005242386623562188, -0.746345855090385
-0.10714330100150082, 0.005242474505474756, -0.39011577990737284
-0.6969423411277937, 0.005242659109719848, 0.38668210960866056
-0.3784455344707337, 0.005242536268746159, -0.14277902398802172
-0.24287125780551821, 0.005242570004766972, 0.04049139669014662
-0.33227891203340953, 0.005242467740058123, -0.4604721603589401
0.04643553611784751, 0.005242491070068617, -0.285357979725567
-0.2536059376152797, 0.005242558413379339, -0.016393226144418405
0.7741549821247747, 0.005242362387636323, -0.773098489020386
-0.6131242258583762, 0.00524264627758422, 0.3399547654077162
0.20982237786811891, 0.00524239956462888, -0.692297904716774
0.5832950918082863, 0.005242364425460246, -0.7958184200485893
-0.18930561497954157, 0.005242405763172523, -0.7306086198636128
-0.8275551637171882, 0.005242581413205517, -0.004570632724863466
-0.5817209178616353, 0.005242424124635414, -0.7100025465219358
0.1126338123424343, 0.005242525636428129, -0.10992041149768489
-0.6626605154395764, 0.005242615874260198, 0.18712129399826533
-0.29707628746796894, 0.005242610469377066, 0.223507765329033
0.38673626513435905, 0.005242423693261953, -0.5476474821993151
0.4547359632734421, 0.0052424215006521835, -0.546519435808235
-0.6944177258007863, 0.005242475658171672, -0.4843351984555033
-0.5774241877377596, 0.00524257950206315, 0.0288128641462001
0.0774554376740278, 0.005242522600912384, -0.13031179720576508
-0.16709685875247843, 0.005242588453761491, 0.14099262978745308
-0.7956135163314989, 0.005242487458454693, -0.445459455879183
-0.3553642805031104, 0.005242629177762582, 0.30248289607450995
-0.3761692846787418, 0.0052425600682021595, -0.029338574153391472
-0.1511518296280953, 0.005242458538005193, -0.473436540550208
-0.5078692007594905, 0.005242468469047831, -0.486817267502623
0.48696847945692523, 0.0052424176434772134, -0.5593703339526543
-0.3092169278675746, 0.005242610505842972, 0.2216200069877064
0.2351403851996432, 0.005242452579523703, -0.43616445072132165
-0.6914850427724349, 0.005242543896348635, -0.15968702730832807
-0.7388970241931052, 0.005242685766842389, 0.5061886767273921
-0.2978338422021679, 0.0052426099887574965, 0.2210960870403197
-0.40428585272817497, 0.005242652616421352, 0.4055181736954703
0.10895019073873248, 0.005242415679049291, -0.632873874942198
0.2414777732778491, 0.005242462831963312, -0.38638668277990296
0.05527531343363032, 0.005242447193818386, -0.4922817425235162
-0.3163157642645085, 0.005242635346081475, 0.3384129590807531
-0.5204773346714775, 0.00524265122944307, 0.37920510501959404
-0.010413205446126172, 0.0052425124283651875, -0.19355070863680374
-0.31928851336649594, 0.005242396844854112, -0.795038864553819
-0.6391326071710409, 0.005242668867349761, 0.4428472817310154
-0.680464661809967, 0.0052424099085231525, -0.7942956617483591
-0.4919516278624618, 0.005242423679508132, -0.6968778906587382
-0.2567726619101486, 0.0052424803879633376, -0.38757323578987385
0.008921081696291022, 0.00524245900864184, -0.44402708716254347
-0.7890201801149486, 0.005242626740511825, 0.21728833650004464
0.5923119138591599, 0.005242402809661282, -0.6119521022974928
-0.2828636005782099, 0.00524257980562399, 0.08025913841814047
-0.6655580565722642, 0.005242406958488444, -0.8057786185806034
-0.5202672403449076, 0.005242564696888664, -0.031812933502561536
-0.7206063826940419, 0.005242498202764518, -0.3816878683882101
0.09177531466673006, 0.005242500010068627, -0.23519366277001846
-0.45590170528043683, 0.005242531994998313, -0.17622938800264837
0.34149463227631993, 0.0052424088396529275, -0.6258864258403108
-0.7413642917193217, 0.005242497932829535, -0.38649397406630914
-0.5594144397466325, 0.005242663891531335, 0.4327436270417911
-0.5642035355544239, 0.005242500867005661, -0.34248120944678906
-0.622089090890928, 0.005242573527067891, -0.007152289386247845
-0.6838249287234528, 0.005242502316843604, -0.35590086984139135
-0.5081736624540075, 0.005242624900926766, 0.25622598649799333
0.31729288536735545, 0.0052424545853814826, -0.41268995175873346
-0.22762088225273586, 0.005242433786667063, -0.6039935825165206
-0.514380673125043, 0.005242646201355272, 0.35635525177835226
0.3505187678693388, 0.005242382181182075, -0.7509896507246521
0.357587579128126, 0.005242406391632515, -0.634783283098864
-0.4758124900895999, 0.005242546021558672, -0.11297935713196466
-0.663463553899796, 0.005242677815936, 0.4812251612529543
-0.7852976832165681, 0.005242466142544318, -0.5449647552507586
-0.32259966262999384, 0.005242558265982239, -0.02880570096512769
-0.6623656592357448, 0.005242642485631076, 0.31358276252075856
-0.526902613359068, 0.00524242746052187, -0.6848502638536991
-0.27370822585740234, 0.005242399571552093, -0.7743486320302627
-0.7821103822333222, 0.0052425878062572605, 0.03351279666942608
0.5938562928785321, 0.005242381492979427, -0.7129500986402713
-0.4129713613894153, 0.005242569535773055, 0.009387541784930953
-0.5077364669274431, 0.005242628469374201, 0.27325132225890575
-0.681373802735317, 0.005242579437008389, 0.010857465557021773
0.004263869621099481, 0.005242500088096908, -0.24967885176791715
0.3022462906680482, 0.005242444558486164, -0.4628747867600782
-0.745502862630959, 0.005242604025780113, 0.11677449353414909
0.15216460712362576, 0.005242462207926598, -0.4045127339561345
-0.19763510159597436, 0.00524239746803155, -0.7714268512481331
0.3241756603411933, 0.005242405303980604, -0.6456219021906249
-0.5392264554803451, 0.005242502240390437, -0.331717168554939
0.08154018936809612, 0.005242441429649305, -0.5152044530914184
0.7138188951312505, 0.005242368640619499, -0.7536376662083202
0.2647635783339468, 0.005242481948324692, -0.29162567646865273
0.7000669458844274, 0.005242356041729133, -0.8158204155588415
0.7618089355133991, 0.005242358684008099, -0.7927876043758377
-0.6753181452550172, 0.0052424878804523505, -0.4230336419683711
-0.304445374943208, 0.005242584927725796, 0.10092684891372788
-0.17302609475340658, 0.005242398734029101, -0.7612354132463595
0.5602582281492956, 0.005242361543937472, -0.8134171669762553
0.6179432406978008, 0.005242378417297279, -0.7234714710727016
-0.41507668002546133, 0.005242631367446323, 0.30274779277957353
-0.045498839122986134, 0.005242552564937919, -0.008846921442570987
-0.3612459368259787, 0.005242547387542863, -0.08704186230459976
0.4636679533315523, 0.005242403291136383, -0.631503416496581
-0.23637025657426058, 0.005242602781971848, 0.19729584007608303
-0.3042881456095625, 0.005242472569582556, -0.4327788946857232
-0.5032124488480464, 0.00524260386075544, 0.15712153009731578
-0.1239736290956644, 0.005242404046678969, -0.7276717568574104
-0.6271857590279024, 0.005242418600289342, -0.7439627876387304
-0.17101798769975013, 0.005242563731632021, 0.022889991471778004
0.13693672083800656, 0.005242519547585896, -0.13471847125150527
-0.8069541201547836, 0.005242716381498807, 0.6400635141991284
-0.20315719802108195, 0.005242477477255581, -0.3922982061138981
-0.18058168600175936, 0.005242484092006786, -0.35704390421301907
-0.29187881857787357, 0.005242550553686843, -0.060226113268245896
-0.13247317387326107, 0.0052425812538849665, 0.11266889155397758
-0.7159012212602167, 0.0052426243310296165, 0.21825521845506168
0.17910087474573283, 0.005242430971841808, -0.5483201548788861
0.5189604507761535, 0.005242377261854568, -0.745763353070662
-0.25403850485273816, 0.0052424399613455325, -0.5791467682620121
-0.304586473431975, 0.005242445671431509, -0.5606032381358095
-0.4788032496613446, 0.005242612138021992, 0.20058452703420593
0.178125840459761, 0.005242499957124009, -0.22078639574853598
-0.050870684371210145, 0.0052424804908671255, -0.3521307247521581
0.10255653613975257, 0.005242488126386074, -0.28981425244102166
-0.13873319937634154, 0.005242488741939078, -0.32785128008715825
0.5851129295534873, 0.005242396959364745, -0.6409647297273682
-0.3360814499804739, 0.005242551842984162, -0.06160538163507473
0.4431365246246764, 0.005242425297967484, -0.5304502395770986
0.2716818525122038, 0.005242408080435462, -0.6413442594089371
-0.6722359548258976, 0.0052424381614083046, -0.6586897021639966
-0.780519195217517, 0.00524271221541793, 0.6247610344599238
-0.36342247150514606, 0.005242496992463187, -0.32680199508860475
-0.19904972763839124, 0.005242544600926791, -0.07274481671855776
-0.7478428514510799, 0.005242409529288313, -0.8075351788443742
0.4553404411061054, 0.005242382008914756, -0.7340135583927038
0.13041963153266795, 0.0052424171195226636, -0.6223865974674596
0.5324330510960373, 0.005242420282954275, -0.5391140688660683
0.7593126644305356, 0.005242356909177853, -0.801642305927752
-0.24377540263205366, 0.0052424285008723205, -0.6318449511864872
-0.8127774507684598, 0.005242493730790059, -0.41857784845634943
0.23217759463134774, 0.005242386717444698, -0.749530606645195
-0.10606466191862088, 0.005242510245162939, -0.22015921088514567
-0.652253504021696, 0.005242471632594113, -0.49630006051035497
-0.23953442950089276, 0.005242435081560078, -0.5998649109525389
-0.20516981598737422, 0.005242455013615524, -0.49934840480058296
0.06955858504749513, 0.005242469398984247, -0.3843763157283111
-0.6031972280014999, 0.005242594237157043, 0.09443345645938539
-0.7335760363520742, 0.005242497828374589, -0.38566803859331433
-0.38047274249994734, 0.005242399760756375, -0.7915740840017306
0.5763862598343084, 0.005242405984497667, -0.5995742675518322
-0.47294679557507535, 0.005242612801669265, 0.20473122127842724
-0.4857489208992794, 0.005242637439956079, 0.31959666272049386
0.18509198266130597, 0.005242460726667277, -0.4059594133257254
-0.7927306751019505, 0.005242717516424588, 0.6478692834747791
-0.5569121334732526, 0.0052426195850871354, 0.22270048123514707
-0.7890332708567211, 0.005242714027182513, 0.6319220802437779
0.1692882272722288, 0.005242474616057184, -0.3426637755371599
-0.7959516176456451, 0.005242408989598262, -0.8182657470496387
-0.40206230126245646, 0.005242555253126548, -0.05660709223755944
-0.2673781024431362, 0.005242475358957532, -0.41326277999763644
-0.5270245959494568, 0.005242508303695541, -0.3008434086701053
-0.3173249967977941, 0.005242479088240101, -0.4040265793542175
-0.2942154291274964, 0.005242613740944772, 0.2395342780870917
-0.24758418519447856, 0.005242440582984372, -0.57509813276859
-0.5504143437866436, 0.005242457519992545, -0.5460507416708611
-0.5620325517165158, 0.005242474929381174, -0.4653235969515614
-0.5487943908126642, 0.005242635023611438, 0.2974158250654507
-0.3504236902694163, 0.005242415691596734, -0.7107970673666542
-0.5418029876152659, 0.0052425481195446655, -0.11421581313157464
-0.5649549692952156, 0.005242535324928984, -0.17892405116718163
-0.3859783158244758, 0.005242618621369589, 0.24714008851807479
-0.27927037478825323, 0.0052425071838860015, -0.26410433598598404
-0.4705146627673883, 0.005242669835454029, 0.47607043995123555
-0.5996121335209086, 0.005242535809917021, -0.18250358452602233
-0.7026618446497188, 0.005242537133441617, -0.19371007823766268
0.10288880652808213, 0.005242473895030358, -0.3573607449303935
-0.30774288306132425, 0.00524242939843616, -0.6384403212121902
-0.8162895818800977, 0.005242627739668116, 0.21740538367342077
-0.4719369059747497, 0.005242573712884272, 0.019220057094397835
-0.5496143437268495, 0.005242582852732805, 0.049450445072507565
0.16925207070292136, 0.005242509875839077, -0.17517614134838594
-0.5200603012343368, 0.005242430093824519, -0.6711798005267541
-0.6362665894181573, 0.005242620516717469, 0.21365486077407403
0.03057799874410866, 0.005242507562684216, -0.20970542574161682
-0.6875642659952601, 0.005242716747007031, 0.6620672680500114
-0.7303939459942733, 0.005242705245341048, 0.6001604366706341
-0.6756531707990557, 0.005242418473825795, -0.7527912982792812
-0.4781154910612294, 0.005242454922670911, -0.5461153695442249
-0.6921341067029465, 0.005242402782242848, -0.830128467403407
-0.6650271441803993, 0.005242440241090112, -0.6475868754517703
-0.7131972891362648, 0.005242717047553101, 0.6591435121435794
-0.5556664019443065, 0.0052425522012373325, -0.09718007528122069
-0.6757795807456056, 0.005242615332441994, 0.1823204289593925
0.061013504378837624, 0.005242538136805874, -0.05930314576928741
0.06602946281618488, 0.005242507717016089, -0.2029541055242981
-0.441850918629217, 0.0052424140499382575, -0.7341159858194595
-0.812929688787098, 0.005242417997900504, -0.7783559839647978
-0.5817447457009022, 0.005242451121494459, -0.5817640014167279
-0.8081504132654208, 0.005242668926257725, 0.41443483720722935
-0.3818114276167406, 0.005242619234204125, 0.2507585893203981
-0.6999634182484784, 0.0052425333739957595, -0.2111104099684889
-0.05379583611822478, 0.005242508177857687, -0.22110638847696196
0.000856562916725763, 0.005242393736860733, -0.7554552275417499
-0.35737640588574754, 0.005242398581290393, -0.7932560672274386
-0.757469665860488, 0.00524268467081365, 0.49782936446131487
-0.8284580479316481, 0.005242649879971572, 0.32051227859544473
-0.5131343949036362, 0.005242644438175705, 0.348191225178302
-0.5651221576895314, 0.005242688911658154, 0.5506272533794487
-0.2908994902103236, 0.0052424963167296956, -0.3177004969431734
-0.7994327750843064, 0.005242568623063588, -0.06055333943670216
-0.6156079247480712, 0.00524245014821801, -0.5921359106867807
0.688615806042271, 0.005242384236533839, -0.6838311830491841
-0.008555720850247056, 0.005242451308638301, -0.4835710883103109
-0.706392453699309, 0.005242725103791123, 0.6985680649759992
0.07893334506048176, 0.005242412469705389, -0.6532147773573415
-0.783768469771484, 0.00524249248897126, -0.4195523010124531
-0.13647095112056065, 0.005242485367145733, -0.343498450499198
-0.507921911244718, 0.005242602576935533, 0.15022355535267573
0.32299557343365337, 0.005242401199156084, -0.6653212907226687
-0.7361336743180016, 0.00524251802295429, -0.29017234931534863
0.29943559489113486, 0.005242480183056371, -0.29412530927473024
-0.8203635511397258, 0.005242668134107044, 0.4085986125013028
-0.5538520915619873, 0.005242686720477939, 0.5421317316701748
-0.5597548014107266, 0.005242565014701613, -0.03700659779274956
-0.7911739813797456, 0.0052424342846227375, -0.6972962983663024
-0.70863403693007, 0.005242446450105353, -0.6254949832604759
-0.7423481616097809, 0.005242625172942923, 0.21776493783171208
-0.3831668973894291, 0.005242509379807378, -0.27131045609519316
-0.763259840221312, 0.005242733563834981, 0.7291018826648075
0.18266235673636022, 0.005242507432019626, -0.18450844836979796
-0.4878936776419097, 0.005242435089088857, -0.6419903353586726
0.1390157256698484, 0.005242401637813897, -0.694469757280759
-0.6758103348710798, 0.005242707033516668, 0.6179208210578226
-0.5477232329070991, 0.005242406693571915, -0.7870335379064506
-0.30097005180747516, 0.0052423898310272115, -0.8252467717924545
0.03932729835513943, 0.005242545871637735, -0.026241968936755733
-0.5166404229019368, 0.0052424290405091905, -0.6756027866094131
-0.5527189349824053, 0.005242503624548823, -0.3274324994222568
-0.7959831119088631, 0.00524270432469971, 0.5846527907715053
-0.46378211317556817, 0.005242477663237533, -0.43565813421927974
-0.31507351025481467, 0.005242452490633641, -0.5299903987655512
-0.6539349078900413, 0.005242452753136458, -0.5862681692476454
-0.41548377937580167, 0.005242426404534796, -0.6709521595540248
-0.7835722439594823, 0.005242592662156343, 0.05633150404494519
0.6586428355263618, 0.005242355592866268, -0.8249847496764112
-0.6147986528607888, 0.005242484617205575, -0.428261250536068
-0.3568066880979543, 0.005242546427283317, -0.09084976036391201
0.04872564048268497, 0.0052423940870198445, -0.7456656732885383
-0.5138156553135202, 0.005242486701329187, -0.40121832292282855
-0.07641838756777955, 0.005242509421763936, -0.21903786681313353
0.5406386474759712, 0.00524241679805809, -0.5542753222664125
0.01266396827772015, 0.005242450410931211, -0.48423321600968305
-0.3338138819832354, 0.005242472565563995, -0.4378102399580841
-0.3243848414056667, 0.00524251818238879, -0.21951696971947804
0.735706429502038, 0.005242367396548456, -0.7558317463680777
-0.7862848846274104, 0.005242747982929649, 0.7936878874668041
-0.5805583250359704, 0.005242598668568885, 0.11932705023297291
0.13336955223837116, 0.00524242513371086, -0.5838161990119985
0.2988508544785911, 0.0052423940942783135, -0.7031702169539356
-0.5974478305394024, 0.005242424351659566, -0.711593901757136
-0.10722134976534126, 0.005242486679918646, -0.3322970343771698
0.23918073711936833, 0.0052423781525944855, -0.7890271819747512
-0.020198503677133564, 0.005242407287350949, -0.6946609142803232
0.5268257394643319, 0.005242424076893569, -0.5220436928297318
0.08887812495709313, 0.005242457416434561, -0.43801709639316355
-0.6331469505281997, 0.005242567250028421, -0.03884714281301699
-0.7662216476385415, 0.005242500665001082, -0.3777351561577049
-0.4878841993706915, 0.0052425577540898645, -0.059295850234873715
-0.6920004940023152, 0.00524252286706797, -0.25966946253198814
0.08631038742960317, 0.005242504474870337, -0.2149123326229706
-0.596629320177012, 0.005242515724185027, -0.2774100396195063
-0.54134269532808, 0.005242548257978239, -0.1134800764425144
-0.32937022178128195, 0.005242448298386352, -0.552331733295579
0.07637675754628792, 0.005242535975598362, -0.06696143394838405
-0.07410318100784044, 0.005242458515891591, -0.460461893893072
0.1528701191596168, 0.005242495827499687, -0.24469064300539278
0.08035427870204209, 0.005242522900877975, -0.12839477319799164
-0.12004113397720871, 0.005242424100043495, -0.631745121210123
-0.6899283924205231, 0.00524250266398962, -0.3552879468720862
-0.24858366709294014, 0.005242421081890754, -0.6679034229365192
-0.7664730150607425, 0.005242588662464685, 0.040234602066213265
-0.8158612515976463, 0.005242633576932821, 0.245206727621954
-0.7715304705678521, 0.005242579748598691, -0.0029672889382089673
-0.6207371528861659, 0.0052426808800983184, 0.5030339706658693
