-0.36485773956073264, 0.013825859394888104, -0.16449454725858664
-0.2538355833271285, 0.013825900552331325, -0.1663574632008627
-0.32582619339202823, 0.013825873864423958, -0.1669878851313584
-0.32288708132226973, 0.013825874953985955, -0.1635061971216508
-0.4254730646696551, 0.013825836923944167, -0.15981138759060576
-0.40225758685208723, 0.01382584553025412, -0.16616449996913674
-0.7507266883679241, 0.013825896690342121, -0.16885165354503098
-0.6603108744405792, 0.01382584920351835, -0.16814596927847297
-0.6815659016993633, 0.013825835199416691, -0.1722359037119327
-0.47001465651695706, 0.013825830072164536, -0.16105344408892217
-0.5292552195243493, 0.013825830072164536, -0.16552197835515076
-0.4590243514344978, 0.013825830072164536, -0.16575845205532957
-0.44704100618191184, 0.013825830072164536, -0.15325249723868797
-0.46354991585871225, 0.013825830072164536, -0.16729886387645035
-0.6082336374782948, 0.013825830072164536, -0.1766493972162656
-0.5690649128715232, 0.013825830072164536, -0.17950997651599032
-0.594490266850841, 0.013825830072164536, -0.17453332254145087
-0.5168976980148076, 0.013825830072164536, -0.1723782975270405
-0.5116922868175207, 0.013825830072164536, -0.1718384274140814
-0.45561398364029354, 0.013825830072164536, -0.17276062980007614
-0.5058422357953848, 0.013825830072164537, -0.17652535426148977
-0.5360225549355558, 0.013825830072164536, -0.18818585370187269
-0.4653244064694174, 0.013825830072164537, -0.18342709810731608
-0.587369542013522, 0.013825830072164536, -0.19587307990157915
-0.6110598532574139, 0.013825830072164536, -0.18612764399856296
-0.47346530176023577, 0.013825830072164537, -0.18495186307405967
-0.49783767701971793, 0.013825830072164536, -0.18294153902923763
-0.6067070300434045, 0.013825830072164536, -0.1995344847218432
-0.4011636130348444, 0.013825845935774742, -0.1958169793810943
-0.4323387706644628, 0.013825834378694403, -0.19902667431694554
-0.41500733952436264, 0.013825840803726851, -0.19097393528141737
-0.39249295089071545, 0.013825849150114238, -0.1949108808747442
-0.30513646415971774, 0.013825881534367514, -0.2024625894506794
-0.40635228726699874, 0.01382584401224646, -0.19990395241328693
-0.35454761150284636, 0.01382586321699707, -0.19144471926432027
-0.360615505139523, 0.01382586096752462, -0.19706710105811326
-0.7739064754899443, 0.013825830072164536, -0.2030873914589213
-0.6773479383357145, 0.013825830072164536, -0.182636786128086
-0.7087997847737696, 0.013825830072164536, -0.1930223008547771
-0.7207543013237543, 0.013825830072164536, -0.1933747426964832
-0.7317582297454759, 0.013825830072164536, -0.19747828890667699
-0.7764940687104509, 0.013825830072164536, -0.19656825254811577
0.15948102835598732, 0.013825830072164536, -0.11592703027229818
0.09290811454531474, 0.013825830072164537, -0.11756382354158955
0.06378944476248442, 0.013825830072164536, -0.12066582639143739
0.09757945951627621, 0.013825830072164536, -0.13786875483904718
0.09009907539095383, 0.013825830072164536, -0.13536463613191735
0.18735592534135523, 0.013825830072164536, -0.13729713930704607
0.04832166728746357, 0.013825830072164536, -0.13298611819314432
0.032128596383593055, 0.013825830072164536, -0.12572793047973418
-0.09963919258158081, 0.013825830072164536, -0.1140395947134212
-0.0913508105113229, 0.013825830072164536, -0.1145346867194527
-0.0944055961708887, 0.013825830072164536, -0.11482719222838067
-0.08523760706397278, 0.013825830072164536, -0.11223082355250648
0.3188282379197355, 0.013825830072164536, -0.1357395117641106
0.2672882323289588, 0.013825830072164536, -0.13655961259145544
0.29584733937306423, 0.013825830072164536, -0.12993945064128487
0.2077129759642086, 0.013825830072164536, -0.13778198658122306
0.41227072458311514, 0.013825830072164536, -0.13809048298167123
0.20810679926613362, 0.013825830072164536, -0.12605672606780674
0.24886719100349664, 0.013825830072164536, -0.14963526015561154
0.3240987328500534, 0.013825830072164536, -0.14746227671580953
0.333533346998814, 0.013825830072164536, -0.15133243398511922
0.3872310077722704, 0.013825830072164537, -0.1510029033324646
0.2910928309197168, 0.013825830072164534, -0.14845830179876907
0.07662373516832227, 0.013825830072164536, -0.1244335070316051
0.199467678478715, 0.013825830072164536, -0.13043544239920377
0.20413162179020422, 0.013825830072164536, -0.1338627432387307
0.16476330237412373, 0.013825830072164536, -0.1286808398853666
0.183208820554799, 0.013825830072164536, -0.13355614953105432
0.11892540168418825, 0.013825830072164536, -0.14959405967420825
0.0013373004724150815, 0.013825830072164536, -0.14627584242649877
0.0764111650599417, 0.013825830072164536, -0.15032840157810162
0.02627513439371763, 0.013825830072164536, -0.15009029402447452
-0.07555245554677784, 0.013825830072164534, -0.13185979857665725
-0.011961166824592095, 0.013825830072164534, -0.1347632007436348
-0.13697938381435376, 0.013825830072164534, -0.12553291502268663
-0.052017871593896245, 0.013825830072164536, -0.12759061390264737
-0.03307926190127957, 0.013825830072164536, -0.13504524737719906
-0.025460340216149305, 0.013825830072164536, -0.12400702959663953
0.42974944206013277, 0.013825830072164536, -0.11647871599379768
0.43004997435138587, 0.013825830072164536, -0.11267806818273668
0.3697948128464741, 0.013825830072164534, -0.11611967278985495
0.41018849301194454, 0.013825830072164536, -0.11514596626447841
0.5814691723874651, 0.013825830072164536, -0.12442662372960825
0.4578499080653384, 0.013825830072164536, -0.13475388253748485
0.47217471938562067, 0.013825830072164536, -0.13193129444999216
0.5759069138980416, 0.013825830072164536, -0.12315408587408709
0.7128880336536827, 0.013825830072164536, -0.13409461379197266
0.7104852970404203, 0.013825830072164534, -0.1378877339287905
0.736011215180149, 0.013825830072164536, -0.13682071098747223
0.6891876850345595, 0.013825830072164534, -0.12923161068303882
0.6339075335758808, 0.013825830072164536, -0.12177584353930684
0.7633869660576613, 0.013825830072164536, -0.11561071028651382
0.7351835104489256, 0.013825830072164536, -0.11499155668321077
0.6184454581614306, 0.013825830072164536, -0.11249748590703781
0.5989941843558894, 0.013825830072164537, -0.11220841884436511
0.532205853924532, 0.013825830072164536, -0.11191170104335327
0.7603650305664356, 0.013825830072164536, -0.12541730678169022
0.7638299566472482, 0.013825830072164536, -0.13067252224375706
0.6892057795759808, 0.013825830072164537, -0.12340791374566483
0.7688443033946721, 0.013825830072164536, -0.13606523753375468
0.8010691755186363, 0.013825830072164536, -0.14630902505377794
0.7830710323821131, 0.013825830072164536, -0.1497378751075585
0.830956207317616, 0.013825830072164536, -0.1360180198655028
0.8666509459531544, 0.013825830072164536, -0.13373892525164027
0.885862527106313, 0.013825830072164537, -0.13596386727681334
0.42390241289857167, 0.013825830072164536, -0.12850614807130073
0.38369922535577006, 0.013825830072164536, -0.12827514757969466
0.3512772014530177, 0.013825830072164536, -0.12328360005253151
0.42116602488196575, 0.013825830072164536, -0.12557644734256407
0.37673125053886564, 0.013825830072164536, -0.12811756416380315
0.36799856020764316, 0.013825830072164534, -0.1329765285377148
0.5656214111718743, 0.013825830072164536, -0.13290039888593078
0.5485347368659513, 0.013825830072164536, -0.1319013074611725
0.4508025751194655, 0.013825830072164536, -0.13835903275662043
0.5327390587871719, 0.013825830072164536, -0.13701062189821966
0.5406352351610428, 0.013825830072164536, -0.13683320359636036
0.49324715228585136, 0.013825830072164536, -0.13993777298830196
0.48557088910302565, 0.013825830072164536, -0.13946712738299416
0.47401537651937947, 0.013825830072164536, -0.1427158632127487
0.6743714132999874, 0.013825830072164536, -0.14717804660817727
0.655965734604707, 0.013825830072164536, -0.14603913201869267
0.6802600015202018, 0.013825830072164536, -0.15033523058208614
0.6724578424665497, 0.013825830072164536, -0.15040668864133672
0.8136055687874604, 0.013825830072164536, -0.1642257182665146
0.82179725858075, 0.013825830072164536, -0.15954064579970398
0.7797210878853931, 0.013825830072164536, -0.15835607887806005
0.7174629013142071, 0.013825830072164536, -0.14162911604336237
0.7122880510138084, 0.013825830072164536, -0.1430846762072749
0.7451999726556979, 0.013825830072164537, -0.14569183107155528
0.7457904513982063, 0.013825830072164536, -0.17942454330216515
0.7030481723013242, 0.013825830072164537, -0.1810976590017288
0.7217271653379573, 0.013825830072164536, -0.17681551467658715
0.7370985125176914, 0.013825830072164536, -0.15962966414416563
0.7510352122567341, 0.013825830072164536, -0.1608722694497683
0.7006430601903686, 0.013825830072164537, -0.15552261810122447
0.767203495648112, 0.013825830072164536, -0.1548752250777099
0.4791774566923822, 0.013825830072164536, -0.15930853702250286
0.5780367933207385, 0.013825830072164536, -0.15219295957653522
0.5063174464734316, 0.013825830072164536, -0.15637262447770328
0.4673903758004071, 0.013825830072164536, -0.153416132016131
0.6590535881989784, 0.013825830072164536, -0.15831476789125842
0.7507413832995482, 0.013825830072164536, -0.16598593911848075
0.7095162241438364, 0.013825830072164536, -0.1658541076714256
0.6895409360397957, 0.013825830072164536, -0.165128777179472
0.6842876321226992, 0.013825830072164534, -0.17211496292439943
0.6710857567869524, 0.013825830072164536, -0.17054914263280443
0.7238753381606446, 0.013825830072164536, -0.16913843984069368
0.8088692427666095, 0.013825830072164537, -0.18088912258795806
0.8645822002263545, 0.013825830072164536, -0.17512534866164076
0.8805395031092834, 0.013825830072164536, -0.17467903953694813
0.6993271657788017, 0.013825830072164537, -0.19303399763902143
0.668043222096067, 0.013825830072164536, -0.19153426251143793
0.6697607495619107, 0.013825830072164537, -0.19645133417852706
0.6715004159008443, 0.013825830072164536, -0.18727414221961353
0.7142414165275461, 0.013825830072164536, -0.18655108792149522
0.8515016439979906, 0.013825830072164536, -0.19833933419559735
0.8086901087750757, 0.013825830072164536, -0.20245756157203687
0.7904407818855211, 0.013825830072164536, -0.1853574543252924
0.8400702790918945, 0.013825830072164536, -0.19616029994127201
0.791204136404865, 0.013825830072164534, -0.20219397290132787
0.515560701416346, 0.013825830072164537, -0.17055074008821036
0.5249320013639815, 0.013825830072164536, -0.17394393642414968
0.590317843659128, 0.013825830072164536, -0.17170096196477186
0.6021723864533856, 0.013825830072164536, -0.17009416713064707
-0.07133005247508457, 0.01382586070388758, -0.16018233065834558
-0.11737857844118471, 0.013825880587230171, -0.156001841784758
-0.12563432812905637, 0.013825884151989215, -0.15740883677643522
-0.039389401637866375, 0.013825846912199577, -0.16463947049812017
-0.08138543665970059, 0.013825865045712739, -0.15916993453032977
0.09246312756022053, 0.013825830072164536, -0.18137118815795522
0.16772117631201866, 0.013825830072164536, -0.18053689232995587
0.052667225071897326, 0.013825830072164536, -0.17906055903655194
0.018065219239919578, 0.013825830072164536, -0.17761216533230975
-0.04545990425318245, 0.013825830072164536, -0.1407614343563981
-0.07413691103046496, 0.013825830072164536, -0.14571618469891082
-0.004970318098985063, 0.013825830072164536, -0.14398340130637727
-0.02796513289143744, 0.013825830072164536, -0.14020587272338975
0.022451455012334587, 0.013825830072164536, -0.15780336675285755
0.02482613415655817, 0.013825830072164536, -0.15674544563361714
0.10311478853182525, 0.013825830072164537, -0.1675037780090819
0.17104566374621538, 0.013825830072164536, -0.16768483820437083
0.01404813712430347, 0.013825830072164536, -0.16207229025789507
0.38133816806434095, 0.013825830072164536, -0.14593790315684352
0.39756930751282077, 0.013825830072164534, -0.14905320294301405
0.40900301836960556, 0.013825830072164534, -0.1490515545610287
0.35178410617959593, 0.013825830072164536, -0.1395661851413963
0.4065202731532259, 0.013825830072164536, -0.14357884761473705
0.46767423045158807, 0.013825830072164536, -0.15159075546200299
0.5745387604216694, 0.013825830072164536, -0.14472730283131457
0.4864214793376559, 0.013825830072164536, -0.15061299196112546
0.5813069598597495, 0.013825830072164536, -0.14569941017009325
0.19700096379783816, 0.013825830072164536, -0.15379515384831532
0.09861862804689615, 0.013825830072164537, -0.15788277103098788
0.16779003086409638, 0.013825830072164536, -0.16291547590896582
0.15998251289422583, 0.013825830072164536, -0.15600375879141154
0.1222634228778488, 0.013825830072164536, -0.15744188933963144
0.2941608610919129, 0.013825830072164534, -0.17481964386798587
0.21856720358498774, 0.013825830072164536, -0.17628485085023515
0.2725167948589555, 0.013825830072164536, -0.16846698358218887
0.2741540219659613, 0.013825830072164536, -0.1737726362936693
0.31152793813057433, 0.013825830072164536, -0.16830568951259392
0.29570967658588854, 0.013825830072164536, -0.15221907878373137
0.29123869280158166, 0.013825830072164536, -0.15385776601641843
0.36729033322373816, 0.013825830072164536, -0.1538151076740339
0.33050646021800045, 0.013825830072164536, -0.15428896463306196
0.3039829497848978, 0.013825830072164536, -0.15697133892292814
0.3223648985037313, 0.013825830072164536, -0.15226731202032268
0.5538301991460067, 0.013825830072164536, -0.18045552850425262
0.45988231831484194, 0.013825830072164534, -0.1724656747204699
0.5967392779899416, 0.013825830072164536, -0.17980457492577223
0.48787883523726727, 0.013825830072164536, -0.17440969927234157
0.464202622349732, 0.013825830072164537, -0.16699558724434777
0.5699927529503015, 0.013825830072164536, -0.15689288600949797
0.5316953793483457, 0.013825830072164536, -0.16335862231276457
0.6021011093942917, 0.013825830072164534, -0.15850019520532577
0.6152788546015392, 0.013825830072164536, -0.15688115318034077
0.3170619064595828, 0.013825830072164536, -0.16741236986980657
0.27526895058543527, 0.013825830072164536, -0.15912351058085708
0.2511507150736614, 0.013825830072164536, -0.16427798774818217
0.23503003616100726, 0.013825830072164536, -0.15922113064467797
0.3959334465640312, 0.013825830072164536, -0.16755355567545957
0.14695194455140217, 0.013825830072164537, -0.1476851692832525
0.08778756950977012, 0.013825830072164537, -0.14092675801226423
0.16383442107771612, 0.013825830072164536, -0.149198395868544
0.10598007592447706, 0.013825830072164536, -0.14254443990817048
0.09509227770736932, 0.013825830072164536, -0.1384652034813057
0.48915910184639033, 0.013825830072164536, -0.1956978187554635
0.5083425121646004, 0.013825830072164536, -0.2006089095475355
0.46510721541735567, 0.013825830072164536, -0.1909251749396929
0.47711798991578336, 0.013825830072164536, -0.20071866128060512
0.4752328944800345, 0.013825830072164536, -0.2027555738127178
0.5332561620295247, 0.013825830072164536, -0.19595949632097517
0.23232081583853806, 0.013825830072164534, -0.1871484857684068
0.251848723516752, 0.013825830072164534, -0.18346471618363216
0.23613856807841727, 0.013825830072164536, -0.19687256396563269
0.22387924382802007, 0.013825830072164536, -0.18276334134296013
0.24190501618599003, 0.013825830072164536, -0.18409648712785256
0.3223570451830111, 0.013825830072164536, -0.18654947218783763
0.25550382623279516, 0.013825830072164536, -0.19415323024520273
0.40224315102979685, 0.013825830072164536, -0.18338684103350042
0.23730928224978562, 0.013825830072164536, -0.1998340297188133
0.34748701852921393, 0.013825830072164536, -0.17714035115478322
0.4142857330274745, 0.013825830072164536, -0.17004444246668945
0.33573683574536667, 0.013825830072164536, -0.17410316192701722
0.4408634503463379, 0.013825830072164536, -0.17466478612818276
0.40284622100949563, 0.013825830072164536, -0.17215649032600006
0.11661323956616207, 0.013825830072164536, -0.1697690514505223
0.08360899317881665, 0.013825830072164536, -0.16863012112711323
0.04043132660832561, 0.013825830072164536, -0.16818026808024125
0.18928715347475186, 0.013825830072164536, -0.17753640500386836
0.013516792233492309, 0.013825830072164536, -0.19743149214654143
0.03090058895839903, 0.013825830072164536, -0.2033803264750621
0.045564598864158506, 0.013825830072164536, -0.19412125863695573
0.058595132024361646, 0.013825830072164536, -0.200122888143219
0.016415792054801686, 0.013825830072164536, -0.19915629169251461
0.026319784557101756, 0.013825830072164536, -0.18622092091463888
0.04333567011298331, 0.013825830072164536, -0.1964576940396694
-0.13686448649059407, 0.01382588900107138, -0.16860907680172654
-0.025783164104451625, 0.013825841037147627, -0.17485538445909538
-0.1540169732569464, 0.013825896407362103, -0.16975970467910861
-0.033032254392293896, 0.013825844167240125, -0.17762525049194072
-0.1380212885574695, 0.013825889500568189, -0.16854550352681485
0.22611927320000363, 0.013825830072164536, -0.20754056305652854
0.3197005476589255, 0.013825830072164536, -0.2168280999258169
0.2429940874783717, 0.013825830072164536, -0.2113203140982732
0.3641143966446133, 0.013825830072164536, -0.22364828453177943
0.27985227453614253, 0.013825830072164536, -0.21359049861271293
0.26103752867440805, 0.013825830072164536, -0.22438597983016806
0.31075817765422836, 0.013825830072164536, -0.21621596276576144
0.20892340008657143, 0.013825830072164537, -0.21205165750366323
0.10380579680963756, 0.013825830072164536, -0.18374946159252253
0.0705093675324116, 0.013825830072164537, -0.18882861507851267
0.089081850194313, 0.013825830072164536, -0.18623283873891033
0.11632078299109772, 0.013825830072164536, -0.19059524694235375
0.07425983323655783, 0.013825830072164536, -0.18991176671105273
0.19322215369386705, 0.013825830072164536, -0.18981429447124237
0.15484073047322444, 0.013825830072164536, -0.19699620900690562
0.10554824181734344, 0.013825830072164536, -0.19203851796576085
0.4208711828219802, 0.013825830072164536, -0.19749196111321854
0.2781080110943417, 0.013825830072164536, -0.20001657579919294
0.2857034884413191, 0.013825830072164536, -0.20131000596328816
0.3810136628638852, 0.013825830072164536, -0.2043813984127264
0.3439209446112026, 0.013825830072164537, -0.1920157763397296
0.3762538821662236, 0.013825830072164536, -0.1948904413506827
0.3387184028101354, 0.013825830072164536, -0.20363382775315989
0.4322680841773704, 0.013825830072164536, -0.19189274912810392
0.04213801176971596, 0.013825730544565897, -0.23298582702658524
0.056561129477992744, 0.01382572740573139, -0.23105308373787156
0.061320385858506354, 0.01382576562400193, -0.23518046433501566
0.006976641034588552, 0.013825763024674871, -0.24071150397849989
0.02985326015503099, 0.013825812089574977, -0.24420642388360655
0.001384177837435992, 0.013825673691803904, -0.23046884247289778
0.04931188236926845, 0.013825732792501585, -0.23248690752880563
0.29108372517082187, 0.013825830072164536, -0.24165643585564958
0.3971997637911977, 0.013825830072164536, -0.24612678797443555
0.2610736517536314, 0.013825830072164537, -0.23369800421305795
0.30292656449706734, 0.013825830072164537, -0.2389143515985273
0.30056461001014395, 0.013825830072164536, -0.24442142642676626
0.3047308025713463, 0.013825830072164536, -0.24608178372459857
0.25598287611507303, 0.013825830072164536, -0.23732138113019752
0.2650508638750884, 0.013825830072164536, -0.2452581795874058
0.09151798574559583, 0.013825830072164534, -0.21184964733572043
0.1203224538449377, 0.013825830072164536, -0.20977941960820728
0.17073424474185353, 0.013825830072164536, -0.20463641881014477
0.03919030411846923, 0.013825830072164537, -0.20899395529765036
0.16537555284198371, 0.013825830072164536, -0.21460162595075546
0.13516029483150163, 0.013825830072164534, -0.21308095770892088
0.18955053394215188, 0.013825830072164536, -0.2174876018547768
0.20111620451274323, 0.013825830072164534, -0.2183498405230934
0.4439255737179397, 0.013825830072164534, -0.2125670594596092
0.48057527770438935, 0.013825830072164536, -0.2147308628731787
0.47085959128686267, 0.013825830072164536, -0.20878705364592215
0.4867663717564761, 0.013825830072164536, -0.2225574862980283
0.48782703954859225, 0.013825830072164537, -0.2122883878777482
0.5024067621661987, 0.013825830072164536, -0.2230193036600729
0.8457843741376037, 0.013825830072164536, -0.22518898715356028
0.8633628632342956, 0.013825830072164536, -0.22685166832711434
0.7966091984836204, 0.013825830072164536, -0.21825329293441834
0.8100028877051155, 0.013825830072164534, -0.21540991356304806
0.6024956379242103, 0.013825830072164536, -0.18322928315754095
0.5733880776422635, 0.013825830072164536, -0.18561989836288884
0.5699411992691699, 0.013825830072164536, -0.18527515488707455
0.6175426008861092, 0.013825830072164534, -0.19575530626321258
0.6204952911219381, 0.013825830072164536, -0.2017528303947063
0.5710084892742857, 0.013825830072164536, -0.18506963952665778
0.5651038956077873, 0.013825830072164539, -0.19553234629802937
0.7706540113695035, 0.013825830072164534, -0.20401812905131037
0.7515702090694882, 0.013825830072164536, -0.19269550228015703
0.7676173631902328, 0.013825830072164537, -0.18298617354567556
0.7339617898996236, 0.013825830072164536, -0.19954782271327182
0.7357449209101776, 0.013825830072164536, -0.20114317368505258
0.6978000975472575, 0.013825830072164537, -0.22254399161468075
0.6361145218925682, 0.013825830072164536, -0.21744998223582457
0.6635730816480018, 0.013825830072164534, -0.22012793221507115
0.6482545667237136, 0.013825830072164536, -0.2227963166793959
0.6713133178948852, 0.013825830072164537, -0.21540845429445568
0.6243133475784266, 0.013825830072164536, -0.21711915650730568
0.7458217549129259, 0.013825830072164536, -0.2084567597242039
0.7712421429536166, 0.013825830072164536, -0.21432868433994245
0.7738241390357419, 0.013825830072164536, -0.223156673210449
0.6723678636123546, 0.013825830072164536, -0.20999454412480567
0.7629108339861477, 0.013825830072164536, -0.21811587975678798
0.7260243056204692, 0.013825830072164536, -0.24439053499386768
0.6417108484592906, 0.013825830072164536, -0.24171979348356457
0.7037834405679056, 0.013825830072164536, -0.24587281242603612
0.6547382162789653, 0.013825830072164536, -0.24569807847784142
0.6663286380753534, 0.013825830072164536, -0.23874770416151386
0.7373532616110879, 0.013825830072164536, -0.24604482678029466
0.511171123502935, 0.013825830072164536, -0.21152662377184145
0.5642983755054212, 0.013825830072164536, -0.21660552579960057
0.5806242624860392, 0.013825830072164536, -0.2095107760626237
0.5228262050302088, 0.013825830072164536, -0.2113672336865139
0.613213361992527, 0.013825830072164536, -0.22527512426647806
0.49760358947583694, 0.013825830072164536, -0.20638142206143414
0.5187563486122537, 0.013825830072164536, -0.23698943239314202
0.447131332520536, 0.013825830072164536, -0.24463980321784856
0.530183337265265, 0.013825830072164534, -0.24014748516410542
0.5072127172749858, 0.013825830072164536, -0.2441743987571849
0.48807011794921157, 0.013825830072164537, -0.23812355199283475
0.454477485379849, 0.013825830072164536, -0.2390160459820459
0.23959036127251804, 0.013825830072164536, -0.20685450278775822
0.2949854716993426, 0.013825830072164536, -0.20975230102857162
0.3853737140118885, 0.013825830072164536, -0.21572997682187578
0.3932126636257528, 0.013825830072164536, -0.2133129832358697
0.3376223508932218, 0.013825830072164536, -0.2143662135496197
0.3508723900883834, 0.013825830072164536, -0.20906140501716336
0.36418855492075386, 0.013825830072164536, -0.21957391781499042
0.3062707789421495, 0.013825830072164534, -0.21348328195495483
0.4340945473325611, 0.013825830072164536, -0.2216153753307486
0.8642843230031532, 0.013825830072164536, -0.23873473808960663
0.841012979697105, 0.013825830072164536, -0.24098975925387045
0.8842314777618063, 0.013825830072164536, -0.2370665691542953
0.8035340629094637, 0.013825830072164536, -0.249448992887626
0.7523340804967731, 0.013825830072164536, -0.23059466719006863
0.7141233426467154, 0.013825830072164536, -0.2317618622714532
0.7398148635713775, 0.013825830072164536, -0.2281121055752356
0.655512358045912, 0.013825830072164536, -0.22926048738013122
0.6826602213229235, 0.013825830072164537, -0.2349166118911916
0.74523415737757, 0.013825830072164536, -0.2689930448290594
0.6456270266630612, 0.013825830072164536, -0.26553899693503424
0.6229761677499632, 0.013825830072164537, -0.2552682163678206
0.719879833542873, 0.013825830072164536, -0.2668441522251261
0.6527009977053193, 0.013825830072164536, -0.2643589958970437
0.5197742965535637, 0.013825830072164536, -0.2507645297900125
0.542264220460788, 0.013825830072164536, -0.24964724838026578
0.5429680453028525, 0.013825830072164536, -0.25499779297719566
0.5328531365892981, 0.013825830072164536, -0.2500802861756759
0.4541600971307101, 0.013825830072164536, -0.2602157711363647
0.5478607208234981, 0.013825830072164536, -0.23371231638620688
0.5421548362937376, 0.013825830072164536, -0.22853538166933046
0.601071964052564, 0.013825830072164534, -0.23111395962930914
0.4589297062319093, 0.013825830072164536, -0.22836447506905033
0.5731883464849307, 0.013825830072164536, -0.23182553037258505
0.5554703031823071, 0.013825830072164536, -0.23262553317956886
0.585767232016863, 0.013825830072164536, -0.2366113484564163
0.8718325523096663, 0.013825830072164537, -0.25395995679181904
0.8821145133857726, 0.013825830072164536, -0.2623785766686679
0.8262027524773601, 0.013825830072164536, -0.2613662261008661
0.781191207686365, 0.013825830072164536, -0.2723498894913625
0.7835284166575812, 0.013825830072164536, -0.2833517900866135
0.8791300508164128, 0.013825830072164537, -0.2867645601676007
0.7923590306471172, 0.013825830072164536, -0.2752949525316388
0.7425598619275806, 0.013825830072164536, -0.2580188558545705
0.6397426250812916, 0.013825830072164536, -0.25085472751513893
0.6581205491555223, 0.013825830072164536, -0.2523775788317631
0.7642308458467764, 0.013825830072164536, -0.2564968066256981
0.8168857342684632, 0.013825830072164534, -0.2957376920134875
0.7842357130641361, 0.013825830072164536, -0.2914043793308678
0.8202645459539912, 0.013825830072164536, -0.29693105655403174
0.775912115543355, 0.013825830072164536, -0.27787790211799757
0.7651204137776791, 0.013825830072164536, -0.28232338352840136
0.7199855641122905, 0.013825830072164536, -0.27241260589489424
0.7315082743729744, 0.013825830072164536, -0.2779762354979496
0.6756974547980167, 0.013825830072164536, -0.2911874243014819
0.717197553345327, 0.013825830072164536, -0.29179386746802144
0.6909048229641652, 0.013825830072164536, -0.2898629370193635
0.6866188850056645, 0.013825830072164536, -0.2808084051926271
0.7481616675783943, 0.013825830072164536, -0.28694603084470693
0.6692497432078773, 0.013825830072164534, -0.2752879197059675
0.6236378630123741, 0.013825830072164536, -0.27034709935199264
0.5384577497936537, 0.013825830072164536, -0.2721703265483769
0.5774497729027902, 0.013825830072164536, -0.2723856617649324
0.6112185146164942, 0.013825830072164536, -0.2854783650302838
0.5033247617103705, 0.013825830072164537, -0.2714287617725113
0.5592956170749368, 0.013825830072164537, -0.27865636990892395
0.43558200069996866, 0.013825830072164536, -0.23088628059683414
0.3446692553205947, 0.013825830072164536, -0.23271918390795537
0.4204921410512752, 0.013825830072164536, -0.23957028417565152
0.4328870501678122, 0.013825830072164534, -0.2334513316223517
0.3191316899456793, 0.013825830072164534, -0.2331455742169245
0.2728173808872185, 0.013825830072164536, -0.22954181666959753
0.2962829423577163, 0.013825830072164536, -0.234056011482611
0.3628115783806093, 0.013825830072164537, -0.23782232696134364
0.36555157745438405, 0.013825830072164537, -0.2683519486532355
0.3167487017989728, 0.013825830072164536, -0.2604999050222115
0.4104463281671484, 0.013825830072164536, -0.2681488647816526
0.3090045217074826, 0.013825830072164536, -0.2657434716074557
0.35443808586183556, 0.013825830072164537, -0.2627403699411193
0.22468046108930928, 0.013825830072164536, -0.2603337179726014
0.3448687480259605, 0.013825830072164536, -0.26589975099328755
0.34659767574203537, 0.013825830072164537, -0.2652668518347146
0.5659069375768926, 0.013825830072164536, -0.2641621301639644
0.5521532382824826, 0.013825830072164537, -0.2610045560777163
0.5980640517495515, 0.013825830072164536, -0.2616585506084556
0.6008710644879043, 0.013825830072164536, -0.2597192963206333
0.5832023662144709, 0.013825830072164536, -0.26127742014203625
0.4581662493011278, 0.013825830072164536, -0.2816919264782102
0.5282796288421319, 0.013825830072164536, -0.28529570473148774
0.47714230598114493, 0.013825830072164536, -0.2762299274412561
0.4656467170460129, 0.013825830072164536, -0.28639040915410996
0.5284021064388528, 0.013825830072164536, -0.2788213805984356
0.41867804690454535, 0.013825830072164534, -0.26673926167513706
0.43092351632173875, 0.013825830072164536, -0.2562394086930756
0.4412870177219439, 0.013825830072164536, -0.26739643650547373
0.43413678263131006, 0.013825830072164536, -0.25125770057455404
0.2574788463464689, 0.013825830072164536, -0.2535716486271184
0.3627579914256876, 0.013825830072164537, -0.2628562862405145
0.2690450587103109, 0.013825830072164534, -0.25491714426980017
0.3696702205592449, 0.013825830072164536, -0.25058341934947304
0.4469843244212005, 0.013825830072164537, -0.2891753566422162
0.5188136899473483, 0.013825830072164536, -0.29443293070031473
0.5061866353425128, 0.013825830072164536, -0.29871193236180904
0.3427778417017931, 0.013825830072164536, -0.2785964417057328
0.36351438022532645, 0.013825830072164536, -0.2716154259867103
0.3481838404725779, 0.013825830072164536, -0.2702472986706731
0.21531532928198388, 0.013825830072164537, -0.27050128436134835
0.35854853236103656, 0.013825830072164536, -0.2787384738647015
0.33813567015050716, 0.013825830072164536, -0.27402050615847695
0.2798260976394356, 0.013825830072164536, -0.2731953585742096
0.0486832585259379, 0.013825830072164537, -0.297030839525679
0.07788380359005019, 0.013825830072164536, -0.2904558762879286
0.0657969507402849, 0.013825830072164536, -0.2905019493480659
0.04575800472441358, 0.013825830072164536, -0.29147516843938726
0.35115418481018285, 0.013825830072164536, -0.2992314247343596
0.3039307572163965, 0.013825830072164536, -0.2966904182120464
0.23940831070824878, 0.013825830072164536, -0.2933095146700398
0.2525866586830457, 0.013825830072164537, -0.2913448113496813
0.3040589467732018, 0.013825830072164536, -0.2953995247345228
0.05876542949365958, 0.013825830072164536, -0.2814416714383816
0.00356778458702438, 0.013825830072164536, -0.274294359699439
0.005712991016879426, 0.013825830072164536, -0.28541296185104276
0.029724806699810785, 0.013825830072164536, -0.2798597560859532
0.017646860763379825, 0.013825830072164534, -0.2747402026905885
0.11752631530405282, 0.013825830072164536, -0.27443297900014374
0.14881147946452258, 0.013825830072164536, -0.25133869631856703
0.12958659468954092, 0.013825830072164536, -0.2504601146971524
0.18934751628877416, 0.013825830072164536, -0.2649031315690495
0.15638739851475583, 0.013825830072164536, -0.26041194623203595
0.15623433262025632, 0.013825830072164536, -0.25426312750550506
0.16174553886359055, 0.013825830072164536, -0.2601992110591349
0.31639707904198205, 0.013825830072164536, -0.2856701836704049
0.22516232771847816, 0.013825830072164536, -0.2732994047252416
0.2738316746968996, 0.013825830072164536, -0.2827091446241481
0.24834217073428144, 0.013825830072164536, -0.2839417485413306
0.24167382858609762, 0.013825830072164536, -0.28706404948710934
0.3045468455275122, 0.013825830072164536, -0.2789125271623804
-0.5132652951699076, 0.013825830072164534, -0.19674135222876574
-0.4788693689279623, 0.013825830072164536, -0.18612861949870133
-0.44637848533463553, 0.013825830072164536, -0.1939588887617784
-0.5102928019805805, 0.013825830072164536, -0.1952367837791635
-0.47309492772575923, 0.013825830072164536, -0.2013135260546826
-0.44591157301648643, 0.013825830072164537, -0.19538148345910017
-0.5154072041062481, 0.013825830072164536, -0.19209172140794475
-0.7020331425023443, 0.013825830072164536, -0.20896800193170215
-0.7639386521266992, 0.013825830072164534, -0.22347289101520873
-0.7626921113673322, 0.013825830072164536, -0.21026672083994458
-0.7673179294543611, 0.013825830072164536, -0.2074931817603159
-0.6987055138489047, 0.013825830072164536, -0.20951753543741802
-0.615235538324959, 0.013825830072164536, -0.24010240892574386
-0.6145275594543985, 0.013825830072164536, -0.248690189130225
-0.6013371460763615, 0.013825830072164536, -0.23801099323230465
-0.6209245567270741, 0.013825830072164536, -0.24412909393125626
-0.49946807862849524, 0.013825830072164536, -0.24619749110188222
-0.6046592355822313, 0.013825830072164537, -0.23532550352326587
-0.5875446282288449, 0.013825830072164536, -0.23960859800049739
-0.5066224638526188, 0.013825830072164534, -0.21754818789200508
-0.4989460184309844, 0.013825830072164536, -0.22586564997698827
-0.5274714910338931, 0.013825830072164536, -0.21640603116450807
-0.5341129140895647, 0.013825830072164536, -0.2189086442459473
-0.47876900449863996, 0.013825830072164536, -0.217626274614103
-0.5300918131632177, 0.013825830072164536, -0.22212128935014247
-0.29831750541028623, 0.013825830072164536, -0.2223824120729036
-0.4431981788613494, 0.013825830072164536, -0.2125131044588567
-0.42346327240954007, 0.013825830072164536, -0.21628693467767413
-0.38586654982879676, 0.013825830072164536, -0.21679517223026218
-0.3739895020292964, 0.013825830072164534, -0.2160156078508699
-0.42066264566704753, 0.013825830072164536, -0.21863185444694205
-0.3443408699391318, 0.013825830072164536, -0.22283424549308656
-0.41668850100307675, 0.013825830072164536, -0.21951529877539538
-0.5819643785636026, 0.013825830072164536, -0.21544327754849196
-0.5199878107762212, 0.013825830072164536, -0.20577405753826306
-0.5480089140275117, 0.013825830072164536, -0.212674481822212
-0.595184075985298, 0.013825830072164536, -0.21514392749907252
-0.5853962473239058, 0.013825830072164536, -0.2138713441331108
-0.6069749974769402, 0.013825830072164536, -0.21182078506834162
-0.6119040800658032, 0.013825830072164536, -0.2101937317734221
-0.38499633882744044, 0.013825851929239446, -0.1849830813075269
-0.35715891591365667, 0.013825862248954754, -0.1864471586027744
-0.3219144928730773, 0.013825875314546819, -0.19074268234759184
-0.2238256682851572, 0.013825911677422349, -0.19566574198090908
-0.3219643845183182, 0.0138258752960513, -0.19043821008555373
-0.3357237444788936, 0.013825870195267436, -0.18919050334533252
-0.3489139798903035, 0.013825865305465868, -0.1853627716091879
-0.3913392444376473, 0.013825849577837153, -0.1850021962493295
-0.05311933292526023, 0.013825852840661386, -0.1860581962984822
-0.07252707978043126, 0.013825861220753289, -0.19464324951488352
-0.07333333841444445, 0.013825861568888573, -0.19561329155039422
-0.017885571910190728, 0.013825837627037794, -0.18231469955535198
-0.0015355077035655246, 0.013825830567225974, -0.20038079629721622
-0.13348299289887428, 0.013825887540972623, -0.18183812348030462
-0.05386655819777976, 0.01382585316330659, -0.19758044826964377
-0.008050631915934029, 0.013825833380398469, -0.18879489464128973
-0.18052143240996427, 0.013825870371890047, -0.21434201903033184
-0.17135870858819835, 0.013825874130203017, -0.2123367829313263
-0.015458271459479365, 0.013825832048065777, -0.20577778254448525
-0.10257936086599082, 0.01382583835105982, -0.21391733906861438
-0.047655206360232086, 0.01382583366623267, -0.20897073892597423
-0.19172139285712014, 0.013825880192982348, -0.21304628401948233
-0.11822193014456547, 0.013825855946776065, -0.2110993981818882
0.01636404302977405, 0.013825698799713518, -0.22310332643598937
0.04896447070871305, 0.013825730204562205, -0.22278517863656716
0.02754758380009028, 0.013825800079198952, -0.21153336422077784
0.0239886095502157, 0.013825696890598971, -0.22420076353796284
0.018641617705533405, 0.013825750732075606, -0.2167827169019662
0.009159749181797332, 0.013825679010367888, -0.22480074012874132
0.05600580341027248, 0.013825803984675832, -0.21423260369294025
-0.05850254783759788, 0.013825830072164536, -0.24583686647074068
-0.17875613677139005, 0.013825830072164536, -0.23523781087982407
-0.08929340592754761, 0.013825830072164536, -0.2457398078788638
-0.16842742229951857, 0.013825830072164537, -0.24841849492621132
-0.02197169574699632, 0.013825830072164536, -0.24788388771130013
-0.0274043603173412, 0.013825830072164536, -0.2475592789875406
-0.19730140154389547, 0.013825830072164536, -0.24408185532307114
-0.13867319790375782, 0.013825779307049037, -0.22654854924524492
-0.01686397691460484, 0.013825769767257749, -0.21408556805977413
-0.015254033998212884, 0.013825689355369574, -0.22408746897384174
-0.050476311432078765, 0.013825779294175214, -0.21665158230524834
-0.013012458670874397, 0.013825747949349144, -0.2164161112813407
-0.06547702327714869, 0.013825713423092013, -0.22667643813137997
-0.05388627554190731, 0.013825751290487645, -0.22058041081091403
-0.09729101117982973, 0.013825817806728645, -0.21702887433169443
-0.23220593424532393, 0.013825900789940494, -0.20662251231833498
-0.4077249549964676, 0.013825842106433617, -0.20496319162707485
-0.33753435959351413, 0.01382585615072226, -0.20807613562286822
-0.22462365227781833, 0.013825834225299804, -0.22465488420131127
-0.27246954768429293, 0.01382586261420275, -0.2126656071924518
-0.38523864405861596, 0.013825831007841528, -0.21001471050949375
-0.4164867221103226, 0.013825839279511865, -0.20485371451537576
-0.24129164886453375, 0.013825892388968638, -0.2079306509876725
-0.42713303406533465, 0.013825830072164537, -0.22970515642276507
-0.23552953812987748, 0.013825830072164536, -0.24882682491829827
-0.32892102214046026, 0.013825830072164536, -0.24331490566879777
-0.31056819143465453, 0.013825830072164537, -0.24089908494953674
-0.25157571572216886, 0.013825830072164536, -0.24652476532355974
-0.2942004830804, 0.013825830072164536, -0.24429576314998164
-0.3686113066631016, 0.013825830072164536, -0.2394150260576733
-0.3641752223388678, 0.013825830072164536, -0.24511513822677133
-0.2501933939426897, 0.013825830072164536, -0.23382670135176425
-0.21152214954595278, 0.013825830072164536, -0.24208226428728424
-0.2379026463000019, 0.013825830072164536, -0.24128108389433114
-0.29414169133009466, 0.013825830072164536, -0.23195445604452875
-0.3227944567427701, 0.013825830072164536, -0.2311810871652083
-0.21388807805237894, 0.013825830072164536, -0.2283629761573431
-0.42590823780003617, 0.013825830072164537, -0.2281847711044208
-0.3186802998614654, 0.013825830072164536, -0.22912844065724036
-0.36592222178283423, 0.013825830072164537, -0.23394369203674198
-0.13722679841939533, 0.013825787973774262, -0.22980996462317566
-0.06690642981090351, 0.013825812349982142, -0.24033492629002795
-0.1078799213244926, 0.013825790852150768, -0.23331685344221362
-0.09276209955812528, 0.013825736437220588, -0.2283378495769652
-0.009788542573833357, 0.01382571908677422, -0.23515889270234175
-0.057396038315738716, 0.013825790695443691, -0.23872946974765014
-0.10261607570702666, 0.013825765496571166, -0.2308052265219855
0.09039519246279407, 0.013825830072164536, -0.244371859703495
0.09847087056027518, 0.013825830072164537, -0.24155808581148042
0.1699580576221977, 0.013825830072164536, -0.2469576523085048
0.1875534949092903, 0.013825830072164536, -0.24940045661175578
0.19125268651601166, 0.013825830072164536, -0.237249940564216
0.20092457113782203, 0.013825830072164536, -0.24030067272328948
0.07163890622693543, 0.013825830072164536, -0.24921338025484707
-0.18522630160073184, 0.013825830072164536, -0.26504835230676865
-0.19435988487556047, 0.013825830072164536, -0.2525759330363449
-0.13789423101890524, 0.013825830072164536, -0.25968604026014447
-0.19577814950924516, 0.013825830072164536, -0.2576141603009042
-0.16979649677411224, 0.013825830072164536, -0.2621758038813433
-0.20308923208326662, 0.013825830072164536, -0.25305471865824686
0.01808151806579168, 0.013825830072164536, -0.26301215876907424
0.07146409681089012, 0.013825830072164536, -0.2598684860654641
0.04214596139797825, 0.013825830072164536, -0.26235781925715673
0.1360235262220424, 0.013825830072164536, -0.26841637715093336
0.0163667026814288, 0.013825830072164536, -0.2556647715654425
0.047472643067192136, 0.013825830072164536, -0.2596718963704305
-0.027618426322527024, 0.013825830072164536, -0.27913962089294525
-0.03616911048813375, 0.013825830072164536, -0.2827814855995944
-0.07650204904043202, 0.013825830072164536, -0.27528277517787164
-0.022160286276230116, 0.013825830072164536, -0.28061959387597063
-0.06760421571022111, 0.013825830072164536, -0.27449358720438743
-0.05056366071804894, 0.013825830072164536, -0.28057535993742494
0.1363077694333684, 0.013825830072164534, -0.2755604986343237
0.1728812487640231, 0.013825830072164532, -0.273507119424411
0.16046436211151055, 0.013825830072164536, -0.2851838882064189
0.13333381105626577, 0.013825830072164536, -0.28397844460832977
0.20003598456885147, 0.013825830072164536, -0.2749359977492559
-0.17266838273560206, 0.013825830072164536, -0.273673535686484
-0.1956002148008072, 0.013825830072164536, -0.27421228932197583
-0.20226520779970078, 0.013825830072164536, -0.27885596169413224
-0.20039573964895638, 0.013825830072164536, -0.2704697521036175
-0.1778668509959339, 0.013825830072164536, -0.27575760310871095
-0.1233244750793529, 0.013825830072164537, -0.27733949469415453
-0.4013499047045808, 0.013825830072164536, -0.25216848468007674
-0.26754839085767934, 0.013825830072164537, -0.2636265626337125
-0.2831493023848167, 0.013825830072164536, -0.2595306680784533
-0.3297208431420879, 0.013825830072164536, -0.256951808830533
-0.3918541672807556, 0.013825830072164536, -0.2528886797207397
-0.2622990774630202, 0.013825830072164536, -0.257776205724611
-0.3193014025613008, 0.013825830072164536, -0.25977713488754195
-0.022745632577188448, 0.013825830072164536, -0.26332977644729033
-0.004979354227520595, 0.013825830072164536, -0.2625006057564894
-0.06773252416867762, 0.013825830072164536, -0.2610246146606906
-0.20211802325669104, 0.013825830072164536, -0.26955244908566267
-0.028601857456989427, 0.013825830072164536, -0.2684656870075841
-0.13683150035208405, 0.013825830072164537, -0.26500361216682256
-0.007188227825141924, 0.013825830072164536, -0.25556661657745183
-0.3036435466509745, 0.013825830072164534, -0.2898749950055992
-0.2590730371772142, 0.013825830072164536, -0.2873147382115131
-0.38487065800704445, 0.013825830072164536, -0.28880469956212096
-0.393425343069342, 0.013825830072164536, -0.2964652677618267
-0.3925504655447867, 0.013825830072164536, -0.2908141468652641
-0.3596247466404388, 0.013825830072164536, -0.2732430803871854
-0.3646306750818818, 0.013825830072164536, -0.27097096448122937
-0.3495383306100238, 0.013825830072164536, -0.27646131052902395
-0.211910140854152, 0.013825830072164537, -0.28655084993226304
-0.41483410693778966, 0.013825830072164537, -0.26981032636791513
-0.22354500231149413, 0.013825830072164536, -0.2823459549270739
-0.1841882717387109, 0.013825830072164536, -0.2913243256306136
-0.014542558583063428, 0.013825830072164536, -0.29963119991534337
-0.1892855167735124, 0.013825830072164534, -0.2903568171497741
-0.193070540783917, 0.013825830072164536, -0.2995417050549677
-0.13039674067327378, 0.013825830072164536, -0.29245353436203236
-0.5872034036313344, 0.013825830072164537, -0.22930061495846923
-0.4552257566080161, 0.013825830072164536, -0.23387495531884206
-0.49881561295102, 0.013825830072164537, -0.22952951480984995
-0.46220623486874646, 0.013825830072164536, -0.24042236029662434
-0.577670815755776, 0.013825830072164536, -0.2281862004350333
-0.5152307103950384, 0.013825830072164536, -0.23150852548017004
-0.31178264529391775, 0.013825830072164536, -0.2658179845691955
-0.36699616302289595, 0.013825830072164536, -0.26559827118426227
-0.3898684462508084, 0.013825830072164537, -0.25504093172550507
-0.43851862696524835, 0.013825830072164537, -0.2520343992676613
-0.39708405292937454, 0.013825830072164536, -0.2554049902549533
-0.39660807210447235, 0.013825830072164534, -0.2566543529217273
-0.3901808748034802, 0.013825830072164536, -0.2689558296244492
-0.6146855340589514, 0.013825830072164536, -0.2551707303252606
-0.5877522911879663, 0.013825830072164536, -0.2696100105898228
-0.4724348514353664, 0.013825830072164536, -0.2682371112292486
-0.5012887090909846, 0.013825830072164536, -0.26934921678273493
-0.5599251204628717, 0.013825830072164536, -0.25789064897811653
-0.5097857079459782, 0.013825830072164536, -0.26897014230832683
-0.649906355414469, 0.013825830072164537, -0.2406503803185824
-0.6663823443780832, 0.013825830072164536, -0.2332209545885467
-0.7143955227937077, 0.013825830072164536, -0.23251456492731165
-0.6550445354868102, 0.013825830072164536, -0.22938943521175154
-0.6615054060469748, 0.013825830072164536, -0.23090656471366441
-0.5082639032947875, 0.013825830072164536, -0.2547062819036595
-0.4596115124230501, 0.013825830072164534, -0.26422025160844964
-0.5604205531933933, 0.013825830072164536, -0.25153988475082034
-0.5656115079338173, 0.013825830072164536, -0.250945333370099
-0.45913688739569736, 0.013825830072164536, -0.25629488445194437
-0.4658580142473854, 0.013825830072164536, -0.25269705974182044
-0.2982655072119942, 0.013825830072164536, -0.2868585114146033
-0.3066638335113192, 0.013825830072164536, -0.28593722044387937
-0.282012579825399, 0.013825830072164536, -0.2857972774003423
-0.3972596778635531, 0.013825830072164536, -0.27418627958096786
-0.3814846747664723, 0.013825830072164537, -0.275934744943915
-0.3438010288759008, 0.013825830072164537, -0.28164018173848404
-0.44841275388957536, 0.013825830072164536, -0.27194972423500047
-0.534060459011672, 0.013825830072164536, -0.2723903842230843
-0.45225971216146904, 0.013825830072164536, -0.2754787505684464
-0.454127402902461, 0.013825830072164536, -0.28035447815384745
-0.49014265338228974, 0.013825830072164536, -0.2738121595306901
-0.5989508465622575, 0.013825830072164534, -0.2967845281736682
-0.5241346566020797, 0.013825830072164536, -0.29096057951241044
-0.5663738716399499, 0.013825830072164536, -0.2942831102886369
-0.5025995536462942, 0.013825830072164536, -0.28956515833840635
-0.49790811849459327, 0.013825830072164536, -0.2821157764328508
-0.49479442684692054, 0.013825830072164536, -0.2850524803185597
-0.5778285596135291, 0.013825830072164536, -0.2857707077463698
-0.6128889674627029, 0.013825830072164537, -0.28419615171413093
-0.7283105766509805, 0.013825830072164536, -0.2739752291392899
-0.7748793638659837, 0.013825830072164536, -0.27357925382732895
-0.7540480958794369, 0.013825830072164536, -0.28198061293716403
-0.7726135996919961, 0.013825830072164536, -0.2802404554687079
-0.7602833481058014, 0.013825830072164536, -0.2805143325675295
-0.6767555055908142, 0.013825830072164536, -0.25806253696314546
-0.6301698952578261, 0.013825830072164536, -0.25614061091203266
-0.6366572614714301, 0.013825830072164536, -0.2621360007174457
-0.7507494644742722, 0.013825830072164536, -0.25011464062897865
1.138360035483053, 0.008953662361827494, -0.14526657564845696
1.1383200262375803, 0.009297870705760734, -0.23930865831405243
-1.1239317498941341, 0.012757581151004118, -0.13341827572108447
-1.1209078307024056, 0.012909132807623246, -0.1618504640189853
-1.0983666433637973, 0.013314748966523373, -0.17249370684031406
-1.1259882834026245, 0.012654505610480437, -0.17965921138596852
-1.1367760372395528, 0.011602821042676275, -0.1794541495817914
-1.0461089923222973, 0.013659967148298802, -0.14487380696199473
-1.0264787498154841, 0.013700258949152085, -0.14624176740057307
-1.0737485650121021, 0.013510881529612348, -0.14742641319922045
-1.0865711967707514, 0.013432182804456603, -0.1369582449234134
-0.764280873552705, 0.01382597640351662, -0.14894296835227402
-0.7434909542923039, 0.013825989172796383, -0.15158711701519528
-0.7695572148284063, 0.013825891754169723, -0.14303388848417972
-0.7671086499195605, 0.013825936315929266, -0.14611574584645792
-0.7832515041363646, 0.013825830072164534, -0.13730801743603954
-0.7817648766609284, 0.013825830072164536, -0.12835651386529423
-0.8188846649996836, 0.013825830072164536, -0.12866911232174794
