0.008894456130485047, -0.013561739170902438, 0.00018697542766142882
0.00800559925668211, -0.014991964884713434, 0.00018451726863275822
0.009684583506182875, -0.01337435643864736, 0.00019369406146387488
0.008400283288757322, -0.005650842237289306, 0.00014919762096898806
0.00943919117354905, -0.013800048034623416, 0.00019314440414586
0.0027305865756982114, 0.011615065482360519, 7.307453953272324e-05
0.003787684754504013, 0.005293867413888197, 9.182732905519854e-05
0.0018626076413516225, 0.013453488560876106, 6.690281265409822e-05
0.0034734429011273483, 0.016060327455808328, 6.17901229366818e-05
0.003489295955652479, 0.01637431513923546, 6.0946167544931503e-05
0.0028288158756153777, 0.006127268738082477, 8.830555335980222e-05
0.0028561655665540952, 0.009330995251530694, 7.952227581506708e-05
0.004555360234278775, 0.011715427233926889, 7.513490787237429e-05
0.0036132998765536248, 0.00873388170649656, 8.213534603116305e-05
0.0011179206555773967, 0.015661766508483697, 5.987093030520457e-05
0.005651259256886734, -0.012748015522346182, 0.00016070944183328871
0.004685817566338011, -0.003963069578107968, 0.00012367135666706847
0.006327516796763408, -0.01272215679268384, 0.00016414038727249934
0.004184612106999498, -0.004732030343654719, 0.0001238601961954781
0.0043705812734330125, -0.010209177213845526, 0.00014478405496584618
0.004538427307632451, -0.004208955725354761, 0.00012379886690541027
0.004927583913328229, -0.003991813676907763, 0.00012503634275402004
2.4620145824740854e-05, -0.0007529150108160227, 0.00010367720435802894
0.0019767838662915023, -0.010806562116842933, 0.00014141128727581293
0.0010587819302930433, -0.0055850554931307405, 0.00012197318321994217
0.0029868704219845267, -0.013639876987299125, 0.00015281123362443434
0.0002520500662507308, -0.012148515458975526, 0.00014314263685327993
0.001533677766034511, -0.01293934141156734, 0.0001479889621877414
0.0010017533386798205, -0.013812866848912793, 0.00015009953560382762
0.00041743719989324464, -0.010917774505445383, 0.00013919656479169796
-0.0018878982250641778, -0.00743250724293284, 0.00012963751864215013
-0.004021326654079368, -0.005822193710675891, 0.0001271167635101645
-0.002403362289824832, -0.0019495512625499034, 0.00011131561917947892
-0.001487833620895445, -0.0030005838033628444, 0.00011364915145859608
-0.001365321526776772, -0.0013471641635132213, 0.0001077229530376158
-0.0015942379622429534, -0.003945503240317934, 0.00011708845203657609
-0.003352117924740922, -0.012687537695843179, 0.0001500237422758501
-0.002186595221965206, -0.00501470916495127, 0.00012166121080537444
-0.003153174518885672, -0.0003767119870154543, 0.00010692847375926983
0.002401840715123205, -0.031244833938800693, 0.00022396174196669883
0.0016091909551558382, -0.03183818510514298, 0.0002248735712089014
0.0012427875292166874, -0.024591409714468833, 0.00019397788600919577
0.0006064724282661977, -0.031266164039187104, 0.00022051973849464095
0.002630750093219265, -0.03176151090373415, 0.0002265633310596267
0.000569072696116252, -0.02792496919989538, 0.00020653366696288006
-0.0006734184626428223, -0.018998458264845326, 0.00016951329037973408
-0.002683234497513879, -0.017087277369317762, 0.00016478775902591943
-0.001547556911476673, -0.022870703771996986, 0.0001872993233747572
-0.002687601493271439, -0.01836225564978835, 0.00017017341872789944
-0.0021256329672853756, -0.02720358238608861, 0.00020653698917931753
-0.001702245384606229, -0.021805889261570486, 0.00018306428601665682
-0.0029748325663776364, -0.030254235441554336, 0.00022081578697044266
0.007302271950509859, -0.023277177655352456, 0.0002190937503870422
0.008067953220214391, -0.029139011555508954, 0.0002573337396483386
0.006386510507636065, -0.02836483260131777, 0.00023454718977621622
0.007274527364295911, -0.022594703864443184, 0.00021533071004888724
0.00601001021693667, -0.02910796425075405, 0.00023408011003112834
0.004560248835991727, -0.0006907655410326332, 0.0001110490750418534
0.006390061496465654, -0.0021360546660265526, 0.00012476003518999568
0.00684413214715292, -0.014370027451926408, 0.00017278404902777776
0.007193109254709616, -0.002251966571668167, 0.00012882952959929477
0.008213873168573558, -0.0022470575688266718, 0.00013343024836547389
0.007420200913241984, -0.011461464482195913, 0.00016446192849495884
0.007356165298430724, -0.006222548124146941, 0.0001444868836915382
0.007822290390718247, -0.0019896591973037683, 0.00013069108016403679
0.005236597008976083, -0.0005951505463271712, 0.0001137504140107703
0.003961481861507836, -0.004656123883983446, 0.0001229808232493714
0.0027134196736955316, -0.007595487740411495, 0.0001314037227316937
0.0034720674542943844, -0.010003950037084068, 0.0001408758748990839
0.0032481424026520236, -0.0088801746425106, 0.00013664390407326917
0.0016141980635822509, -0.0015337138564293766, 0.00010873278625556398
0.0013303965412717425, -0.00017212980022353498, 0.00010358723852381554
0.002595569314434172, -0.0004390161666609451, 0.00010634132102550341
0.0037874651560952546, -0.010552428430985805, 0.00014323879635104708
0.0017735871909825508, -0.006642015408308562, 0.0001267309895180596
0.0052175886587486125, -0.02843412291633166, 0.00022657335570892324
0.0034645389340254968, -0.026825687030914945, 0.0002086602491608052
0.003616611868929351, -0.03163217592324598, 0.00023082849591266196
0.004079213398529319, -0.027966333835117714, 0.0002174883822327203
0.004241688418154034, -0.027265598736663302, 0.00021539492946611962
0.003390170232046756, -0.029736868500660815, 0.00022106063860211775
0.003258948909411647, -0.03680305330074025, 0.00025621530556869574
0.0030892099821093616, -0.044044151590407074, 0.00029353123093979504
0.0028212207965764577, -0.04334160002015218, 0.00028778463483629174
0.0027931176461625327, -0.040037069942549214, 0.00026996621455743124
0.0019674445242269054, -0.020354637355372962, 0.00017739531667486076
0.0022628844966269355, -0.02228497893818298, 0.00018603175872371606
0.002675524766196394, -0.024374497973718934, 0.00019553492740385643
0.002832483714884675, -0.025991339201625108, 0.00020261808782751344
0.0013366777632939741, -0.01812751217755967, 0.00016694841180447918
0.002431034130812778, -0.0180468461395935, 0.0001684299713910179
0.0019810631826619528, -0.02468684863959762, 0.00019569665632805343
-0.0004638530707020257, -0.033934312970955144, 0.0002330351438109572
-0.002811095327905397, -0.033680309675834276, 0.00023633868191106237
-0.000979150321737164, -0.033690985689814885, 0.00023280690382688197
-0.0024887857178205967, -0.039561557305702155, 0.0002656047124889359
-0.002280311026103584, -0.03884413606241762, 0.00026154965536453534
0.001002918889804279, -0.0442062751346235, 0.0002859742143187529
0.0004662001474736124, -0.045639673626170704, 0.0002918988292857354
0.001347723881806762, -0.040866695782755404, 0.0002700223611223369
0.0016760569474612037, -0.043562953936878764, 0.00028434063016273114
-0.0016582250820906415, -0.05506933878437476, 0.00035251462682638117
-0.0018864611370238188, -0.04718829330056004, 0.00030375599428709787
-0.0011973150822174958, -0.049776131999988704, 0.0003183210785726731
-0.0007928640704125733, -0.04772301389912706, 0.00030452707156254074
0.0005127869453216041, -0.05798903079925928, 0.00036752216052321886
0.00012294943848397536, -0.04751497496642621, 0.00030165241711452637
0.0014281986208528367, -0.05756833775558423, 0.0003676170115838884
0.001472311515382458, -0.03703828730898591, 0.00025080966281252915
0.0020138502748688, -0.039199637783828636, 0.0002628651039779988
0.0021589027314731085, -0.03930629308260704, 0.0002636926973363896
0.0020893261025716403, -0.037468162666277546, 0.00025420896138459754
0.002123748836899968, -0.04208868858966983, 0.00027777207483996644
0.0024833404507356195, -0.05781606106516009, 0.00037662622725221777
0.002267374589355782, -0.05535549853730937, 0.00035849154287567503
0.0021250012305346457, -0.056186182722194056, 0.0003626330332338404
0.009535274376049192, -0.02145908083574401, 0.00023151407103561488
0.008181493136330901, -0.020395716855219195, 0.0002130796264638462
0.007893495785013386, -0.02361399232403954, 0.00022704010580791798
0.008711720574587332, -0.02536560179732008, 0.00024393881804910043
0.00804032450244063, -0.020088110283861184, 0.0002101360472595041
0.009852162906882319, -0.017998548494186015, 0.00021657150875723554
0.007755843269421374, -0.04201356791803715, 0.0003384637754731769
0.006973401453080652, -0.04322991994727923, 0.0003304919446608227
0.007030377397848243, -0.042473299636829484, 0.00032602664948793044
0.0060072392075585035, -0.046096709395982094, 0.0003353852484102601
0.0051542143372777715, -0.044555817693188726, 0.00031441058700177585
0.005905858866170351, -0.04432931506026411, 0.00032322268501190816
0.006057459163441318, -0.04622709345474362, 0.0003368622011654227
0.006338361645135374, -0.01849284400556621, 0.00018728220229586917
0.006148814207285751, -0.018008051212336788, 0.00018408961620251964
0.005517066965304405, -0.017483331900868655, 0.0001784053123953067
0.005371621485011148, -0.019741831107685195, 0.0001879050790315434
0.005298819511133758, -0.017052656736405415, 0.00017530861827040766
0.0064615862074149, -0.020148156956367128, 0.00019544558830773175
0.0036940190279752014, -0.016550740008478684, 0.00016464402694323785
0.004292543286897687, -0.055780193923445215, 0.0003837781770247952
0.004083102130682706, -0.051777258492423095, 0.00035022276250140465
0.0035281191940937985, -0.03781123204792188, 0.0002635940868361687
0.004795150906878637, -0.03343282245211197, 0.0002475032543619587
0.005062369930793377, -0.03430460665026128, 0.00025392414549826805
0.004386127619020824, -0.04243496084133401, 0.0002941856574881096
0.004472706017538676, -0.04481932834116243, 0.0003077573103220997
0.00679560589858306, -0.03782987664077894, 0.0002939294287545619
0.006695922891510682, -0.040379888008820045, 0.00030869036356799307
0.0067952933103401295, -0.04078974879559126, 0.0003123692951710485
0.006708986128721577, -0.035985122089088786, 0.0002814538170216617
0.007373151543078223, -0.0347043864963232, 0.0002809927487113283
0.006267368620254803, -0.051006032247643496, 0.0003807522363809276
0.006434044539842473, -0.048497632881286834, 0.0003619721389150015
0.0066620331082458085, -0.04318704656044092, 0.006293793904010249
0.006434027537576091, -0.04523786537948325, 0.005925036314947091
0.008879477795053114, -0.026301429714543596, 0.008650544579260514
0.00851560295466805, -0.027810090949112454, 0.008716591706361384
0.009155179534726393, -0.026376845592501856, 0.008167241246215859
0.011287503295936701, -0.014028711748866978, 0.009006269730406469
0.011077132104310754, -0.016709268594152893, 0.008399155945011023
0.011313286681244199, -0.015040071485316771, 0.008599275103116649
0.012956232003139334, 0.0011883237665488212, 0.011581264714086766
0.01299161365054766, 0.0029829755245710443, 0.012145452104952761
0.012776537182053451, 0.0012002615328032405, 0.01187706366607571
0.013606138505787357, 0.0023619747029872316, 0.0109329152824434
0.013081207358040829, 0.0032550472738959602, 0.012094269673539383
0.011374630884845268, -0.009949937550968756, 0.010295725843694432
0.010851414771339222, -0.014862453498903819, 0.009430156798624944
0.010361620119239292, -0.017642154569791173, 0.009257514515338279
0.011425119889723742, -0.010792272624846548, 0.009917808428585374
0.010332218271045602, -0.019597497646910572, 0.00862021878276657
0.007954960592118464, -0.03606016685848934, 0.006696000616282095
0.008164205715358787, -0.034205932353863266, 0.00701499478317282
0.01158789944488844, 0.003414805911724773, 0.014557107802775585
0.012141606512696714, 0.0057397292181086065, 0.014465536535618804
0.011778699907153242, 0.003534948197038664, 0.01429222604632641
0.011858585987208736, -0.0014676346071733136, 0.012450071627487208
0.012128385276051298, 0.004423249937026512, 0.014035683096258966
0.012806950615133043, 0.00543273754100949, 0.01329313517078554
0.00981216628275869, -0.021572649230780425, 0.008780364227201682
0.01030782363631878, -0.012766612180599528, 0.011058570308442768
0.00937758557492994, -0.021536853367687916, 0.009511969335443285
0.008301183365001508, -0.022315924650939355, 0.010999972635750201
0.00898845869031243, -0.015291206619265106, 0.012317380496219037
0.008002324039212336, -0.021255272142303192, 0.011854419725443174
0.008394835555446012, -0.02303221217193666, 0.010599065102909868
0.010218226215199171, -0.0022974943946135412, 0.014802548944323193
0.009924442231678706, 0.0017561075209001954, 0.016646802875441718
0.010221081760008233, -0.002431476485669337, 0.014752480786463275
0.009969512456193807, -0.0050588775194618015, 0.014259228118170314
0.011039338407473868, 0.0044528398815673245, 0.015792169835560466
0.010698436407498615, 0.004836217356914217, 0.016463998806784366
0.007807978342906649, -0.03264852146861195, 0.008171744714409703
0.007231442288805726, -0.035065687055757876, 0.008275860353193852
0.007984327166396146, -0.02967929809507556, 0.008937375637288048
0.009441514442968337, -0.017589288942247497, 0.010788343558443242
0.01017774909731277, -0.012059808564176428, 0.011513732211935995
0.0090842700545612, -0.016994225612886125, 0.011571122751251958
0.010114861534891419, -0.013849234336249582, 0.01099584085249261
0.009126364283262741, -0.01710726567142689, 0.011464029210811634
0.005341105113558926, -0.04834868461162436, 0.006666980200200174
0.008343097222038501, -0.02535477970930143, 0.009872956579839765
0.008503874155500664, -0.023974325639229924, 0.01009464188813276
0.0077966103689646495, -0.02777927254935303, 0.009913800568221772
0.008441938371965196, -0.024563307872426544, 0.00998920848595664
0.006756310463671247, -0.03436785782230667, 0.009304563253785113
0.006893726847623859, -0.034281903344530004, 0.0091083602761539
0.008218034840790143, -0.018922001990674932, 0.012311116872457312
0.008287825274847801, -0.018656748471851118, 0.012290653223435522
0.008341956744542526, -0.016030558417254634, 0.013104783854595466
0.007987523685371567, -0.015836148438817498, 0.01373731161992926
0.00883953400954108, -0.011017656559152123, 0.014029373977430846
0.006545782378296623, -0.026029210282311182, 0.012548483569812852
0.006680864762832335, -0.02608327780911606, 0.012312654426214386
0.006639056540195602, -0.031717724630328376, 0.010428114824712611
0.006456608843813764, -0.028361049851031474, 0.01188406796213282
0.004844266453296563, -0.04867011900908437, 0.007389931396172769
0.00498742314196917, -0.04624509388272663, 0.008017236572330808
0.019353886109642608, 0.04084960020147897, 0.014785227900789616
0.018872465968390675, 0.0371867234779792, 0.014328088782649046
0.019411622499809315, 0.041633832441971844, 0.014955637740642055
0.018820988652557484, 0.040425021970447214, 0.01549554597213866
0.01809349988731331, 0.02485956429255277, 0.011383127701805709
0.018090054252183185, 0.02967524780825509, 0.013045162637612052
0.018417058746839177, 0.02920308091372102, 0.012347811505577785
0.01809220826068235, 0.02773861159979343, 0.0123755152301878
0.01794250192160738, 0.024349208507920165, 0.011454602998424782
0.017000665306875676, 0.028287666746894844, 0.014323908273324406
0.016803224408705478, 0.023432299026565382, 0.012993761138231398
0.01720929554147164, 0.03357502698241163, 0.015782637558828232
0.016941121620042115, 0.023793106287661576, 0.012894822304633017
0.017918711439864066, 0.029124190267818748, 0.013134159907272454
0.018430995138689336, 0.03392221007679257, 0.01393951276744003
0.015653701247286336, 0.007387709453751985, 0.009319964310840157
0.01541233241762203, 0.006694638649636008, 0.009476738677812017
0.015759386274948176, 0.008551965902072804, 0.00955111284409912
0.01594821347635488, 0.011226182214561993, 0.010170996366245964
0.01580324232944701, 0.011643499597273661, 0.010555478331941946
0.015713523556373767, 0.02023134374248136, 0.013661338927424833
0.015151914111401378, 0.01977256729157474, 0.014409836884114548
0.015252314517743379, 0.015403819223623896, 0.012751496135553455
0.01526916063381501, 0.017701751399262444, 0.013511445852037972
0.015746862453503385, 0.019251948942962942, 0.013272102927563974
0.015508620728488085, 0.016770462712015904, 0.012806299549749961
0.01264838459576532, -0.005320142857170178, 0.009825335490326116
0.013397797299715365, -0.0007531718346995299, 0.010189380016651196
0.012548255222394207, -0.0059245791596150826, 0.009778730245395127
0.012808210994624078, -0.004161779772972867, 0.009968123570676448
0.023109028675895843, 0.05890379992086062, 0.014776501608225715
0.022439167124474232, 0.06130504672351743, 0.016643656792885847
0.022850424655398615, 0.05735178845706725, 0.014674011917032473
0.023465900735375435, 0.05563853256746332, 0.013108951419988928
0.022106233056097047, 0.05958468006338509, 0.01661129259480946
0.019643181139705465, 0.059686738172882, 0.02055979900849638
0.0205827379419531, 0.056984139892353035, 0.018177865810557366
0.0202041518874476, 0.05558260236484482, 0.018318399393889094
0.020009863428408308, 0.06137500017938483, 0.020525041602949816
0.02185394945136524, 0.05870074739506342, 0.016720550457483163
0.017839184264681583, 0.059111686418375595, 0.023221035120370864
0.017305342073510616, 0.06117831155750236, 0.024724449872939112
0.01724514715919576, 0.05818238712732386, 0.023852247646619272
0.01649120240728234, 0.05872614385282617, 0.02521290308854707
0.017789320245706373, 0.056007209103935876, 0.022282043639320487
0.011549157659473201, -0.0051026396949596835, 0.01169548498260267
0.012641302983850978, 0.0038270592732858287, 0.013008503659260257
0.011714447063779613, -0.008454549316303567, 0.010261453438753888
0.012415715488700359, -0.00014612094114623475, 0.011998322654724577
0.011274854973014208, -0.006935451347153844, 0.011508025861700367
0.013522233428886223, 0.012650529595959071, 0.01460073335458837
0.013364056612167483, 0.009479145139292634, 0.013777311832536417
0.013283357511567806, 0.014205487773469224, 0.01550944764317438
0.014209390194104957, 0.020241143512432655, 0.016079138152435488
0.013076582497881063, 0.016370341617892997, 0.016573832279732126
0.013154036347179317, 0.013282997277520142, 0.015402884421579208
0.013577670901416594, 0.010949763623468927, 0.01393529952842525
0.015255912684280266, 0.02165106165988928, 0.014883838957195234
0.01649482365831195, 0.026523272426715327, 0.014539562464679712
0.01647049217911616, 0.030730344803687866, 0.01600613566772525
0.01629725553569182, 0.029332588016165013, 0.01581119432048739
0.016789454367961566, 0.02392581961320201, 0.013183332316360043
0.016373285750641512, 0.03955563876060597, 0.019107658732158275
0.017648306992102167, 0.04205172985325909, 0.017915009400821604
0.01692044220229616, 0.041908917156797926, 0.019021812487555866
0.015992990040140268, 0.042983975729145585, 0.020849738500193796
0.01720492534357208, 0.0421093820018792, 0.018637279260661666
0.016972396132089226, 0.03898108849222458, 0.017966703320313485
0.013555941973374924, 0.008877366348728887, 0.013261226379262888
0.013505775929730715, 0.007926482530693288, 0.01301652045440055
0.013589493280735582, 0.010307227739577943, 0.013697153421870615
0.014444384257358445, 0.008739009856591888, 0.011772258656856611
0.014119853086736847, 0.006744421888461833, 0.011614782871799487
0.016578550976740082, 0.032946105167494126, 0.01658162571262291
0.01655946212390856, 0.03225507401689499, 0.01637963417568205
0.015178128765443687, 0.027393875134006634, 0.01694145090741603
0.01506614213239334, 0.022368370960874278, 0.015429804101952518
0.015684317506085885, 0.02788681750852598, 0.016302367026059545
0.01492417889509059, 0.028986471916990525, 0.017880694338531913
0.015256838003790511, 0.02679448670377347, 0.01661477619792228
0.013682707075714116, 0.04242181274492943, 0.024304638022595505
0.015560717155432419, 0.04359784666301737, 0.021736121497064557
0.014562520737570523, 0.0392540007817087, 0.02187392052382746
0.014355957822549392, 0.04307369923220565, 0.023459855451703787
0.015141156423049688, 0.03855332503839036, 0.02073167038562066
0.014831311880287534, 0.021364130125841096, 0.015466639299673325
0.014245565414242973, 0.02676591249513766, 0.018216673522605205
0.01451519368212257, 0.030290125697284013, 0.018970949321148362
0.014880952912891455, 0.02758290699216777, 0.017477518315789156
0.014511137655579034, 0.025951505104654708, 0.01751924593216286
0.014778378183455643, 0.02827735339373785, 0.017874570715398008
0.013077558780546249, 0.032776868414465685, 0.022074167240572245
0.014191251509959799, 0.03159829548312515, 0.01992343299565355
0.013112283659836715, 0.02947041660078402, 0.020915127542433458
0.012888472834142713, 0.027989056700538653, 0.02077351644951389
0.013809704742352833, 0.028951953252460506, 0.019641621556820556
0.012823120372308483, 0.027201295643430594, 0.0206135384080753
0.013520954640627879, 0.03126514203276597, 0.020869730135732477
0.013277552879576356, 0.03334205499831577, 0.021947381615908153
0.012931274514240894, 0.00735152436456788, 0.013746308461869956
0.012131700827206101, 0.00819236705058364, 0.015313800856082102
0.013069140239760281, 0.01908409449228763, 0.01750659516253549
0.012851183625727873, 0.006494637435262752, 0.013583960129283064
0.012054122880950566, 0.009200692064833099, 0.015780368887808253
0.010944278259225964, -0.001009205913609193, 0.014074900473382283
0.010736686753413417, -0.002289303575163162, 0.013970936237194503
0.010960112430836973, 0.0024306912084414755, 0.015229101200834911
0.010732117603705746, -0.009331355026431102, 0.011563147229324472
0.010766697769364406, -0.005642501987393729, 0.012772473772871662
0.011920472555854782, 0.020635334062996467, 0.019849839045821865
0.01216659096807869, 0.01610903887618507, 0.0179360668822722
0.011397684638328536, 0.013577836980319068, 0.01830030781426852
0.012209484261763555, 0.020273118466696768, 0.019270538010626496
0.012018666362600832, 0.012140522187631286, 0.01683365186916834
0.011581016730564721, 0.01917122625568593, 0.019893906603414488
0.011753106993460606, 0.018808935165324087, 0.019499590578641843
0.012205609269543637, 0.020245218951803423, 0.019267273836609186
0.012194328269548282, 0.02744898170280401, 0.02169087789395668
0.012014811409145655, 0.02568507023683891, 0.021386155646347608
0.012511867296168926, 0.023598379657277915, 0.01990338004555726
0.011998781120916817, 0.02188428040868104, 0.020142982691155747
0.011806287175819278, 0.021686535691995558, 0.02038150588146133
0.01225551757824946, 0.031658784079902115, 0.022999120180689808
0.012113417203257088, 0.04299019954349334, 0.02694986280281521
0.013225563675431644, 0.042170725878880905, 0.02494159191460566
0.012024634316980844, 0.040088664807280995, 0.026136057234964594
0.012768207431109707, 0.04314344302436213, 0.025976190729702312
0.011388021598155098, 0.04057011378021537, 0.02728968829691583
0.011674082420420609, 0.027024167767342643, 0.022370512625883802
0.012090102359448737, 0.03135156251279526, 0.023156328860820852
0.01159913813277514, 0.02599135594777499, 0.02214482458892013
0.01093560254758057, 0.02801501048604776, 0.023856484206192945
0.011707802071960122, 0.029544915644536988, 0.02315505369056959
0.010796182751872139, 0.028157013640531327, 0.02412205644584634
0.011431240829803829, 0.029379886826382106, 0.023533464968053436
0.011328913193448913, 0.026043499538842274, 0.022585452192735393
0.010234247680528493, 0.009525093788155723, 0.01878231271776123
0.01021936458612403, 0.006657919924709015, 0.01784054607391187
0.011121502427335159, 0.010999598574236396, 0.017869679704312802
0.011059933645245101, 0.014995396702497825, 0.019312883060768442
0.010675955355318558, 0.011385743731533867, 0.01870730320286655
0.010392064670356456, 0.009042128950783226, 0.01836905370437901
0.010698454426943149, 0.02077157437942981, 0.021823073517356552
0.01060192728230759, 0.0227708918653019, 0.02263829380520392
0.010109857350538164, 0.02491655623157705, 0.024122929876258872
0.010569444288784773, 0.02202309311667373, 0.022441031257796125
0.00998542258811223, 0.025064825007866193, 0.02436746004792332
0.010244560852785939, 0.030323780484125686, 0.025706540690169852
0.009197731692958414, 0.041823744426360485, 0.0311088570009199
0.009891538456309577, 0.035904827239469084, 0.028096484469804613
0.00868257906980789, 0.042713763995596066, 0.03219978234385917
0.010260308272442401, 0.0403583809648428, 0.02897976524984557
0.008782759911995053, 0.04196431004922936, 0.031799207039284724
0.009146871895316822, 0.008655222839080776, 0.020203896141538433
0.008690583878055453, 0.009537508674951106, 0.02121742455599013
0.008796025707253453, 0.00890447558574849, 0.020839570773885322
0.009089976202246063, 0.012077635199383955, 0.021438975519842373
0.008218674026639963, 0.005605849413409315, 0.02064425626003488
0.00832911754674763, 0.0070211482153106925, 0.020944131271432336
0.009224692585899988, 0.028695285975147082, 0.02675817294516629
0.008974180335382404, 0.02313369575357228, 0.025308160698728085
0.00975465437282853, 0.032983607015759114, 0.027352556630059827
0.009763595285399117, 0.031525325450927275, 0.026856324508561624
0.009644452104039431, 0.03325943989211174, 0.027615132829584145
0.008514112814343403, 0.028001326269844896, 0.02763346113027152
0.008773188844678132, 0.02809660817614132, 0.027262161607583796
0.015061137570259515, 0.054771669918299265, 0.026168932601607443
0.016214174247109737, 0.05489009032653274, 0.02439660944272318
0.014548049268356164, 0.05859258267271672, 0.028216065439632326
0.016098474576565124, 0.05841225013681695, 0.02572700769925838
0.01720073533546031, 0.05797794106569401, 0.023855261701835342
0.014703190442626496, 0.060825655466513265, 0.02868834491478774
0.012326051825729798, 0.060190688031915796, 0.03219236509468761
0.013978553026145953, 0.0576155143581526, 0.02878726050333344
0.012240779736219799, 0.05465567900111184, 0.030538397494433548
0.012631948783350635, 0.05469419499434627, 0.02994035915786265
0.011978827019901269, 0.058066721566028795, 0.032051556809500385
0.010880421436898994, 0.054811740343268626, 0.032701594046728046
0.010638398874291848, 0.05475530127108638, 0.03305863658289161
0.00881740753186125, 0.05819075141780963, 0.03698300186376103
0.007717060192737437, 0.06028704235921655, 0.039336907946139706
0.01064686206258895, 0.05812227061189161, 0.034133986427845237
0.009594101264087669, 0.057309008171544884, 0.035503160820122184
0.007123317416819401, 0.059547746195025474, 0.040016136453309176
0.007138348937193173, 0.056884732921031696, 0.03914502509669174
0.006144764788629515, 0.057506014597565706, 0.04085753879920596
0.008148055447846364, 0.05519329211522406, 0.03704652720525627
0.007857006314781461, 0.022017149739690905, 0.026677933648642727
0.008270149041458563, 0.02753335386333654, 0.027858443874040646
0.007216072319871291, 0.02044863664307444, 0.027157112857191357
0.007733273046499407, 0.026345121188799624, 0.028301358267903896
0.008925195973039028, 0.021143895468997812, 0.024726417471402768
0.008085385107520757, 0.023473476838799953, 0.02680387941797761
0.0074716032675611055, 0.0406859639303556, 0.03340494171683993
0.006999850484371435, 0.04090495353196421, 0.03420274338558817
0.008059335354478283, 0.040835164367392075, 0.03254847961340292
0.007951467828565907, 0.03788788334917581, 0.03175450009835852
0.007586271689533375, 0.04204909120345082, 0.033672404419460226
0.00685021190351127, 0.02494699034698013, 0.029203889290707736
0.006757338395893017, 0.02662953977852544, 0.029901553314487565
0.006906766705326289, 0.025248210802787722, 0.02921601602141065
0.006113003434963399, 0.03309238699682955, 0.03302454439268777
0.006857664578571561, 0.03196886177300765, 0.031506717150258316
0.00701142504330063, 0.029303944816379233, 0.03039145098209051
0.007483580151356059, 0.010431335500203323, 0.023403120212512535
0.007040304078087555, 0.012126468047512124, 0.024659138716108947
0.007294711768833851, 0.00830995320547032, 0.022990840668687593
0.007562707273050791, 0.00791502469565546, 0.022441351261170507
0.007160243158462408, 0.013129058715639396, 0.02480614876929136
0.007127467137770376, 0.01485155759124673, 0.025431157888491318
0.0070230816178464646, 0.020906804346367696, 0.027605947133653972
0.005724516077741035, 0.02269422666765867, 0.03019675593568804
0.006024884276471704, 0.02244398044011003, 0.02965126220861994
0.00583328655946515, 0.02029841164561564, 0.029239567013024916
0.00632840587982892, 0.02185745920186155, 0.02899009152164765
0.006214354473874406, 0.023499096702047653, 0.029706889925942864
0.005762520240408616, 0.03617107904039774, 0.034559967755351015
0.0057298832992770605, 0.03850988648982175, 0.03536926985138454
0.005859024915728737, 0.04052978857612417, 0.035828720033637525
0.005900586249870813, 0.0383057785132496, 0.03504311729549244
0.005998811970896274, 0.00515372279663363, 0.023956740098042495
0.00539661844673681, 0.016266864454411323, 0.028575076246534485
0.005380387920983016, 0.005372901114803647, 0.024983252586495634
0.005494828958876755, 0.015363201896174941, 0.028123593473028535
0.005164912563810726, 0.011631070477130207, 0.027393308373265104
0.004972004805297833, 0.024919440667496736, 0.032077579659016336
0.005730674082915308, 0.03160865306157006, 0.03312085036132893
0.005011471327638564, 0.029423096877804332, 0.03349746732435964
0.005769636492271297, 0.029361581163068605, 0.03232311870604556
0.00596604179092466, 0.032769007264071406, 0.03314386581272758
0.005324429850857956, 0.029301902819370798, 0.03298123318323767
0.005467129642208145, -0.02743108625862806, 0.013786218783114843
0.005602822693379976, -0.030705291227347685, 0.012446529274562638
0.006280940699120719, -0.025325537729446845, 0.013217228674609343
0.004671413711106549, -0.04299883578242266, 0.009679494199876753
0.004110313988078762, -0.04704198776401885, 0.009178335576521791
0.004387106602313911, -0.03310360805173987, 0.013554899409014887
0.004303000037532052, -0.026335209447314312, 0.015994188488411824
0.004600238205615458, -0.024514088687757965, 0.01614929794901077
0.004449182539720931, -0.034184510426279006, 0.013089126671734154
0.0032613622815393416, -0.04200242028921981, 0.012278423944286264
0.003440296157622356, -0.04068627972513707, 0.012449302467908919
0.00346845162576746, -0.04611439344328881, 0.010535100330957854
0.0038635679684363594, -0.04266079431060943, 0.011098362899294355
0.007630529663090948, -0.012586489390263425, 0.015422721402530162
0.006606709323623056, -0.016512857336469493, 0.01570392699033354
0.007025429334239951, -0.017506512229830115, 0.014704098502433408
0.0068267482209003316, -0.017545004410416433, 0.015004923346625159
0.006743705198559226, -0.01020780168568785, 0.017633628708881934
0.005430780168357387, -0.036270249682116715, 0.010801197685289683
0.005422182433994585, -0.036473784657474896, 0.010744519221551818
0.006121519653297571, -0.03002524617402307, 0.011847960855601409
0.010117841777653168, 0.016652554092829494, 0.021356021710994398
0.009991891842630982, 0.0103039220897932, 0.019427980784945606
0.010485817470980974, 0.015557664401331772, 0.020411717051383522
0.010376081882988764, 0.015200712272577454, 0.020464471510775586
0.009626909942957696, 0.011751394459648946, 0.020485644007333655
0.009842343809642074, 0.014088954142977072, 0.020930137182692682
0.009609652768478522, 0.00608581519394182, 0.018615677116310972
0.009363981717097911, -0.005228999910896689, 0.015164114899011484
0.008545480403915626, -0.005323129896428971, 0.016438564832327612
0.009275398496089753, -0.004367399978884913, 0.01559837500522572
0.009244226414003017, -0.005000923377756797, 0.01543278764825689
0.00928761490218129, -0.0007282243107345774, 0.016815876953497913
0.008959671745556374, 7.294399979406807e-05, 0.017610386054224964
0.008470362585408796, 0.003812319523409613, 0.01964338765243059
0.008383863105806794, 0.0014911205505660618, 0.018995801249265955
0.008810284436179188, -0.0018914438237705071, 0.01718229078568885
0.00850208242402015, 0.003467646410154521, 0.019477066085401215
0.00939345931010292, 0.004237512032906697, 0.01833362866015848
0.007033090413896615, -0.02206823382250888, 0.013130563493839092
0.00782518519423704, -0.014740125443310288, 0.01437276521658039
0.007486529233737209, -0.01776232630564815, 0.013879725334631363
0.007615927126313059, -0.018783884353763183, 0.013321232431652664
0.007293799324182622, -0.007904144274208356, 0.017543268179292797
0.007470820057053189, -0.00915214813040901, 0.01684229656394709
0.007502609599960266, -0.0036900350604532617, 0.018636110938991743
0.00758756274581468, -0.0007501313671007944, 0.019494434062318936
0.007688956214685183, 0.0031380654207603456, 0.020646934102664233
0.008557870817951693, 0.016661722562266966, 0.02380666630130946
0.007900162795133425, 0.013277353982816577, 0.023702740160370953
0.008047242322716306, 0.014835161813667605, 0.023992937220221944
0.007554796350958211, 0.013135887192907664, 0.0241933210883714
0.007445935369539969, 0.01940071468124623, 0.02645080315423218
0.007532640898100527, 0.01635550627187992, 0.025300874833734308
0.007585631714881668, 0.013157542523047051, 0.024152528367735283
0.006301888077073385, -0.01859623643325515, 0.015477919149794345
0.005827649332163684, -0.020021941346121876, 0.015745263820695514
0.0061430753336718606, -0.019333982846650218, 0.015478830201870204
0.006212054840466769, -0.01582389712229914, 0.016564295633738763
0.006777051079211912, -0.003921377130992694, 0.019698193272778393
0.006916374273827602, 0.0032052129924209642, 0.021874789775086445
0.006501043015993617, -0.005430041267700197, 0.01962190213913512
0.006401077981800264, 0.0019838813217327505, 0.022268230340982166
0.007225246814247942, -0.0006180508852644791, 0.020108772129318657
0.00654154961691299, -0.007951482705642162, 0.01871174603246004
0.004822227523994204, -0.034174225298247915, 0.012497783265103236
0.005069908262541682, -0.03448509995516683, 0.011995307858255323
0.00493283811354807, -0.02965856062386101, 0.013872508917312714
0.005844718594904916, -0.014733684861244895, 0.01751088594189594
0.005489015146429005, -0.016649202335969174, 0.01741868260129663
0.006148467847520303, -0.013847800719458936, 0.01733590670626694
0.006027579410498864, -0.011258666101221927, 0.018400883631584642
0.005527481828315939, -0.011951776728634324, 0.018947956048610545
0.00567396281831372, 0.017140044193184756, 0.028437311156625598
0.006336234105822279, 0.010621096950032795, 0.02525175091354291
0.006434095268999223, 0.009117905549484471, 0.02460176723066975
0.006319281527175785, 0.009700190415821479, 0.02497212138000357
0.006469921197656228, 0.01743396117187611, 0.02730769584213672
0.006745654247830652, 0.013717912571269355, 0.025648739359763112
0.0059057830901660426, -0.0021047222828424585, 0.021668695506837563
0.006283247899054011, -0.0041679107868167874, 0.020385965468141337
0.005817558219842726, -0.0018942260783489022, 0.02187725078954888
0.006436081590447378, -0.009669488070851048, 0.018299522948181754
0.006385284146662953, -0.008261573810040081, 0.01885172695823891
0.003301079079525415, -0.022952505340181804, 0.01868890868215713
0.003833528213544728, -0.015324376930416593, 0.020435812662820196
0.004412084284354597, -0.013511017730215366, 0.02015380353961325
0.005105628899114895, -0.010440948181911517, 0.020117522563616062
0.005162458698337214, 0.0031051571294216382, 0.024561824207928268
0.005950244543994362, 0.004145220806952336, 0.023694627979383688
0.00547142013438596, 0.003046069859780616, 0.024065513638588436
0.004947092136790359, 0.0024131015520018, 0.02466251996722645
0.005374656859436959, 0.0020592413513945184, 0.023884674312826933
0.00543207807711245, -0.0061011038615719545, 0.021066519949343523
0.0052533595284825685, -0.019278560068185267, 0.016897424008655865
0.005081944555625523, -0.021862047403687246, 0.01629195622076521
0.004690272625695942, -0.01930124194050265, 0.01777196765625756
0.00521115075231711, -0.014767174359520697, 0.018489824025174382
0.004927146283805554, 0.0149196062182941, 0.028847400936538606
0.004964776816146953, 0.016805491732336288, 0.029414348957704062
0.004305020705149801, 0.012138201514224409, 0.02887318431743042
0.004037285992535467, 0.01638618059193247, 0.03068645934335254
0.00404853822191026, 0.018599362451181857, 0.03140186262009807
0.003916384190911798, 0.0013385919238906965, 0.025879183683995655
0.003622242654932672, 0.003942936616642562, 0.02719471850365901
0.0033791289129163427, 0.0022583528645441536, 0.0270021395266878
0.0032905157991687055, 0.0038250502948723964, 0.027659335522608797
0.00382034671676786, 0.003992690264206737, 0.026910366831381385
0.00474254820950495, -0.0027685860766897643, 0.023244814775332665
0.004816071447280854, -0.0035922347155462058, 0.02285589453579894
0.004254462320996086, -0.004067210227265212, 0.023563401716309575
0.004062756415635735, -0.00882214879462051, 0.02226868672629136
0.002741256104566314, -0.018763496911114577, 0.02094081952329162
0.0038672389002924953, -0.01027924874416426, 0.022081620660419223
0.0026547705909661054, -0.014671588549084947, 0.022445232902997492
0.003131623134058898, -0.015001012366132292, 0.02161189461430581
0.0030767205843449646, -0.038670425094822256, 0.013708455275292956
0.002510241691464079, -0.04339997045727899, 0.012967242776599091
0.00397469782146148, -0.03352835275414097, 0.014057487404864594
0.004019175672670515, -0.03698682208166285, 0.012808439541908901
0.0036934218669851786, -0.03522066159865016, 0.01392276707444265
0.0038664180814840295, -0.026602657348822764, 0.01658290960934095
0.004001868112265266, -0.025003563779131148, 0.016915889252544097
0.0037755368936949266, -0.02775462118447452, 0.01633270714337818
0.004041091406923564, -0.020823035968564503, 0.018264188689167692
0.003977068580998724, -0.022822683385477063, 0.017689657785177546
0.004538977304559675, -0.017937196086769316, 0.01846770992902698
0.0028019062380671457, -0.02583687140767723, 0.018474214493028288
0.002819800536974443, -0.024352976770743436, 0.018948132334209944
0.0018446704462842156, -0.036801102107869944, 0.016218773656591277
0.003559463532244452, -0.032039457718880275, 0.01521376135352632
0.003425877665082167, -0.034084851914268535, 0.014726598573312003
0.003081873857129341, -0.03611676273118783, 0.014568711067783048
0.0018266333296178055, -0.04008456254354434, 0.015131110223294018
0.0017419593683681155, -0.0433261802067598, 0.014156983974050675
-0.0033645616385613317, -0.026676991352458664, 0.017310087483602604
-0.003520608119388863, -0.027484016809274477, 0.016795053084754027
-0.0027487532814676544, -0.03398482247465768, 0.01578274247442392
-0.0023392362961876583, -0.040165761316479406, 0.01431060154650677
-0.002476141032048772, -0.022671798471369554, 0.020013740308767774
-0.0034687525342647603, -0.016173648977072366, 0.020690358549821028
-0.0030234468649895153, -0.01845016727960706, 0.020601067081409512
-0.0027583609256652927, -0.029904139108618243, 0.01714734502427805
-0.002691869448709224, -0.03338064394161857, 0.016074700412367818
-0.0028270881239343196, -0.028284901472574054, 0.017589957747305172
-0.00349864698074489, -0.021061625657315022, 0.019000611649908558
-0.0038734871468876116, -0.0157285134926635, 0.020218734647075763
-0.0034779909070331034, -0.022133836820472617, 0.01867119277289258
-0.0036225479013660723, -0.01648596191379615, 0.020351172810464786
-0.005716292169759269, -0.011177285320642572, 0.018892371021369293
-0.005956707495898788, -0.016588314445549042, 0.016682834491471
-0.005324009908961062, -0.014053568860267516, 0.018531874844766007
-0.006079580357134989, -0.010555634669228871, 0.018534381423412565
-0.005393833578133769, -0.01285763982569654, 0.018827768579650486
-0.004545616871285996, -0.006393338442824989, 0.02231814997067126
-0.004253147411629408, -0.004595252864719889, 0.0233719689628075
-0.005143448992549453, -0.010010741305281136, 0.020183484809664844
-0.004457943834259614, -0.002345630580584441, 0.023808715148865355
-0.00416207813680674, -0.022262380064724127, 0.017570231488006183
-0.003992070638316079, -0.02295713500990062, 0.01759883832581668
-0.0041247242568984415, -0.02217006891602394, 0.017659105124866525
-0.004811935978953758, -0.012911779515728103, 0.0197180396822732
-0.007026728715662015, -0.013625215585546562, 0.01599599737929677
-0.007293825283632798, -0.015259549139762133, 0.015016185553842133
-0.00750912847767121, -0.010256853657445997, 0.016380979200616375
-0.006756376045753508, -0.01659303041468784, 0.015412029666008985
-0.006772367497097833, -0.019725136403062622, 0.014318949785388807
-0.005381285766606826, -0.007825574768752754, 0.020546585423286634
-0.005632806454513133, -0.008098740080837167, 0.020061136833900536
-0.0059934170839622755, -0.005524661319391772, 0.02036223361125836
-0.005609574773261733, -0.009393840645365083, 0.019662071248319344
-0.00619049221325835, -0.00846176612755627, 0.019066353996678033
-0.0022888511089398968, -0.04759861580965838, 0.01184780860181307
-0.004415063102834788, -0.034614280189889365, 0.012965938779984483
-0.0045456091080701665, -0.03244178781693921, 0.013502771349907985
-0.0043872377878411434, -0.03382724196355747, 0.013278365711269122
-0.004542936559473193, -0.025275369732062555, 0.015953971657303036
-0.0033200689223944015, -0.037257701680169564, 0.013787897190089852
-0.0032729273194369675, -0.03712726531716597, 0.013905130179081846
-0.005923728949626245, -0.02855455068844477, 0.012643009909818523
-0.006042798377160933, -0.025967937019400884, 0.013343397450430918
-0.005747735114855156, -0.024722079664771492, 0.014241384978801327
-0.005776730119106115, -0.027967442091293523, 0.0130788337386228
-0.005196816161679836, -0.021562457406127066, 0.016187376491035427
-0.0052283995709888, -0.018931754148219536, 0.0170289480418583
-0.004456285759957583, -0.023079992609892616, 0.016835899680375847
-0.004892137368806524, -0.020063606614649572, 0.017173443632051373
-0.004655609093099742, -0.03958595947433149, 0.010862215285513344
-0.004190839074568134, -0.04469731533408375, 0.009828821013444292
-0.004058760508159958, -0.030079244287262802, 0.015074749099190534
-0.004068154250970434, -0.028204657163710657, 0.015700057269807992
-0.0037354972704594707, -0.03641663508305398, 0.013420442887996174
-0.003515020623013445, -0.044272179668005215, 0.01106494747050598
-0.0029291119676001197, -0.04716691821469725, 0.010994328076881027
-0.0045501916291459275, 0.034470399863838014, 0.03584463201800395
-0.004845998488571875, 0.03723469710510577, 0.03629271974861554
-0.004716491101828418, 0.036735132673644394, 0.036327541860983865
-0.007256007255461227, 0.022909601477635804, 0.02789373338154904
-0.007035851467160404, 0.02330041694721606, 0.02836209118157234
-0.006582316654554685, 0.02684553541601852, 0.0302307447683099
-0.007178358638882904, 0.0230592071348843, 0.028062803425109365
-0.006681224970002439, 0.028516193312069976, 0.030629318447320225
-0.0073660263836623375, 0.025469342551019042, 0.028568444369261363
-0.007634743919403924, 0.029795885273094465, 0.029581255655181653
-0.003965739728651539, 0.011679526516048274, 0.029224757741196962
-0.0037681408913013865, 0.006104649783432755, 0.027678214169676807
-0.003578777099215807, 0.00910728000703545, 0.02896099727202217
-0.0035983604616784044, 0.013148195141355103, 0.03027002905351437
-0.004562412811858893, 0.0035006921029732373, 0.02560437929436131
-0.004142324247247493, 0.0006442866420031633, 0.025289680074087027
-0.0042937051920438705, 0.0014537508639422881, 0.025329770212422376
-0.0034995388106589397, -0.005018043505024846, 0.024377424054813534
-0.00552508330420467, -0.0013438722731854823, 0.02249603787880814
-0.005058862021002228, 0.002018041527944793, 0.024341522904300594
-0.005109594878916884, 0.0006737400938174826, 0.02381309333688262
-0.005702290378731843, -0.0015280766771773755, 0.022160752053006792
-0.005225629715075893, -0.00259967363273551, 0.02253793365979082
-0.005216668540326906, -0.0039709844001074406, 0.022092629473675983
-0.004127723137030282, 0.02753976616804758, 0.034214212652068324
-0.003996338684068514, 0.020030531807354684, 0.03194425524956544
-0.004510391657771188, 0.023728588406908474, 0.032378143365800416
-0.004401544566958368, 0.03009905677110232, 0.034639212276123925
-0.00640043886657851, 0.011752216179369657, 0.025512756670029176
-0.006069849572481594, 0.019274652540636296, 0.028522676118309612
-0.0064644488292384785, 0.01854326810511752, 0.02767078468717281
-0.006160769279832305, 0.012142026664532048, 0.02601209120304058
-0.006689871163077867, 0.01570274935689657, 0.026379017437187624
-0.006882147412240232, 0.016225556070460456, 0.026256086907323468
-0.006422913984100066, 0.01629411787946277, 0.0269874362385674
-0.005224707120871707, 0.05646631752939779, 0.041919410223162736
-0.009272130673389308, 0.05647571615454654, 0.0357245949365844
-0.009114521499855506, 0.057664541625541854, 0.036350572365770814
-0.009218646082373064, 0.05731901170032258, 0.036078900405473825
-0.011965443668616658, 0.05603924689491148, 0.03140909327149709
-0.01087360953941785, 0.056710899587933475, 0.03331956255049151
-0.007611237034018575, 0.05814698773165473, 0.03881915975112988
-0.011518575852241631, 0.058865478938379484, 0.033016827370929466
-0.012041490772764235, 0.058062695641873455, 0.031946262445717744
-0.008324026752260598, 0.05924599484589563, 0.03807271236880953
-0.014262136338594926, 0.055655057099342674, 0.027699510439938506
-0.014446982876965832, 0.05544878898194852, 0.027343965786330932
-0.010190896927822601, 0.0580205250159747, 0.03480177524347593
-0.013926127640608065, 0.05853497875786422, 0.029159900521350597
-0.010941533337032775, 0.05979221484923055, 0.034204929910384235
-0.006477029168615757, -0.004629285326944456, 0.01990665461202603
-0.006259146366461852, 0.003318857100146207, 0.022919784846644496
-0.0068864280841426035, 0.0010577758402108952, 0.02118000207445649
-0.006798678885128499, -0.004644126951650187, 0.01939946647366942
-0.006254871605282189, 0.004255013121699301, 0.023241286719294506
-0.006908425760277018, 0.0019896476286542096, 0.021459043584012905
-0.005805631919917535, 0.010837990059573501, 0.026126739163474237
-0.005334119710908534, 0.01580517731639109, 0.028505118315734282
-0.005220762396873583, 0.01274937195390088, 0.02766476637692978
-0.005486458068517648, 0.014889130956413428, 0.02796556050935
-0.005668613444563485, 0.006690603529681363, 0.024960215199468096
-0.004854612156096488, 0.007329372622363862, 0.026429127665515275
-0.00797207731582742, 0.009718032554235385, 0.02238583427075214
-0.008089795668695438, 0.016605276806784655, 0.024500218314351785
-0.007777772030135524, 0.017690096576347042, 0.02534832780334569
-0.008013699691087568, 0.012129560661484792, 0.023125543950955833
-0.008388491848966305, 0.017336418621361, 0.024278738242944218
-0.00741901521293147, 0.02002368916633572, 0.026685885288412755
-0.0063551538298145666, 0.02441498486772998, 0.029779615923252456
-0.006391745576165253, 0.02519137666790254, 0.02997920702769064
-0.006764959811853108, 0.023823348218090512, 0.028952311882016604
-0.005596481525000138, 0.023492353122392944, 0.030645725419086695
-0.006429406532964675, 0.023673589363524063, 0.02942057018925911
-0.006703205284410194, 0.02477073248746883, 0.029360008472351776
-0.00942105497931988, 0.02508289351409758, 0.02524301536854097
-0.009797699121306049, 0.029044170954285617, 0.025968558209731457
-0.008260246341270419, 0.032410013634807236, 0.02947461395732231
-0.0087991067343613, 0.03262236047056895, 0.028706643531746
-0.008721555737240993, 0.03264807426875746, 0.028835798005619476
-0.0095356346394848, 0.028997062382344965, 0.026360639702656043
-0.009276107437854144, 0.03209972518670214, 0.02779157298535597
-0.006973528096703609, 0.03692339424094714, 0.0329370592788726
-0.00672403001034164, 0.03906898506661721, 0.03402081732552857
-0.006468519461524426, 0.041816005034050356, 0.035309831109129074
-0.006228669812484444, 0.03626636077201596, 0.03387106449307911
-0.009252767012649628, 0.03854206739538855, 0.02993985299981193
-0.009363288234628002, 0.0365729744552054, 0.029124215736136515
-0.009803347796330712, 0.033653510545595997, 0.027485389669423654
-0.008565261074571656, 0.035878221478228625, 0.030138131171338692
-0.008376423202775145, 0.03626928060859617, 0.030559652412643853
-0.012121514613118075, 0.03144889992021067, 0.023123969724973943
-0.012071460676019602, 0.032503573398663554, 0.023553159730465706
