0.04347128070649317, 0.545925386952225, 0.4555862442397741
-0.1017951463747471, 0.5237064275015185, 0.45916583507101977
-0.09454689693538845, 0.5227456585681445, 0.45966075329888106
0.046662491325649876, 0.5637936063076123, 0.44969981571082684
-0.01047464494539366, 0.5524302182420863, 0.45405232504444915
-0.10876053818522739, 0.546152566963739, 0.4534535915086496
0.042499535861489336, 0.5749405905176018, 0.4448225990213006
-0.0948074789230918, 0.5707520403913092, 0.44474322661967164
-0.05934219992778003, 0.5878121798383984, 0.4376633577165544
-0.031482953264266686, 0.5818129205612366, 0.4415641700115535
-0.12828429670104316, 0.5740566916738172, 0.44160272989955185
0.02524964500283662, 0.6017652904201032, 0.42843965481463075
-0.06528847718143742, 0.5977065609092111, 0.43075909043500593
-0.06392260228993607, 0.6064895897738276, 0.42359421977200723
-0.15522020655205493, 0.6082137067104352, 0.4154930087326705
0.043076672690644, 0.610838200751231, 0.4197608365182796
-0.005768343129405197, 0.6100716293390411, 0.4212060249004901
-0.07074467561934793, 0.6216572732305646, 0.4056224593008781
-0.03158115817073265, 0.6291203344367977, 0.39374825887329623
-0.024151971530166034, 0.6260415452142645, 0.39954754248348223
-0.16278917752565716, 0.6284687571924935, 0.3832786817981873
0.03449722622525463, 0.6334430983447137, 0.38269661268166344
-0.13630579916231622, 0.6309136380177083, 0.3801794874067064
-0.05357366687825834, 0.6352894202178191, 0.3763105543993897
-0.06236826210290542, 0.6343666751288235, 0.37906816399444726
-0.06210838523462295, 0.6417695588578237, 0.3519030570651914
-0.160001320950603, 0.6350834922631772, 0.36550041609557515
-0.007175861055642326, 0.6394333738096465, 0.36407140107615904
-0.1139806366455679, 0.6412283720271895, 0.3475100200183662
0.05200433912709848, 0.6444206259111565, 0.33872688965314884
-0.02056389213733312, 0.6471242887414884, 0.3228818276777702
-0.16192667424546936, 0.6438351483174871, 0.3229820036519106
0.015982520883133844, 0.6475129302453246, 0.320392566014001
-0.06729808847249945, 0.6483597641527903, 0.308030338062101
-0.08240621343732368, 0.6469513445396803, 0.31838322003904185
-0.22276322914215935, 0.6371407617695524, 0.18335756133457343
-0.20503752527936858, 0.6316252952617183, 0.1145895603147267
-0.22733825374358577, 0.6362282168082827, 0.18110216012874034
-0.22879360837738472, 0.6261623918874135, 0.09647416181250817
-0.25264778957197037, 0.6271256521436918, 0.14288246039888025
-0.25383468550174415, 0.60842771631415, 0.026841721939208172
-0.2751935856266021, 0.6087482461165633, 0.08408754750844641
-0.29356273238394137, 0.5844243534371079, 0.02122747078040669
-0.28767075918991525, 0.5821069863900918, -0.010520850839450216
-0.30472692853980965, 0.5795765413736287, 0.04235962453093112
-0.3332953363864268, 0.540926158301316, -0.023366961392787135
-0.3252492426157664, 0.5362014793692007, -0.0549647972001973
-0.30933197172200716, 0.5326810937381581, -0.08020662596096609
-0.2660782561296225, 0.5503527442585099, -0.0957192619355712
-0.22009247626685646, 0.5449185641749362, -0.11506480374472702
-0.17395995082790297, 0.5316459671653033, -0.1255657132222068
-0.1415078590489879, 0.5212087434935702, -0.12927353245683432
-0.01134667634112802, 0.5491652434744583, -0.12069342224015404
-0.09908506088378652, 0.5341563343299206, -0.12653903384478177
-0.0683605418312824, 0.5432390734011905, -0.12408756184719993
-0.1575340559091025, 0.5304952845265662, -0.12688437550219742
-0.13752570167546244, 0.545715706387853, -0.12221336199127758
-0.09507920087122962, 0.5732100888791166, -0.10350151877852157
-0.14877690022138368, 0.5745052308168016, -0.10151906764444557
-0.032161778744106986, 0.63723456443764, 0.1197491475021372
0.018009794195923048, 0.6324286784722892, 0.08328306900699825
0.05349333066800293, 0.6329459885634903, 0.08856826039641937
-0.01186759709901725, 0.6271574993564981, 0.050356141945819013
-0.004674693450646084, 0.6288691706480025, 0.06066766598265495
0.06577644777752575, 0.6298730918394477, 0.06948509824406353
0.06830274360304119, 0.626225042858177, 0.04770181410816374
0.07031341057745459, 0.6295471852270369, 0.06779872952312255
-0.03992502370816724, 0.6184444697757007, 0.003666961764940342
-0.0775220226654677, 0.6226747723528371, 0.02725946521171377
-0.09691282559199992, 0.6238958235010412, 0.037846660790253756
-0.09249014130667399, 0.6270111059267346, 0.05586914887182237
-0.10138837708678862, 0.626813136548761, 0.05616106470557262
-0.03130400025897345, 0.6211626798611858, 0.016749711767119754
0.05126711018382969, 0.6177047167602814, 0.0006943113728228286
0.06900622622763765, 0.6179159408521767, 0.0027462353620883355
-0.09899806320075343, 0.6208367191311931, 0.020813206944760885
-0.0929717127190621, 0.62077216507981, 0.01965100834427801
-0.07078743905316218, 0.6094344683225971, -0.033030973193116285
-0.07357586539393735, 0.6053349367283422, -0.04851937865169891
0.06911738488065759, 0.6067148470415811, -0.043506547934647026
0.06283440595235962, 0.6065157986717787, -0.04462435864229579
-0.047096788239756215, 0.6126749611529256, -0.021892638805489417
0.0493823540198681, 0.6036171959421566, -0.05368562488766021
-0.008056981239511072, 0.6046603474581783, -0.05234469031231033
0.056471967019429595, 0.5940727251709464, -0.07386380930763783
-0.05190735801182482, 0.5949935200510535, -0.07219432554830761
-0.035262215960527386, 0.648114262124558, 0.3133216949443572
-0.11950373469629189, 0.6473922989916161, 0.29729729273801936
-0.18168334900870906, 0.6452064316432783, 0.2976321826224942
0.027348802678853236, 0.6498965209615681, 0.28945993112124346
-9.81621083231721e-05, 0.6495728263534624, 0.2999345238958294
-0.017216722113697087, 0.6502366834844843, 0.27890228298284564
0.04165500940372937, 0.6501313061523645, 0.2736084181721601
-0.15746932618637402, 0.6466180619116885, 0.2825834635701736
-0.11251777718745046, 0.6483505674837806, 0.27920022656826493
0.05869944714269082, 0.6499919659980039, 0.2638554821831907
-0.07237624441560835, 0.6487396348793109, 0.23266005086733163
-0.10522245304689132, 0.6485559290697761, 0.2601920930169214
-0.12778864907315693, 0.6411863146325196, 0.16708431021333808
-0.17872140887902227, 0.6390743043434192, 0.16086658487523614
-0.19316059345919145, 0.6432418295067314, 0.22590960348357042
-0.14111958266495842, 0.6365380456617591, 0.12933751971126803
-0.10754490696189933, 0.63646002345552, 0.12097630203787793
-0.1283658910854617, 0.6362618835632985, 0.12410194980783809
-0.2242146063033384, 0.632758430130948, 0.14181115888849172
-0.2343522731627825, 0.6261745129387004, 0.10402596444587528
-0.24609973538239763, 0.6204611306762702, 0.08399518234132601
-0.2618130488802334, 0.5983769206336063, -0.011023324935226028
-0.29546258319274743, 0.5911581304121245, 0.06384734844241857
-0.2938864571451997, 0.5827426621290639, 0.013746518874126097
-0.299049649452526, 0.5768996410161638, 0.005140180155577987
-0.29585125360438136, 0.5699443222475731, -0.03041200974704717
-0.287496268893383, 0.5639732596434426, -0.06147246620656076
-0.2687693330320279, 0.5597759824073497, -0.08613691478503308
-0.25457310452883597, 0.554652944431123, -0.09810018114724953
-0.2769513059018217, 0.5589657868866716, -0.08071322886767884
-0.18479760581700944, 0.5446890342505359, -0.12270126955424081
-0.1045084294904233, 0.5953211054583204, -0.06936741076026198
-0.14292656508680096, 0.5910058214050158, -0.07394891820602745
-0.13935486457145888, 0.5895338218567628, -0.07685069216220901
-0.06328351749806459, 0.5794510984668263, -0.09721458225290856
-0.1323638409783388, 0.6104843519345381, -0.021628194590504954
-0.11126815211630614, 0.6093551865969218, -0.028568436253232195
-0.054538985476478966, 0.6026915899723616, -0.05602451620257591
-0.05203447055161347, 0.5918188428662281, -0.0778483318172059
-0.1453459856455701, 0.5996866271551262, -0.05434085220637254
-0.24818275886022054, 0.6102915413393659, 0.02560650944659585
-0.243455351385449, 0.6085307111083005, 0.009696103747171326
-0.125032313519037, 0.6046216750497961, -0.0428360770271748
-0.11692193273651211, 0.6032128112168773, -0.04844788763311195
-0.1498186723168284, 0.6023242274435053, -0.0460346683273536
-0.20193642567096332, 0.6095871655292793, -0.013290105041764956
-0.23048577981103108, 0.6133841650882059, 0.019677353999702378
-0.19621803355303688, 0.6218574495240026, 0.04679355452619142
-0.13723545487416994, 0.6168597264275333, 0.006710301902046693
-0.1777992093572737, 0.6172008870988873, 0.01448632327730987
-0.2056019441265349, 0.6167023060677354, 0.021259565214278624
-0.2149535298107037, 0.617244078894051, 0.028829755310455688
-0.21097897525297896, 0.6308005446866067, 0.11232746398221971
-0.17645597595602736, 0.6231519541734698, 0.04723947529696923
-0.15790217471236118, 0.6259143798145186, 0.060319682594267274
-0.11874694291001897, 0.6211198910949449, 0.02522612933132322
-0.17470076041499027, 0.6247393876901792, 0.056302731545707696
-0.061608205294957474, 0.6266325584789398, 0.04974879187192211
-0.051880481610677445, 0.6258418710160214, 0.04440850666833931
-0.10289077754134074, 0.6350153104327538, 0.10963482759018556
-0.17338622621089256, 0.6340817998627091, 0.11629773700756013
-0.18352509644644938, 0.6363781619832318, 0.13842412346246374
-0.1566184512346636, 0.630352329541632, 0.08758515175435358
-0.1719910599519967, 0.6294688071071831, 0.08452743168238402
-0.09715390198422152, 0.6313416152135676, 0.0828739319136791
-0.11815605553542083, 0.6396916882213874, 0.14979920937871705
-0.17546267687258418, 0.6382216370323702, 0.15128638766430996
-0.039300809736821006, 0.6348525600076003, 0.10136736639483683
-0.03463390680220128, 0.6404829857206, 0.14597918466365006
-0.024490343589011497, 0.6408373851829994, 0.14901619245922568
0.007380542003790465, 0.6375655347178446, 0.12241935954802013
0.04163064460868647, 0.6396657533510457, 0.13924682064404578
-0.08265848752723776, 0.6435522879785622, 0.17591734449967233
-0.10160956252411894, 0.6426165883037613, 0.1731488818683176
-0.04242932688902514, 0.6376866931069062, 0.12332356276680498
-0.07090828041514571, 0.6398505054077303, 0.14067427980453825
0.04716651606366277, 0.6444734326577718, 0.18208099886573326
-0.01638779726059078, 0.6456812767069694, 0.19367862238802916
-0.045227786476946745, 0.6454095894316115, 0.19098968729780927
-0.02350778942208612, 0.6498120760599464, 0.24940938956419398
-0.09826737825804768, 0.6471217042749495, 0.22388255525265102
-0.11432101004935613, 0.6461444290037902, 0.21906287184611314
-0.09926585989303982, 0.6462304364416674, 0.21267414711465643
-0.04258893150416698, 0.6441724232835013, 0.1792302966041719
0.06043398011137527, 0.646360496816345, 0.20146257347694754
0.03907354951698269, 0.6464308547011985, 0.2023904841774155
-0.05501818940217967, 0.648543527159229, 0.22958975591501998
-0.0818717841581815, 0.6488693530399681, 0.24240939652501592
-0.0389947840024593, 0.6465085100941598, 0.2034074328454486
-0.05190496297642717, 0.6476302462111753, 0.21809261322778398
-0.4384480212323616, 0.23957230282969263, 0.3561753169193382
-0.3098556839443187, 0.6142878751540628, 0.24350124164304127
-0.3586356536881484, 0.4772703283189792, -0.01767115578981091
-0.36221154853417137, 0.4836833403400131, 0.017136121008254568
-0.35694979891132345, 0.49021512748727375, -0.01696492876373621
-0.34469347816098855, 0.5034028574542184, -0.054198906198064695
-0.25471946352615854, 0.5600757321185462, -0.09324030491556218
-0.23266645328300442, 0.526361064912076, -0.11959937577376457
-0.20008145163036883, 0.5739577511084049, -0.09691035593971407
-0.12457011838231608, 0.5602504480879662, -0.11506771944269242
-0.1505506846330935, 0.5626774577453725, -0.11230645800201136
-0.213349652601667, 0.572779172174409, -0.09494986673821791
-0.2229491184184155, 0.5983548941958948, -0.04267473918195185
-0.2028365788617481, 0.5964084900925516, -0.05363959265443611
-0.17505184737297252, 0.592800609651934, -0.06736472004423372
-0.1971491933137235, 0.5915066850855739, -0.06718401992024645
-0.09791381286979864, 0.5822296232612798, -0.09307546872367818
-0.17717040177294163, 0.578670443067441, -0.0927811288942082
-0.22281369437995113, 0.5889959216571266, -0.0650960804053989
-0.25079517557452763, 0.6076062567174549, 0.015698527903697107
-0.26790176272919175, 0.5852242424357555, -0.04535410265603514
-0.3682413917911267, 0.2239686789961431, -0.32763794525598045
-0.4052421917185968, 0.23200356859517623, 0.21305672217295937
-0.4179593449494841, 0.23342658944463576, 0.24684692503078326
-0.36757973766454727, 0.23340606436066616, 0.24183812319502906
-0.34272209489650746, 0.2359354640853998, 0.2787953402112422
-0.361701549254739, 0.23380639445391435, 0.2477770647056683
-0.36070630198322523, 0.23529567824110725, 0.2690933819520944
-0.37063879298682506, 0.23511485483013433, 0.26644226541158106
-0.19944101698449945, 0.6443094753694635, 0.28120281524318497
-0.14288443020827263, 0.6469358783451076, 0.2537463340224938
-0.27304903960315724, 0.6324340336809525, 0.2810306515092315
-0.15871938483135586, 0.6443939543002669, 0.21793604131057015
-0.18529186220618957, 0.6434845872117885, 0.21853330101119373
-0.173021888605373, 0.644125388228055, 0.22148363485124634
-0.1544144539047845, 0.6458998929247108, 0.23907854614361318
-0.18214512772889632, 0.6444189060968558, 0.2306402453096542
-0.21440202991374568, 0.6390676846414559, 0.19961713608816972
-0.4139258546283543, 0.2333762892392225, 0.24391614181671034
-0.26754603342416095, 0.5055200003274704, -0.11387718156593646
-0.24881727576442664, 0.48255384857352945, -0.11952394274635575
-0.4423168516560304, 0.49483140785365615, 0.15138006258067144
-0.4407915432211741, 0.49876075081377036, 0.17233453155541162
-0.44062763537413263, 0.4924457597997192, 0.17064569253434345
-0.4356429184057566, 0.3972136387883408, 0.19031997348737345
-0.4405581562009185, 0.4562884655154229, 0.15196832097083177
-0.4368675659570487, 0.4369693052729994, 0.1901945272445375
-0.44139011719709853, 0.46883648810645967, 0.13390823794620868
-0.4409553675166872, 0.4676519538631513, 0.07747346904402069
-0.44180071552349875, 0.490568028633076, 0.0884421132913834
-0.4411829799342394, 0.4681339953913053, 0.10768158664221328
-0.4405457640468984, 0.4486893711830563, 0.1156701974107682
-0.439236974620164, 0.40803948336306284, 0.14050700911169142
-0.43820399557393713, 0.38001249591016745, 0.13875681794365533
-0.4395174981378948, 0.4149481462369783, 0.14468051122783288
-0.43805566191300754, 0.3752182945668508, 0.1425565334811754
-0.44139837006079297, 0.4969005710298243, -0.05137035049630874
-0.44265214697616523, 0.5372202673480899, -0.03914425369757438
-0.44111149572185393, 0.4866843566891603, -0.044405845084682864
-0.4417187338290406, 0.505128137013936, -0.027802194810642444
-0.4406152679570924, 0.4674521020790408, -0.01698282268734777
-0.44145368460706713, 0.4960762652637267, -0.025181735186817766
-0.4405186668523648, 0.4647269402047718, -0.02168275402576291
-0.4414273196584139, 0.49014946610651755, 0.024604833922897675
-0.4404997499198815, 0.46810615322179006, -0.09737993194603899
-0.44187998099793735, 0.5154667056932106, -0.14129859669043907
-0.44303431635878665, 0.555412322579373, -0.2020386822135437
-0.44020101656147137, 0.45878086659432066, -0.15392684827972222
-0.4406575208324046, 0.47346017909997373, -0.09814236530533413
-0.4417124097274908, 0.5100415444145414, -0.1591520112770523
-0.44025393604576, 0.460542043661957, -0.1517077270064751
-0.4410350094799038, 0.48635192395357496, -0.10578449136909501
-0.4412621934457519, 0.49502621393522017, -0.17574765349643465
-0.4385564773597392, 0.40353828646136664, 0.05831428682604123
-0.4381613072140932, 0.39412216508416964, 0.040348560370084954
-0.43911714220872067, 0.4233067302312734, 0.0035916602994964216
-0.438578121496376, 0.4054820314139048, 0.04142571964139339
-0.4396070183039802, 0.4393414694417848, -0.028730170927428682
-0.4398013320132202, 0.44089876989547216, 0.01856246363713209
-0.4386332942373381, 0.4045417443276041, 0.07215635168205431
-0.44035558843601474, 0.47770296279227015, -0.30657963478921224
-0.44090198244616646, 0.4930375529157458, -0.29122835551294834
-0.44156384749284666, 0.514130318656765, -0.2925551079262726
-0.44076719790958074, 0.484549098953893, -0.25777606907982925
-0.4410188599851511, 0.49510089643445837, -0.278315075912799
-0.4407288334736802, 0.4809782365498574, -0.2391161495175169
-0.44190418008098076, 0.5259269657366681, -0.3007607576395088
-0.4414782822435063, 0.5149725417728193, -0.3206278098116353
-0.4399091049412733, 0.4589755339159801, -0.2700846032481363
-0.4398031223129305, 0.4471950456899843, -0.16419262989518368
-0.4397649779411126, 0.44549698815984917, -0.08414365920639219
-0.4389960456853481, 0.4241356974221638, -0.13154055411806134
-0.43975940994175994, 0.4460302265020274, -0.17328021463063853
-0.43722758449929694, 0.3735300723383215, -0.0499092224853094
-0.4395263082569445, 0.438581644869786, -0.062070113255849366
-0.4389618542303756, 0.4227803448914445, -0.08130837959396936
-0.44000553765990097, 0.45229299500215137, -0.08392011572541472
-0.4371300945300812, 0.3708266495309245, -0.056550089865448114
-0.43803147429053046, 0.3998957156252892, -0.2607363057795135
-0.4380308302269699, 0.3952449387803729, -0.2229101870091988
-0.4391839924957943, 0.4330571431099123, -0.2418492395564077
-0.4375570301118034, 0.3825191850684352, -0.23808236061962093
-0.43885447689717866, 0.42410301803912137, -0.2515540904919396
-0.43880012965439086, 0.4268364321944119, -0.28754428097112467
-0.438259610345613, 0.4013721354018226, -0.21544046247974155
-0.43931503311455233, 0.44669159711006196, -0.3202721594056293
-0.44088449109877376, 0.5070477942721046, -0.39440104449278796
-0.43991917654214174, 0.48016502385262944, -0.37987717249344627
-0.4412817588425549, 0.5266697212029554, -0.4236101821370125
-0.43919216610587825, 0.4735531684054871, -0.4059491924090888
-0.43997283996420394, 0.4938162129678786, -0.4136837698424195
-0.4387844242077064, 0.4582296764811924, -0.38904226543734655
-0.4372892992295484, 0.45058109941225244, -0.42931120944220463
-0.43653457185410105, 0.3719163253696517, -0.3385778136471421
-0.43732345294626984, 0.39121556081409026, -0.3318182549858089
-0.43928493550450487, 0.4477930255229584, -0.3329933695796565
-0.43641903706898055, 0.3718864280420921, -0.34542091825798493
-0.4376937482544776, 0.4245470015747244, -0.37944734868404717
-0.43764772423300197, 0.41773705987237, -0.3679451709353893
-0.4371915352350402, 0.4381485283115645, -0.4209326316122801
-0.43358184905409425, 0.3639444730578312, -0.4130512410941491
-0.4163469353101829, 0.5280750087362465, -0.4633987382140812
-0.4321567144402626, 0.4434080764415822, -0.4539340956916613
-0.4258530017988261, 0.40197686554283063, -0.45133821269413943
-0.4087183817976695, 0.4286459900640964, -0.4521276651384559
-0.4028939966947376, 0.3718740785070809, -0.43128164758357124
-0.40208010791536697, 0.3548879533132213, -0.43052892903369977
-0.40979589126720056, 0.5498899765481376, -0.43698823610918724
-0.4031360609043585, 0.38895454498826393, -0.3883792125261625
-0.40238760509060956, 0.3753782589142306, -0.40068830583393333
-0.4013956776631735, 0.3500762836569456, -0.3861067602474686
-0.40275695278419227, 0.37502816287148216, -0.36481662404519
-0.40283334196536186, 0.38737598124611333, -0.40989477508897987
-0.4073764120481712, 0.5122406748444265, -0.3512651227411949
-0.4083123824121383, 0.5450155996390762, -0.3490426991923268
-0.407325641164735, 0.512408371785068, -0.3473669149995431
-0.4061190545916837, 0.46963857062448294, -0.3513033322369083
-0.40709583762237866, 0.5015397951809497, -0.35374080064828106
-0.40750488106479665, 0.5051798820842064, -0.3748374470208973
-0.4017363741739885, 0.34456163852644645, -0.23708503921276117
-0.4045353559700472, 0.4270942002400763, -0.3340796429320947
-0.40399347039526884, 0.4110799744195221, -0.30248042783276063
-0.40311736405412696, 0.3852656585095444, -0.27895750243894574
-0.40227240111103424, 0.36030647047423164, -0.233911778475606
-0.40315539250557964, 0.38642960992617836, -0.29552080131631653
-0.40241275011042815, 0.3644748088960155, -0.2494773102165355
-0.403917979653019, 0.40886307641885195, -0.3031088467578018
-0.40246220008083405, 0.3697572788516514, -0.09551449632354142
-0.4032427456646166, 0.3936739600964604, -0.12006963457148533
-0.4026299452643461, 0.37441231450849677, -0.11989492118636308
-0.4037862697860002, 0.40883260251384623, -0.19609166128076644
-0.4044425455711753, 0.4294038803210301, -0.19852044081070633
-0.4017603096159439, 0.3458896170913131, -0.16646207503321897
-0.40275442028509606, 0.3787074992640565, -0.10485293886002753
-0.4035645233270515, 0.40184973711361033, -0.19653645128293373
-0.4047135511625857, 0.4385026743711589, -0.1757252648237816
-0.40274444982937135, 0.37744246903059736, -0.1423457800228374
-0.4071020344681878, 0.512979681334081, -0.21754936241112655
-0.40706297127558205, 0.509793854588603, -0.271880000335613
-0.40671576197757575, 0.4997907004080292, -0.24304360072732628
-0.40708491290355614, 0.5109348074485793, -0.2594843698443016
-0.4085757771444597, 0.5569793857383711, -0.29688717842616014
-0.4072438757499335, 0.5165008791431109, -0.24512518018579094
-0.4058692219173734, 0.47418583796710123, -0.2067135350399471
-0.407708878846459, 0.5308602525503469, -0.2568473182777789
-0.4065664637344531, 0.4991019882988251, -0.09002639502685321
-0.4062503026751223, 0.4895301933865784, -0.06974809595304228
-0.4074753232048809, 0.5279272473891675, -0.08876989158767412
-0.4084349452710059, 0.5573445822941645, -0.13373327646726924
-0.40679133801898726, 0.5056418959776036, -0.11664512097235194
-0.4077465293604432, 0.5363074612706384, -0.09845977998860053
-0.4083307139768206, 0.5528767724158339, -0.18672148845814876
-0.40670110754278976, 0.503869838100103, -0.06721573427129045
-0.4077807085536108, 0.5368141870767527, -0.12466560660982579
-0.40648895875205626, 0.49683454680985595, -0.08146149289190054
-0.40363282833452085, 0.4063502183429011, -0.005904112055807585
-0.40300243367634403, 0.38688277772375496, -0.012451939377091478
-0.4027587350070873, 0.37826216520593153, 0.017013850012491886
-0.40289604248421873, 0.38257630324809955, 0.016280428814303236
-0.40270610110217475, 0.3758558368711701, 0.039289274777381436
-0.40280452596494365, 0.38132753752310866, -0.030768665049216205
-0.40364982695383855, 0.4069656267135076, -0.008371439342922527
-0.4029929751914387, 0.3855498554175059, 0.01786768810737108
-0.4031350335295371, 0.37136227835189917, 0.14605574123293155
-0.4041204509024634, 0.4124232101267725, 0.10824328218332607
-0.40395960006836085, 0.40632923190603343, 0.11226291542145769
-0.403190682552951, 0.3808248320504076, 0.11864750306717592
-0.40368122623077035, 0.3893474571337835, 0.1419861237938383
-0.40818763707886135, 0.5489085996289386, 0.02744549594286875
-0.40559163545527843, 0.4646023401243333, 0.08302636165461201
-0.40863534560055786, 0.5628550168458819, 0.03904953830343047
-0.4087865639831536, 0.5675142016268678, 0.0448041210212852
-0.40760750565021736, 0.531159702700369, 0.000884563943078774
-0.408120546969272, 0.5458484748768032, 0.06036911568288053
-0.4064852801128993, 0.49373656914880104, 0.05986556162927619
-0.4075476990356527, 0.5281888486351576, 0.03891344072635468
-0.40793146236841804, 0.541272236832055, 0.008528446383184125
-0.4041948566878785, 0.36382310584166716, 0.18474624602311615
-0.40813143097208904, 0.5292399904591459, 0.13299307586411555
-0.408785064622931, 0.5459963590931045, 0.14821540150391682
-0.4079054128997855, 0.5247320870873211, 0.12358742883818534
-0.408822765435771, 0.5495529190705006, 0.14075277948100662
-0.4094612631630898, 0.5654009872911767, 0.15729802940264184
-0.40860834444216304, 0.5378602099070275, 0.15571130939555183
-0.41051964174929534, 0.5286481112507312, 0.18255716665478994
-0.4074109699703289, 0.37094574447520645, 0.197660166051024
-0.4124873565134346, 0.6583220674964696, -0.09622765145848072
-0.4127155764980478, 0.6616138275519818, -0.17670362334822132
-0.4108407657654418, 0.6196508639019087, -0.057656606938240734
-0.41139909283361803, 0.6315024345645597, -0.11654745280709594
-0.4126859346069851, 0.6626687943174754, -0.11239522666074006
-0.4129288499945793, 0.6662809239801136, -0.1941149424742915
-0.41226399255165475, 0.6512695975430949, -0.15662576293509708
-0.41189907055665764, 0.6437726920494145, -0.1090794456371881
-0.41229327432289503, 0.6540884743949806, -0.07989131326121748
-0.40803619584829437, 0.546044388484286, -0.038813986929551396
-0.4060000434531095, 0.4803468013600536, 0.00022045069013765586
-0.40656586835053343, 0.4997463635039947, -0.043909459062455206
-0.40649082247846646, 0.4966939547600687, -0.02409505438250359
-0.4073831572653727, 0.5244148442108485, -0.010019277084544557
-0.4058960169485194, 0.4762968953981791, 0.022408198862697515
-0.4081091554548487, 0.5484381731145977, -0.0413688485326294
-0.4058958625375044, 0.4765659882336971, 0.014429811385121834
-0.40610122202491616, 0.4818822179219703, 0.04863589909706695
-0.4440620316486491, 0.5870328791404317, -0.3940559242963904
-0.4436204650172591, 0.5778106484849015, -0.37450265542914846
-0.4454430349935494, 0.6148588701280169, -0.4095510018058936
-0.4435508305035319, 0.5776249365764248, -0.4283952809196075
-0.4438190032788582, 0.5817668807374637, -0.3747479949383071
-0.44279052711607764, 0.555626030463091, -0.3029026318035869
-0.44145854310116234, 0.5033689725928121, -0.217486698302942
-0.4414570066759344, 0.5067112549790165, -0.25647447828774106
-0.44274891148608553, 0.5527922014781199, -0.2864360249615385
-0.44205884853574373, 0.5300352773932552, -0.2917633811135763
-0.4422102314473436, 0.5299585777873722, -0.23236532066968063
-0.4422497308173134, 0.5292406554806495, -0.20884985428175684
-0.4408713943525018, 0.48440540179943964, -0.22660809478545677
-0.40639363861770983, 0.4821578094557657, 0.10740272495881242
-0.40744588487893163, 0.5065919306261429, 0.1336268697073978
-0.4063190480492267, 0.4761619653826314, 0.1179733778645203
-0.4076404889305968, 0.5221624773315932, 0.10625945344886595
-0.40677791577104466, 0.4776585356829134, 0.15610854035982305
-0.41057333353810754, 0.6118746833744103, 0.06272131386629314
-0.41269643533986644, 0.6638994149744541, 0.035115040176845295
-0.4123139364301965, 0.6546079935907813, 0.02095979425377095
-0.4116440854687923, 0.6381742278177965, 0.03429126415999098
-0.41156402507833756, 0.6360658843830057, 0.06977763708389831
-0.4105132074766192, 0.6105253368430433, 0.03435733013597217
-0.4115450601222781, 0.6357188033248249, 0.04237135381286644
-0.4109751819679858, 0.6218702149407505, 0.022567292214015974
-0.41308988753066783, 0.6737850778554317, -0.02746653300231136
-0.4128431464643991, 0.6525867038630683, 0.11985333613114334
-0.4136293522898202, 0.673040979931302, 0.10723479554476788
-0.414698850889637, 0.6730331049761826, 0.15109697906763184
-0.4115084586714368, 0.6187966904431986, 0.13922742234935448
-0.4085352201136088, 0.49616666523949204, 0.17504464795831293
-0.4092052184160078, 0.49113203183354415, 0.18112095369135034
-0.41698418393617326, 0.6500420737494689, 0.18751661627677188
-0.41055603061843726, 0.4672311564154796, 0.1935881337013587
-0.442365681993628, 0.5605347687030996, 0.18954331320863677
-0.4473061023259327, 0.6103850443437571, 0.149725581645742
-0.44734873066895864, 0.6422224182969342, 0.16379676948973523
-0.4451705471505494, 0.576718405409498, 0.0877690496111255
-0.4464751812910032, 0.6190329908064489, 0.10013517926535014
-0.4466642958757797, 0.6282834370225323, 0.10003173037088714
-0.4461430570555862, 0.6330971002393286, 0.08187833226970678
-0.4462003656398609, 0.5762606128455252, 0.11812792772377605
-0.4401664346446593, 0.49636811018455396, 0.18110318694555042
-0.4447013552305587, 0.5569066049629907, 0.16631895597451873
-0.4173155063861478, 0.5510565551751414, 0.19450037417722732
-0.425275733785027, 0.3587997361916031, 0.2000118437295675
-0.4279312707867755, 0.47134042883134064, 0.1959585266471045
-0.43456565527379076, 0.6417162591831544, 0.19120810180673609
-0.43511657041852914, 0.6624102830342711, 0.19052035269865886
-0.43764921827302905, 0.5134884873193601, 0.193517051642226
-0.43244321167364647, 0.5426677830996276, 0.1942311486015031
-0.44454210190258103, 0.5388814552110686, 0.1240256284099058
-0.444295451911443, 0.5569271036006447, 0.0885225280797012
-0.44314344426403324, 0.5121823652222539, 0.12438407071887866
-0.4440487002293748, 0.5521673593040135, 0.0886631078570116
-0.44364242920695485, 0.5403181105431806, 0.09516633736948296
-0.4456628327750083, 0.6307496587051185, -0.0194102027436937
-0.4450598057177675, 0.6030935086153572, 0.02123397321306181
-0.446312367134851, 0.6571990766618848, -0.045973132127242314
-0.44588873674766816, 0.6380214564538854, -0.01871425118623721
-0.4445511336286866, 0.600893043083759, -0.05339748612707005
-0.44391098867650003, 0.5794188129952581, -0.05089452953873061
-0.44430274268516, 0.5876584652963612, -0.02715618060612055
-0.39321729716160186, 0.2254886815944173, -0.41504384384510806
-0.39676613293843416, 0.27585580090132195, -0.4181889669768505
-0.40307101329623557, 0.3355374515792724, -0.44220723802110734
-0.429941473198716, 0.4084983476573617, -0.45096582811275276
-0.4284020652026555, 0.309633161239598, -0.42301933105745215
-0.4295485265664831, 0.3309478483009304, -0.43182203855363693
-0.4189711548603678, 0.22124157930979949, -0.43236835500409376
-0.423216190889252, 0.5167535038554318, -0.46222528136354124
-0.40916328015126435, 0.47962636871109565, -0.45474048893816965
-0.4080237044625534, 0.4792685192530232, -0.4469903024972471
-0.4090905936455725, 0.5129668598338014, -0.44596065533755
-0.4152763526115521, 0.6647569931591196, -0.4562135118891866
-0.4077345525328832, 0.506767957815008, -0.3952471131214559
-0.4062875695525645, 0.4726895384521265, -0.36502024862106475
-0.40653444627454666, 0.47902131607140264, -0.3624677977777637
-0.4078671324047814, 0.510147030571117, -0.39419330077307346
-0.4064364521507138, 0.4763570214527777, -0.3657303591852358
-0.40691088474120163, 0.48517022853709607, -0.41080504280049024
-0.4124394249661864, 0.6036072356214055, -0.45145689680110823
-0.41586042802407214, 0.6705099908525076, -0.46207883296850755
-0.4412498909163453, 0.5621617067240094, -0.45318883019822803
-0.44260411956109497, 0.5540953862015314, -0.35551313920029487
-0.4426247116975802, 0.5547298206724165, -0.35513074443275483
-0.44212180459081385, 0.5417704300820873, -0.40984620278383943
-0.44218206929433224, 0.5400631298619937, -0.34492974977198626
-0.44128457646872343, 0.513754149079485, -0.38562502156697204
-0.44249471283641395, 0.551417944306777, -0.3699556638099778
-0.441433911121061, 0.5364866271218343, -0.4314756434961773
-0.4395376626589157, 0.5068187184158979, -0.43773428093504724
-0.44612146716510426, 0.633719743496977, -0.4388445339530652
-0.44334872951030374, 0.6759148332562588, -0.4722357432054839
-0.4199788871544718, 0.6010035722184968, -0.46973790296545664
-0.44034586697411554, 0.5551687662698925, -0.4581082499613798
-0.416320947604128, 0.6915795948810008, 0.10250527769886042
-0.41021530354325564, 0.589272632570313, 0.1446393015854808
-0.4105705601554073, 0.6079564921048555, 0.0994956060932386
-0.4108105319914421, 0.6120084117195067, 0.1075545933458947
-0.41262379986430603, 0.6584974744442843, 0.09703762965915051
-0.4101841256156176, 0.5947854273818064, 0.11642037446495138
-0.4145792420753588, 0.6868558630764727, 0.03719022302927403
-0.41705308864765844, 0.6070916662866029, 0.19190750066286194
-0.41156659812880436, 0.5777573853273944, 0.17967580757943974
-0.41776070371196405, 0.6834471297044084, 0.17675136603164487
-0.4457673720072601, 0.6813249116537815, -0.04073200673782787
-0.447810719301197, 0.6398397265581052, 0.14883421567496932
-0.4471118052980412, 0.6406859343952055, 0.10878303122990714
-0.4472516376375466, 0.6612518501202764, 0.1034739771750259
-0.44760724656280587, 0.6505454389963896, 0.13045422135411233
-0.4498655333849173, 0.6861864736839904, 0.17862115630163294
-0.4474733014081059, 0.6341274030402281, 0.17298856765594028
-0.4486968036539658, 0.6762536893809613, 0.1618608160529292
-0.4461438026391008, 0.6871606886898322, 0.10525188415781477
-0.44135741081493857, 0.6930654520617363, 0.07899286794359137
-0.4314192422104671, 0.6923496624349053, -0.01243517436185491
-0.4350812119813834, 0.695396616388866, 0.14300803991924066
-0.41787376111577335, 0.690731895417616, -0.03069751325885875
-0.40574641851430326, 0.3794127715438214, 0.1939799416117118
-0.4056751619318025, 0.384645573503553, 0.1915226880606165
-0.40172954061365673, 0.2829526530843455, 0.1754060177884198
-0.40233419254252056, 0.26237332704382316, 0.19099882491108333
-0.40543354287732714, 0.43910379622906526, 0.1491879308811205
-0.4036623772323051, 0.3799178358546992, 0.16991177518613595
-0.404003773011513, 0.39198683084893615, 0.16384322852447075
-0.404667046589205, 0.42806110136757763, 0.11242315511931648
-0.40638757487035615, 0.463593028306335, 0.16122336291050438
-0.4009499073881694, 0.2676189776428241, 0.13400090644838253
-0.4002947536667678, 0.23952569614231486, 0.1064092334505604
-0.4009677954513969, 0.25986227324955435, 0.1534788056474397
-0.400923378207112, 0.25523662195531455, 0.15758558104594247
-0.4005132220977914, 0.25308511894586533, 0.10640253502747055
-0.4046279479691021, 0.43628636006755844, 0.028430568016643957
-0.4053887752824414, 0.46047040468486766, 0.01652647445632293
-0.40414779214345176, 0.42053758850421125, 0.05038292455820793
-0.4033794734758015, 0.39533882559055256, 0.08546395630809075
-0.40388152326965826, 0.41318675368951385, 0.021502555453334966
-0.40384608995016075, 0.41183924297795355, 0.02862540668552386
-0.40435464991912823, 0.42740526857173955, 0.03846422097259127
-0.4041944109160286, 0.42174686237267645, 0.05774717063004235
-0.4030972171541511, 0.2915301355679206, 0.19284982116303032
-0.40242811246632737, 0.25356818810424314, 0.19495104662080545
-0.4024761633334533, 0.35258318494191415, 0.14019596555073047
-0.40144048834351637, 0.2938374085803016, 0.1410510616310207
-0.4014965358647222, 0.3027662298273636, 0.13031203171938005
-0.40253921192401854, 0.3483537749337752, 0.15466020313847273
-0.40255010556170157, 0.3448157984302001, 0.16237996491677115
-0.4017456683534817, 0.34145024878118946, 0.038114774343557895
-0.40083303984053903, 0.2832478209949205, 0.04451004125160344
-0.4009854074748255, 0.2885911840408406, 0.08960985523758769
-0.40169561922189356, 0.33427618928119607, 0.08049945189015321
-0.4016667017791219, 0.3378816171050405, 0.02317882125256312
-0.40178461264118015, 0.34300349506652245, 0.04766273514100606
-0.40102369942672145, 0.2907081976476096, 0.09277243267639541
-0.40124384039988625, 0.3130203623747638, 0.0039067638533340715
-0.4010560216972779, 0.29485777239991234, 0.07050362398819553
-0.401236581041581, 0.23314570358682318, 0.045745671505861396
-0.4095867163432505, 0.229200597809782, 0.0609659567111371
-0.4055325904854262, 0.23287524288436418, 0.15394604488931077
-0.42814247815401857, 0.23346634261039287, 0.13418832017563415
-0.43018060203702924, 0.2331393456345618, -0.00972846133750337
-0.4340396909367521, 0.30180065306066095, -0.017325012630236565
-0.4318741392211575, 0.2569558509474108, -0.015778123882757955
-0.4316411661016784, 0.25656240960458443, 0.06966196499806948
-0.4308877902988858, 0.24075918330513604, 0.06631025712127993
-0.4333966801015546, 0.2894119708832815, 0.0009731872812771634
-0.43278320844837576, 0.2765229602075067, -0.0021504405311976865
-0.4321794300707502, 0.2669216594482159, 0.054126929051604926
-0.4323582738822098, 0.2673178276876612, -0.009650200496091959
-0.4305032647785698, 0.23861316016576095, 0.11888686570622659
-0.43259661729952975, 0.27961205891816865, 0.160106568220743
-0.43172694918418913, 0.2659514045521431, 0.16251958500322797
-0.43650588700578075, 0.34410381095150555, 0.11899472831490365
-0.4327472576371828, 0.2814794154412749, 0.16458228608385816
-0.4368642520371101, 0.35835954676754395, 0.03341590554094878
-0.43719833560374766, 0.37079873539440844, -0.014798171343161614
-0.4373096216577294, 0.3696829070214816, 0.05217655907065979
-0.43728163712513135, 0.36850460774356436, 0.05836757412879188
-0.4392254666802687, 0.4294324392373899, -0.041417047687317965
-0.43716313470620294, 0.36980265688267977, -0.014684676266910288
-0.4394205907949486, 0.4338356332542182, -0.024391742790744644
-0.43764358470730974, 0.3833770935723532, -0.01590473711614349
-0.4331156154706318, 0.2873611004243213, 0.11244085452772222
-0.43209701757837843, 0.2661160914720303, 0.10174771333496108
-0.4330153027480951, 0.2874191844961797, 0.12457123060482755
-0.4315375006451504, 0.2583665450978512, 0.1199094176459144
-0.4309028710890513, 0.25252239839310847, 0.15856938573274007
-0.43745412429480474, 0.3591477804800388, 0.14094859134480314
-0.4381147160899789, 0.38545120757894014, 0.09952213650195695
-0.4372945278365858, 0.35564071745463816, 0.13685330768210544
-0.4376397480409645, 0.3701434816942405, 0.11145605260956071
-0.4390043619120642, 0.41238832585714447, 0.08576310433078448
-0.4344089229382229, 0.3257869659870432, 0.175314897577
-0.43526264729947406, 0.3295509848974084, 0.16731256381471035
-0.43629813556181946, 0.42344770598361225, 0.19141091107258942
-0.43253918028056226, 0.2866552614194023, 0.17573427832516397
-0.43626115959135847, 0.3713511817931203, 0.1737575272703522
-0.4391537364738486, 0.41943245544571817, 0.1559741048579706
-0.43552813296392834, 0.3672891865370192, 0.18094438720833064
-0.4270238143367832, 0.32106197255271435, -0.44114018842172137
-0.41120193763120366, 0.37105705425401686, -0.4483634605504565
-0.416102531690733, 0.31026654045589347, -0.44268820735527203
-0.40390530014229825, 0.3018397658833335, -0.4415576390295689
-0.4093444541265412, 0.2911050047418629, -0.4407626867642267
-0.40396132135422963, 0.22067784034962548, -0.42662587228444715
-0.4290015154320257, 0.6699110467091136, -0.47498083252679535
-0.4373836746485066, 0.5998682502871505, -0.46948299136184596
-0.41315417698671536, 0.6268843361689316, -0.4372524687356195
-0.4092650249568136, 0.5654628163861076, -0.3693562603705175
-0.4100168729297498, 0.5707511256231199, -0.40328361970525056
-0.41215901911723485, 0.6123332085554322, -0.4161979612818557
-0.4128625389565949, 0.6246112997831228, -0.42479257648182933
-0.4149561271329967, 0.6673550211799053, -0.4268189194730593
-0.4096213391676457, 0.5780917858443549, -0.3525891863199126
-0.4107361320120798, 0.5991678805452882, -0.3599236692108427
-0.4143497365043443, 0.6641742470972174, -0.3955473464373065
-0.41168877460966274, 0.6136194310642897, -0.3789243019821832
-0.4125319136715341, 0.6358152203972864, -0.3620909136939565
-0.4079599330107306, 0.5357982863953182, -0.3325855606398372
-0.4058712845438801, 0.46916918770724314, -0.3104988654312116
-0.4075074813125413, 0.5221519450538795, -0.31260373013397774
-0.4057867856051163, 0.46916369137554004, -0.2576675102189271
-0.4075911995599779, 0.5244952104249958, -0.31981012071934917
-0.4057603318750609, 0.46705812199611507, -0.28174733295698534
-0.40778976041925413, 0.5311564848271222, -0.3155950539469138
-0.4054770875729672, 0.45750397350567407, -0.2887627552453826
-0.40617823057808666, 0.4824730939076866, -0.24593478845222674
-0.4129712605179896, 0.6615465204943844, -0.24575219509662252
-0.41207758686240725, 0.6387816026994679, -0.25271255135820475
-0.4120079643255886, 0.63711592809365, -0.2526133758903771
-0.41096163590449936, 0.6096387819665536, -0.26566096186466814
-0.41129968202477796, 0.6231912878186959, -0.23363974852833003
-0.40981461846233225, 0.5906685382861603, -0.21364356553991581
-0.41301762052453656, 0.6658758589064435, -0.2266661540647657
-0.41139230781945985, 0.6238788650284386, -0.24286201994089854
-0.4073710089049164, 0.5220987776797406, -0.19978434917022259
-0.4054778176942393, 0.4643050704862287, -0.10087631330418112
-0.4060791900848597, 0.48266612205710097, -0.13217198918322035
-0.4079896222365841, 0.542247206231505, -0.17824764728607567
-0.40617394230275705, 0.4858795047308667, -0.12345018464522985
-0.4064787830561361, 0.49540534211216397, -0.13000555088410806
-0.40596770227448953, 0.4776267418145127, -0.19605550539014133
-0.40782539117924343, 0.5369070380515573, -0.18358653538435363
-0.4058738133883499, 0.4762810765389842, -0.126362941462339
-0.406751065285923, 0.5043653067674869, -0.11662112348705977
-0.41279449283974684, 0.6442521379174118, -0.3313094835406513
-0.4092014133348223, 0.5708160056097363, -0.3419831270453563
-0.40966778262889253, 0.5812963242995881, -0.3109019927248364
-0.411510525527858, 0.6175121770336851, -0.35071282149322447
-0.41132302235842444, 0.6151539900366504, -0.305123380689239
-0.40949499502696773, 0.5769862830616361, -0.3357892464752792
-0.413810441676421, 0.6642922501797398, -0.35095921238288746
-0.409780474797629, 0.5855956519551963, -0.2480772332441774
-0.41453888331969097, 0.6752735140790419, -0.3154409817226276
-0.41071365367596485, 0.6134423937072319, -0.18238643325891618
-0.4092683279500778, 0.5801890184565925, -0.12207395061789941
-0.41100650434499647, 0.6212337346310995, -0.14783597788889472
-0.4105140973592153, 0.6087809066742766, -0.17717496817663184
-0.4098152562065309, 0.593663634607433, -0.10533637257269121
-0.41177187730340203, 0.6388969256613549, -0.17738394971247073
-0.4095309992227487, 0.5862839539374336, -0.13074800989903712
-0.41116696158839167, 0.6245414627369509, -0.17157843734160833
-0.4110097252967923, 0.621549676101361, -0.13723464281299894
-0.41390786728580264, 0.680676651774148, -0.0924604187527729
-0.40998001614971064, 0.5987211604242417, -0.03716776992150986
-0.40966694471841514, 0.5911001477794707, -0.031904313957107286
-0.41032253997440005, 0.6065371982248378, -0.007692039969140717
-0.41033466616320413, 0.607163269350976, -0.0302334906668829
-0.4112385525257584, 0.6290654684981782, -0.03862099205133017
-0.4108276418921285, 0.6193426726507488, -0.050607512281520196
-0.41172417352191215, 0.6404435971498943, -0.016864993947162548
-0.4093881807400732, 0.5842556937478036, -0.023263121114597565
-0.4138356210978487, 0.6729953275972714, -0.27284970546777293
-0.4139572902680776, 0.6783923240677714, -0.1944581071385278
-0.4148496288105935, 0.6848161634632841, -0.0967898775055486
-0.41487585011155614, 0.6821548347624358, -0.20490331571917447
-0.4177895783229825, 0.6808632973137341, -0.3820724566138515
-0.4160341652246845, 0.6890573602509773, -0.027356256537799786
-0.4223586818576723, 0.6918553771305286, -0.03526701775925531
-0.4195712103317962, 0.6932311462178187, 0.023693279167562576
-0.4203973466914538, 0.6895188303871572, -0.13309444283275465
-0.4210621211429497, 0.6904847297888067, -0.09313228713782526
-0.4290829689604195, 0.6825159829453207, -0.3912336045288487
-0.4285849768397181, 0.6871784258553927, -0.22762644353290012
-0.42778784723511576, 0.6857493895986023, -0.2805557957364786
-0.4246015680022546, 0.5987089425497771, 0.19362498558805816
-0.4225179582411774, 0.6927543269925163, 0.18773316069151608
-0.43770529947763664, 0.6948203409760975, 0.1044368137754052
-0.43516332500657917, 0.6952879047818687, 0.16730008294318865
-0.43530115729293917, 0.6809231070265027, -0.43912220005151825
-0.43837709322725693, 0.6864215093709412, -0.254825270771907
-0.4330486910426072, 0.6840596928995208, -0.3426399016444669
-0.4243005366442847, 0.6876121761788299, -0.21143438666914965
-0.4363770769677593, 0.6888667096026675, -0.1581960753320114
-0.4462178318790389, 0.6407305511569683, -0.39495865152206844
-0.4457856145019733, 0.6564592998282053, -0.3599071292059208
-0.44481964821268627, 0.6044296020463569, -0.37733289270914977
-0.4458254493784357, 0.6270056865081942, -0.39389783708803494
-0.4457359898424633, 0.6212678826117485, -0.396521396517623
-0.4447085845111935, 0.6763516837660963, -0.4618308049580713
-0.4401772621593145, 0.68446227102198, -0.32181399307019865
-0.4432055963756118, 0.6861655709356143, -0.14753254657501774
-0.44453018914120246, 0.6849881355751962, -0.08370230808584937
-0.44555938491398805, 0.6576291722523281, -0.2649347491548301
-0.4456218380560844, 0.6571742829231372, -0.2992397885107074
-0.4457864561617745, 0.6678482966446041, -0.2618517714098912
-0.4452427035618774, 0.6446974311240834, -0.2550226178110353
-0.4457093925531718, 0.6683277485277932, -0.22040247586536807
-0.44479951232739473, 0.6286991322923483, -0.21854996061299534
-0.4452999403508921, 0.6432256794119584, -0.29781772725590566
-0.44547758045675967, 0.6546235192450146, -0.2587696906096161
-0.4463833598115377, 0.6677810204808868, -0.3755866862142817
-0.4464061596402716, 0.6734953066190139, -0.40323716966959233
-0.44578904595087954, 0.6794021764388807, -0.09199460287727171
-0.44571885294684416, 0.672911610425593, -0.2054124353458923
-0.444747074892106, 0.5870242645743502, 0.0590319367191258
-0.4460813987054805, 0.6441956284437421, -0.009077644019099784
-0.4457140182947555, 0.6287243088136851, 0.003812232997227614
-0.4468261767026094, 0.6714440483873456, 0.05426153920906477
-0.4463925329512924, 0.6576755282810043, -0.028194275240716975
-0.44627165158269333, 0.6509581020783864, 0.011408605701857075
-0.4467817118558173, 0.6731229340176984, -0.02137494247876905
-0.44501784742968775, 0.5981470047532066, 0.055621808438101855
-0.4408968416827107, 0.480986224258923, -0.07062279501239922
-0.44297329613124514, 0.5510538984604576, -0.10988744420883692
-0.44283863326261985, 0.5475211244025211, -0.1454118835925251
-0.4418525447993911, 0.514123955122085, -0.12214636950464665
-0.44267672769939564, 0.5400025438933718, -0.06497753512830716
-0.4420833688456737, 0.5202541179241913, -0.06406562667489818
-0.44325618286999124, 0.5625670359920473, -0.18930338833732283
-0.44166506662604244, 0.506943760631652, -0.08645319801979669
-0.4416430234585373, 0.5054758586758064, -0.05877744281990688
-0.4432080295688372, 0.5595855243272324, -0.13732064959657292
-0.4437904863720874, 0.5888187634849686, -0.2971115379070566
-0.44349114790352007, 0.5758422437120844, -0.26405877483912416
-0.44327779411405316, 0.5744345760819565, -0.33035687973347483
-0.44417259074051224, 0.5980267911220053, -0.25500350818360384
-0.44343750542232624, 0.5747775283716234, -0.27258259295442977
-0.4435161056997238, 0.5761556662244006, -0.2580079616772601
-0.44575842489278766, 0.6594585536720243, -0.34628331882711033
-0.4439080407772458, 0.5909608475491985, -0.2762413132066104
-0.44572568253680706, 0.6718923017539724, -0.340505162968379
-0.4455403902087656, 0.6581591118751693, -0.18416233135450585
-0.44612165509468227, 0.6622039717522032, -0.10503916793585932
-0.4453360458327748, 0.6401266666770765, -0.12444001268404122
-0.4449617731399955, 0.6266549928951343, -0.11811603752027275
-0.44597865519057994, 0.6538207675062133, -0.08556888862732365
-0.4467182464279455, 0.6741204654608702, -0.0647516451086814
-0.4442942360673891, 0.5984049849409738, -0.08458405704911455
-0.44615665472705895, 0.6716400245906058, -0.14871995658370957
-0.44531815642782685, 0.6503094216653243, -0.18119494082102994
-0.44415767020559305, 0.5973249538095611, -0.11231508269296489
-0.44353857200050983, 0.5737903740942747, -0.19196512393726048
-0.4444377420678214, 0.6118403868498148, -0.16937281388568465
-0.4437828738153555, 0.5842254241617176, -0.18816032918241044
-0.4448095592229299, 0.628079984362108, -0.1721937174347734
-0.44391128987832246, 0.5866115903722956, -0.11159163902999952
-0.44475750679236026, 0.6272779535849783, -0.2072049273957303
-0.44473646128855787, 0.6256506148256062, -0.19000546445502295
-0.44480688082060216, 0.6293811971603993, -0.20629864381685023
-0.44369303848853703, 0.5588612088930857, 0.02440293183558813
-0.44353962231000454, 0.5487512805433159, 0.05605823353999094
-0.44104686803471965, 0.4738262963577625, 0.059030375508093924
-0.4426731945034567, 0.5293759479911015, 0.018931996892519294
-0.4432309076535619, 0.5447726118532277, 0.026088820039533864
-0.4433573510611311, 0.5447137913011545, 0.04802748869227448
-0.4432429002202369, 0.5508219112342712, -0.00648624060524189
-0.4429890875102905, 0.5346839432106711, 0.042519219038695155
-0.41211711026724457, 0.22298023683988044, -0.2887678514342789
-0.4075361230780093, 0.2226863323678867, -0.3520199223467699
-0.4058456007544812, 0.22344616141075735, -0.25811333036057843
-0.416897213098646, 0.22350035476605146, -0.17519913865521827
-0.42332693813046884, 0.22429436936490946, -0.1390202077843384
