0.7393102049827576, 0.7429100582115875, 0.10660140827056246
0.7393102049827576, 0.7414245946587906, 0.12427661150372993
0.7393102049827576, 0.7539864563419936, 0.04774206278334534
0.7393102049827576, 0.7519790018417752, 0.11351814198760339
-0.7398192286491394, 0.7486036883561501, -0.02260160364550155
-0.7398192286491393, 0.7359478806324997, -0.02627571412027002
-0.7398192286491394, 0.7594529610358873, 0.24377082008340747
-0.7247325455793422, 0.7615319490432739, -0.0607971977112413
-0.730491829570804, 0.7615319490432739, -0.01870469372713293
-0.7207425827639814, 0.7615319490432739, -0.03525808720767769
-0.7169337126078936, 0.7615320131667804, 0.2237686632430171
-0.7040625913978884, 0.761532059312567, 0.1976575093157604
-0.725008831330628, 0.7615319842157126, 0.24207447234502927
-0.7075889617990878, 0.7615320466697573, 0.15273348695183922
-0.6907172840397665, 0.7615320682525635, 0.09709585452120972
-0.6714816171079476, 0.7615320682525635, 0.1629549560756483
-0.6990932377198475, 0.7615320682525635, 0.2282740194262999
-0.2994843012000721, 0.761532055948077, 0.07737494492430694
-0.44553253837712575, 0.7615320453692527, 0.06110895069290805
-0.5864835310039239, 0.7615320081034527, 0.003809058833975393
-0.4817055042080334, 0.761532046800549, 0.06330971381800254
-0.5945608690395653, 0.7615320334930854, 0.04284816173836711
-0.5765953001369925, 0.7615320550751052, 0.07603267717485322
-0.36061320104024974, 0.7615320320958078, 0.04069969576275651
-0.6265719921500765, 0.7615319908612779, -0.022702509102501586
-0.29576374397835686, 0.7615320524114167, 0.07193697553519386
-0.5115579937058155, 0.7615320664162868, 0.09347087632670396
-0.529876347800957, 0.7615320220618594, 0.02527150397239467
-0.43743009201952043, 0.7615320458554244, 0.061856487998709075
-0.3922136450859586, 0.7615320309835291, 0.038989457635826945
-0.4471756100381094, 0.7615320424702856, 0.05665149848316678
-0.5134405121211363, 0.7615320373168651, 0.04872760191871562
-0.6548621259255074, 0.7615320369514585, 0.048165759771890124
-0.4853707901007386, 0.7615320090989038, 0.005339659858875651
-0.2347235461260359, 0.761532065794632, 0.09251500560635294
-0.38613407568453595, 0.7615320635129538, 0.08900670465345056
-0.47932631359392, 0.7615320380162088, 0.04980291119640043
-0.31739009130173806, 0.7615320579465764, 0.0804478388215455
-0.5977989359737736, 0.7615320128837048, 0.011159175713259101
-0.5581368703317073, 0.7615320156147231, 0.01535838788514005
-0.5996544874233072, 0.7615320414862373, 0.055138433392601854
-0.49481048959208884, 0.7615320133342209, 0.01185188412743573
-0.6472316112146977, 0.7615320312877749, 0.0394572786478937
-0.5501881119709587, 0.7615320008295243, -0.007375335893746664
-0.5795213553494445, 0.7615320403637924, 0.05341256090296625
-0.41240334272008794, 0.7615320670452479, 0.0944379620759076
-0.6534863691168588, 0.7615320008163089, -0.007395650909527332
-0.4617757601070254, 0.7615320119077498, 0.009658540303189512
-0.3922517876619709, 0.7615320584677439, 0.08124918966089711
-0.5823622599898252, 0.7615319970825836, -0.013136631040593854
-0.4436259875322118, 0.7615320226296847, 0.026144587911807925
-0.26887532934509756, 0.7615320604856795, 0.08435196168389517
-0.617645381324903, 0.7615319950781735, -0.016218610342889954
-0.5776093061517779, 0.7615320403296668, 0.05336008921226067
-0.4488043734263203, 0.7615320500951617, 0.06837550887250049
-0.6143897224252427, 0.7615319848674518, -0.031918617659065146
-0.32611676114795807, 0.761532063161729, 0.08846665844582136
-0.6430201489156415, 0.7615319875009429, -0.02786935981862415
0.1760334184074247, 0.7615319570750076, -0.0746523096648139
-0.19669633113199164, 0.7615319997665354, -0.009009808556948697
0.10133809739614674, 0.7615319755383602, -0.046263055343633896
0.011241842774340514, 0.7615320022432193, -0.005201658825632378
-0.11707214993542545, 0.7615319943524852, -0.0173344529468754
-0.11696785545208298, 0.7615320251257326, 0.029982497902268326
-0.21006963925010308, 0.7615319779805667, -0.04250791803795639
0.035772649821546015, 0.7615319496557008, -0.08606023710763347
-0.10663106874251092, 0.7615319684039837, -0.057232873791957045
-0.016513940671445876, 0.7615319613880007, -0.06802065053024446
-0.023636426559550103, 0.7615319868145694, -0.02892475394486312
-0.03574075389723229, 0.7615319787509365, -0.04132339719833783
-0.17627532625895356, 0.7615320160202899, 0.015981967460502806
0.07411813427279693, 0.7615319820757213, -0.03621120767855896
0.07533952743579046, 0.7615319553918766, -0.07724029207961514
-0.0781833714853763, 0.7615319600756802, -0.07003847497332481
0.10755553311396542, 0.7615319728605556, -0.05038044809419719
-0.01668892799806016, 0.7615319744266256, -0.04797245859818274
-0.14837814876472993, 0.7615319838042601, -0.03355340589024951
-0.1606807550250129, 0.7615319885979074, -0.026182692940736267
0.044127140630124954, 0.7615319928686992, -0.019615922710952496
-0.10469525710720265, 0.7615320255187711, 0.03058683387434792
-0.13129820048516422, 0.7615320375719284, 0.04911977111324266
-0.1883523459390221, 0.7615320570294549, 0.07903766727960468
-0.1965075618926233, 0.7615319936458442, -0.0184209844299524
0.18786067112478794, 0.7615319530886073, -0.0807817994540501
0.06217817902041028, 0.7615319708062229, -0.053539190618393497
-0.1949099085611889, 0.7615319591591748, -0.07144769370416984
-0.03554409693345865, 0.7615319683361802, -0.05733712851563855
-0.11388496616795224, 0.7615319996870497, -0.009132025825365164
-0.17618984393408113, 0.7615320453237304, 0.06103894309169727
-0.17501887721298, 0.7615319815119133, -0.03707811911373991
-0.20975393962382055, 0.761532051564715, 0.07063508217149446
0.131634561105363, 0.7615319593408112, -0.07116840977555626
-0.05072871579054371, 0.7615319685742563, -0.05697106271428234
0.15242595538631867, 0.761531960381491, -0.06956826014000016
0.026177197320616068, 0.761531999897104, -0.00880904617607782
0.12165655633796259, 0.7615319585287479, -0.07241703839629558
0.024623855033387314, 0.7615319710654262, -0.05314063923528703
-0.12975453740945897, 0.7615319919865698, -0.02097228494259169
0.007820069193401266, 0.7615319874334318, -0.02797319085503168
-0.0929827741323017, 0.7615320299393684, 0.03738394537244351
-0.6908611594110319, 0.7615320392631787, 0.05172035339224379
-0.6889314481650944, 0.7615320122396319, 0.010168941147455195
-0.38854614573640267, 0.7615320682525635, 0.13936385259446082
-0.5068438600739671, 0.7615320682525635, 0.14711140664879443
-0.2788286282586757, 0.7615320682525635, 0.2145721836581591
-0.4137831475535481, 0.7615320682525635, 0.11105996029382814
-0.3842398717953804, 0.7615320682525635, 0.10277733083394155
-0.5112120740989462, 0.7615320682525635, 0.15350682927328108
-0.5550759620879614, 0.7615320682525635, 0.12433401461610084
-0.4074682407414593, 0.7615320682525635, 0.11447283934690611
-0.37371372126549596, 0.7615320682525635, 0.11590681287202537
-0.44673958162207617, 0.7615320682525635, 0.10175619173112264
-0.3279236591188557, 0.7615320682525635, 0.1533675491840678
-0.4102137107323236, 0.7615320682525635, 0.11371371579379749
-0.3084344183111133, 0.7615320682525636, 0.2291226878038826
-0.5713270929003625, 0.7615320682525634, 0.12509561217953097
-0.4067243686349933, 0.7615320682525635, 0.19410108374128007
-0.5132849664319843, 0.7615320682525635, 0.15947191938325764
-0.5428629171852807, 0.7615320682525635, 0.14271716025134754
-0.4893789527959639, 0.7615320682525636, 0.15592459428569994
-0.29878442461649796, 0.7615320682525635, 0.1922289227045319
-0.250553648230249, 0.7615320682525635, 0.19547330964323512
-0.32083591832100133, 0.7615320682525635, 0.11832654506527569
-0.3413146161921264, 0.7615320682525635, 0.19601028073893959
-0.22562377841690792, 0.7615320682525635, 0.17237620881466256
-0.5222787104859733, 0.7615320682525635, 0.13377610975770585
-0.5420111438375479, 0.7615320682525636, 0.11308015814569886
-0.3625232406443405, 0.7615320682525635, 0.1500360732539352
-0.24987245760571902, 0.7615320682525635, 0.13592393914412548
-0.3744147002673661, 0.7615320682525635, 0.12884577280621837
-0.6230480468032202, 0.7615320682525635, 0.10092065254339014
-0.4116120828998758, 0.7615320682525635, 0.11591734644306073
-0.2612953293872171, 0.7615320682525635, 0.18497770013177864
-0.5345238375746203, 0.7615320682525635, 0.14397520027553146
-0.31587890872405966, 0.7615320682525635, 0.1322949566896739
-0.4045807621555593, 0.7615320682525635, 0.11857492443031523
-0.25823628864401044, 0.7615320682525634, 0.20278367383626983
-0.32112923980918745, 0.7615320682525635, 0.0967300703328817
-0.27757890662045726, 0.7615320682525635, 0.1994816966832267
-0.2564692656453677, 0.7615320682525635, 0.10986756690367247
-0.38995328974099264, 0.7615320682525635, 0.18252802057992468
-0.31475728281963666, 0.7615320682525635, 0.10402348717087051
-0.25958118100145766, 0.7615320682525635, 0.19517705705726884
-0.44674257830445263, 0.7615320682525635, 0.1646871075165622
0.019169400246943025, 0.7615319490432739, -0.1147355319300613
-0.04410783078239625, 0.7615319490432738, -0.12954530143513504
-0.06937686482093215, 0.761531949043274, -0.13002580896704918
0.009158240303304428, 0.7615319490432739, -0.1294813854599629
0.11250264055251706, 0.7615319490432739, -0.09313631210590834
0.002414052776128467, 0.7615319490432739, -0.09368678530963928
0.13129457936723737, 0.7615319490432739, -0.1655274760394995
0.08374047768672335, 0.7615319490432739, -0.1983640643220873
0.04029640654372069, 0.7615319490432739, -0.18302390431500154
-0.09095161282257129, 0.7615319490432739, -0.10306344261517288
-0.028415998217287318, 0.7615319490432739, -0.13637594429623212
-0.14188111480436877, 0.761531949043274, -0.12040653546947594
0.21005245798189937, 0.7615319490432739, -0.09063819189270128
0.17118603499087745, 0.7615319490432739, -0.1255779910640385
-0.012878801807409107, 0.7615319490432739, -0.16582650918581268
-0.04785491827325532, 0.7615319490432739, -0.11794408878558038
-0.025312103398326093, 0.7615319490432739, -0.14315022408036743
0.21928395317187643, 0.7615319490432739, -0.12960785742015396
-0.11581806991979182, 0.7615319490432738, -0.09077009362763508
0.16351208120141142, 0.7615319490432739, -0.1183889050629616
-0.14227199086039077, 0.761531949043274, -0.09163322372657542
0.13461568042940353, 0.7615319490432739, -0.17636542187665982
-0.052372220640116846, 0.7615319490432739, -0.13705905549610473
0.21128836827356373, 0.7615319490432739, -0.24662469947944024
-0.0025948457885497586, 0.7615319490432739, -0.14283508384118648
-0.11043456315171987, 0.761531949043274, -0.09523878060961921
0.012852712667495547, 0.7615319490432739, -0.13735099222404973
0.22018352197961974, 0.7615319490432739, -0.19137245732642028
0.21208171146330457, 0.7615319490432739, -0.10383533642664125
0.049220195928777036, 0.7615319490432739, -0.12220225009368214
0.00787313235550123, 0.7615319490432739, -0.10853699642921086
0.0784338133066231, 0.7615319490432739, -0.20686070140302085
0.18603434121416196, 0.7615319490432739, -0.24406573506889756
0.11109947776742299, 0.7615319490432739, -0.11089305819232524
0.19910946363036724, 0.7615319490432739, -0.20426015829604652
-0.002780413833658582, 0.761531949043274, -0.135620414548121
0.22229553461432375, 0.7615319490432738, -0.2271944354258186
0.15323478015091657, 0.7615319490432739, -0.1621673387982164
0.008553708183563926, 0.7615319490432739, -0.18122526256806148
0.028393602173253984, 0.7615319490432739, -0.18725574909670833
0.20535493675747274, 0.7615319490432739, -0.11600738017205227
0.6015502103054454, 0.7615319490432739, -0.1790951011907408
0.4063565511058668, 0.7615319490432739, -0.2557202549577152
0.3020516956644117, 0.7615319490432739, -0.2589445693673983
0.5680037511499962, 0.7615319490432739, -0.1823118779043773
0.5030308021335834, 0.7615319490432739, -0.22063703074917906
0.5971848557093318, 0.7615319490432739, -0.260884109587876
0.576554594700461, 0.7615319490432739, -0.178590777366624
0.6379202381741877, 0.7615319490432739, -0.18859032606373466
0.5679394813721896, 0.7615319490432739, -0.2157444678162457
0.6660764467220622, 0.7615319490432739, -0.22411765218577503
0.6369032541897173, 0.7615319490432739, -0.21781051303179216
0.4316872065697117, 0.7615319490432739, -0.2629508310446171
0.6153885840432125, 0.7615319490432739, -0.26477672619146175
0.6269624518292523, 0.7615319490432739, -0.11948282242155452
0.6350703452943682, 0.7615319490432739, -0.14074420206175947
0.5986622827853874, 0.7615319490432738, -0.1202851626831051
0.6467043668824516, 0.7615319490432739, -0.18787511528023731
0.5892959297268194, 0.7615319490432739, -0.1601041042326648
0.49299434679140075, 0.7615319490432739, -0.2674958449988602
0.6056565373506024, 0.7615319490432739, -0.2662563978295644
0.5093894554449592, 0.7615319490432739, -0.2181934300229955
0.6574251822739754, 0.7615319490432739, -0.21554916122453327
0.5126887628270974, 0.7615319490432739, -0.24383061526756994
0.545773983004931, 0.7615319490432739, -0.2541722054724393
0.5539614124308737, 0.7615319490432739, -0.23306778652404836
0.6554013244587673, 0.7615319490432739, -0.13577035008392357
0.5069638964571188, 0.7615319490432739, -0.17189810536286165
0.33630573640569184, 0.7615319490432739, -0.2600299443386234
0.5028848907893098, 0.7615319490432739, -0.20099993723913062
0.4389047303431609, 0.7615319490432739, -0.2316762849977726
0.5687169681433286, 0.7615319490432739, -0.2567381681472073
0.5635392750872337, 0.7615319490432739, -0.15988189724736346
0.5578742160241463, 0.7615319490432739, -0.19639463357243553
0.5758530718444475, 0.7615319490432739, -0.20177524774895822
0.46310302392854696, 0.7615319490432739, -0.20125589559933088
0.6264164511400017, 0.7615319490432739, -0.20662774401134892
0.4569765342660332, 0.7615319490432739, -0.18151976976500722
0.6042955226212666, 0.7615319490432739, -0.2068444830341682
0.6220182685267056, 0.7615319490432739, -0.1813005440606198
0.6455750312071777, 0.7615319490432739, -0.15213147833662977
0.5372817448980565, 0.7615319490432739, -0.20624555309037157
0.5898579831229108, 0.7615319490432739, -0.27155355794336017
0.34205334376434204, 0.7615319490432739, -0.2715743991737345
0.6724925269229444, 0.7615319490432738, -0.25089774217769073
0.6931360647262197, 0.761531949043274, -0.11011670722327459
0.67775149162129, 0.7615319490432739, -0.23891692990403404
0.7339871699372057, 0.7615319490432739, -0.1660341335763863
0.7323942895114512, 0.7615319490432739, -0.12387742754087452
0.7307111275844804, 0.7615319490432738, -0.23188431795632045
0.7381273507181046, 0.761531949043274, -0.1464500265300897
0.7393102049827576, 0.7480166161080615, -0.20132414532738935
0.7393102049827576, 0.7412356018199296, -0.21675950710829947
-0.7398192286491394, 0.7377198789438905, -0.2771428178383546
-0.7398192286491394, 0.7530869805251797, -0.19428161146218015
-0.7239842772095316, 0.7615319490432739, -0.14187269902511637
-0.7076517141543652, 0.7615319490432739, -0.1131314824581498
-0.7271293107675856, 0.7615319490432739, -0.09246928236655749
-0.6755287550480275, 0.7615319490432739, -0.2311356548659363
-0.6844403809786728, 0.7615319490432739, -0.20305644946278995
-0.6742104213640703, 0.7615319490432739, -0.1972725108151589
0.1636754159395788, 0.7615319490432738, -0.2786854246710255
-0.09488333301279903, 0.7615319490432739, -0.2788524141439307
-0.6873692578135483, 0.7615319490432738, -0.2738930485915695
-0.627395649435032, 0.7615319490432739, -0.2565795727018291
-0.4672960667279173, 0.7615319490432739, -0.18899951018056152
-0.509596047476569, 0.761531949043274, -0.21587490000385112
-0.3811833161885031, 0.7615319490432739, -0.24138649082787372
-0.5574268076755623, 0.7615319490432738, -0.24801019803075933
-0.4203493565795834, 0.7615319490432739, -0.22946243367901922
-0.27064170627413575, 0.7615319490432739, -0.22842653699906967
-0.3091008179589844, 0.7615319490432739, -0.1900684874870207
-0.45222120568587015, 0.7615319490432739, -0.27023504654308106
-0.32067654917771193, 0.7615319490432739, -0.1291580351794971
-0.46505267992117705, 0.7615319490432739, -0.24241936034707312
-0.24174643596898848, 0.7615319490432739, -0.16960515210995103
-0.4232929132254452, 0.7615319490432739, -0.21550727620152058
-0.4215298265630782, 0.7615319490432739, -0.198683553055454
-0.35964298799543126, 0.7615319490432739, -0.26204489635819694
-0.5407523328331525, 0.761531949043274, -0.2203243116200511
-0.4166545172675868, 0.7615319490432738, -0.1724405039481579
-0.42800459460102624, 0.7615319490432739, -0.2608043664112393
-0.5909699569174074, 0.7615319490432739, -0.2656546782986313
-0.4607452259079181, 0.7615319490432739, -0.24987118127251257
-0.5639414276462943, 0.7615319490432739, -0.2470087171372144
-0.33056808507608665, 0.7615319490432739, -0.25379220471999925
-0.26444750098170305, 0.7615319490432739, -0.11971924563465314
-0.2965213339204237, 0.761531949043274, -0.13103164832637254
-0.3091779469170786, 0.7615319490432738, -0.14139334198643694
-0.37083602309575764, 0.7615319490432739, -0.1639805144777654
-0.46857592909015044, 0.7615319490432739, -0.19518016742878808
-0.5077851967405357, 0.7615319490432739, -0.23773567315362515
-0.383828536397041, 0.7615319490432739, -0.19208391999753338
-0.47339999171994884, 0.7615319490432739, -0.24544880646289632
-0.3299078937728654, 0.7615319490432739, -0.1396079869651567
-0.5164559597825973, 0.761531949043274, -0.25137923460825445
-0.25291144644343033, 0.7615319490432739, -0.23241260327917154
-0.35762583177164686, 0.7615319490432739, -0.20905603547195384
-0.28157160798760883, 0.7615319490432739, -0.1477808885168495
-0.3487688795605191, 0.7615319490432739, -0.25405754220634963
-0.3366891718050721, 0.761531949043274, -0.15903976744281934
-0.23664819243062576, 0.7615319490432739, -0.10182275220292508
-0.3544967240237511, 0.7615319490432739, -0.2592071374057382
-0.2609643740299968, 0.7615319490432739, -0.24856615390803147
-0.37562497962975805, 0.7615319490432739, -0.22725087566578633
-0.4305996245661338, 0.7615319490432739, -0.277074273182457
-0.5494573190616971, 0.7615319490432739, -0.2785356426884805
0.44183527571977815, 0.7420941984426853, 0.33587658405303955
0.5651274156373087, 0.7399335703032348, 0.33587658405303955
0.5736115512892769, 0.7414538626519952, 0.33587658405303955
0.17359576549674743, 0.7474804755290413, 0.3358765840530395
0.019212364598661713, 0.7491743688586361, 0.33587658405303955
-0.10053545416225176, 0.7537104517532883, 0.33587658405303955
0.6259530079123214, 0.7516871607387239, 0.3358765840530396
0.6484727670831805, 0.7518258952495483, 0.33587658405303955
0.5941128919624142, 0.7584964324748785, 0.33587658405303955
0.06276883821153847, 0.7565391112050536, -0.3265847265720368
-0.06989447911231005, 0.7589885842483262, -0.32658472657203674
-0.1060104698170208, 0.7574358338647014, -0.32658472657203674
-0.08322018372794072, 0.7391351018962137, -0.32658472657203674
-0.19542897773541226, 0.7460051348827381, -0.32658472657203674
0.3655402663962455, 0.7485596802392442, -0.32658472657203674
0.6371891301327463, 0.7545349575939844, -0.32658472657203674
0.6202873270630612, 0.74954405430013, -0.32658472657203674
0.16140186551405616, 0.7615320492423215, -0.2904087676470305
0.22050984936309587, 0.7615320203167217, -0.2994036253192933
-0.1531421640190596, 0.761532056067048, -0.28832344684820893
0.05492475658087244, 0.7615320320082708, -0.29578536822243806
-0.14626640431588395, 0.761532064448013, -0.2857143086369556
0.21681757458034578, 0.7615320080540089, -0.3032204358388248
0.07308815868182775, 0.7615320533868, -0.289129788609489
-0.001844262292489518, 0.7615320604962416, -0.2869264204888848
0.4011061602395549, 0.761532013048226, -0.3016653501843767
0.441279802705306, 0.761531952769491, -0.3204250720456989
0.34704047329422316, 0.7615319699114985, -0.31509020074515576
0.2441127835426174, 0.7615319957122777, -0.30706057900683453
0.499731350801671, 0.7615319785619064, -0.31239805325643805
0.3323308417756299, 0.7615320372122628, -0.294145109247864
0.22758279994162972, 0.7615320053690761, -0.3040552264163771
0.2507458166382601, 0.7615320013219262, -0.3053147652298639
0.32119515266569243, 0.7615319639962603, -0.3169311189901176
0.16950420469628416, 0.7615320318799158, -0.2829793902960181
0.28210686144052294, 0.7615320143991879, -0.2822486339151158
0.3580622541866939, 0.7615319490432739, -0.27898222829610053
0.5394504988702711, 0.7615319490432739, -0.2776284075107156
-0.10920116626596711, 0.7615319490432739, -0.27206155346631417
-0.04497047093487922, 0.7615319490432739, -0.273607565300868
-0.003856489665599625, 0.7615320093196857, 0.285279995172494
0.12996043777355024, 0.7615319735599632, 0.28731229048636786
0.35598304366122135, 0.7615319490432739, 0.27995272102069413
0.39903391561376206, 0.7615319490432738, 0.2831979114393286
0.028226238672947573, 0.7615320007139624, 0.29222045602211966
0.1844575471422052, 0.76153195900586, 0.29281906366718125
0.34783930067125984, 0.7615319490432739, 0.29210930744291447
0.19526036015283044, 0.7615319490432739, 0.32686269977852
0.13296787394101303, 0.7615319490432739, 0.31827519459864584
0.18754224990482268, 0.7615319490432739, 0.3175603785401659
-0.07572365324213753, 0.7615319490432739, 0.3295705816140737
0.1454695231693979, 0.7615319490432739, 0.3272872508951274
-0.08090667460710611, 0.7615319490432738, 0.32083217481989657
0.16986833589742217, 0.7615319490432739, 0.3228591131048213
0.08955621619026247, 0.7615319490432739, 0.31359658453280026
-0.020967369535172573, 0.7615319490432739, 0.3337915167849536
0.3248067355605304, 0.7615319490432739, 0.31058953165282577
0.34731940107810705, 0.7615319490432739, 0.3084716560266171
0.2760590320589212, 0.7615319490432739, 0.3004523330015874
0.33859372700196677, 0.7615319490432739, 0.3180812249547827
0.25771205072135533, 0.7615319490432738, 0.3172112057811142
0.5171806806258704, 0.7615319490432739, 0.303593074956927
0.43414050155169115, 0.7615319490432739, 0.2980400303603789
0.24705210016013326, 0.7615319490432739, 0.3251758445734048
-0.5202121982312587, 0.7600885116841513, 0.33587658405303955
-0.0991950798313598, 0.7562602189034054, 0.33587658405303955
-0.013743897530067278, 0.7546197386344916, 0.33587658405303955
-0.6104485899593306, 0.7540823561876826, 0.33587658405303955
-0.5120677496075784, 0.749740874445499, 0.33587658405303955
-0.6697708266119591, 0.7521483534113551, 0.33587658405303955
-0.020892754943117264, 0.7446612786639988, 0.3358765840530396
0.05389689662271095, 0.7420532847160439, 0.3358765840530395
0.22021781357585732, 0.7462427911589632, 0.33587658405303955
0.07369514801780686, 0.7499886625671116, -0.32658472657203674
0.03609085628666274, 0.7510498270576957, -0.32658472657203674
0.028430209073679144, 0.7486027237677408, -0.32658472657203674
-0.3257281834531794, 0.745420101589448, -0.32658472657203674
-0.3234609910103166, 0.7452135894521625, -0.32658472657203674
0.18565968768147909, 0.7603828180155421, -0.3265847265720368
-0.472148554938687, 0.755239987689349, -0.32658472657203674
-0.5233073289144635, 0.7557933464079754, -0.32658472657203674
-0.13974231602524634, 0.7615319490432739, -0.32265112008093955
-0.44183391610188566, 0.7615320371652151, -0.2942271594197165
-0.2348929221149228, 0.7615319906394162, -0.3086598975797735
-0.3264263738522437, 0.7615320375329925, -0.29409869116360166
-0.35510142700287195, 0.7615320629676547, -0.2861982445317634
-0.3556556654162578, 0.7615320195323734, -0.29969607979535506
-0.4701206519144956, 0.7615320550711144, -0.2886662721251744
-0.3153407149495425, 0.7615319903587187, -0.3087570099995853
-0.34759062013652575, 0.7615320304312927, -0.29630818611828735
-0.3354487131208679, 0.7615320535716951, -0.28911567927065995
-0.2192077113106456, 0.7615320418487876, -0.28343421399454216
-0.3440385920716985, 0.761531949043274, -0.27696518376788287
-0.2785359742034798, 0.7615319490432739, -0.27296755855571136
0.015701767711802123, 0.7615320041841781, -0.30444937831196517
-0.1613742132162716, 0.7615319558229944, -0.319477894220101
-0.10262469154157447, 0.7615320003062951, -0.3056544527550835
-0.10787196346189287, 0.7615320148157695, -0.3011455501522774
-0.023016400603339614, 0.7615319692540543, -0.3153041151275551
-0.054693521131595715, 0.7615319743868025, -0.3137090841354646
0.019644134072756166, 0.7615320019338218, -0.30514868946293067
-0.14518617992469998, 0.7615320244481021, -0.2981522474358291
-0.5715887567281591, 0.7615319528399906, -0.27970965642321444
-0.32107888300813936, 0.7615320682525635, 0.27241456578681406
-0.6424696377094794, 0.7615320682525635, 0.17131695026210456
-0.48295506661814464, 0.7615320682525635, 0.27040488612039515
-0.3977040103954721, 0.7615320682525634, 0.22012555707233342
-0.5943052955931435, 0.7615320682525635, 0.209297271803476
-0.5179040262199384, 0.7615320682525635, 0.2053356582737924
-0.5372213169542946, 0.7615320682525635, 0.25563002907218496
-0.3143063260668103, 0.7615320682525635, 0.25628520174773484
-0.423604545071414, 0.7615320682525635, 0.2039401224613634
-0.6239725845705457, 0.7615320682525635, 0.1856854634628076
-0.6333017227078215, 0.7615320682525635, 0.21009950848916217
-0.44459937525764376, 0.7615320682525635, 0.26597467881112935
-0.5813544232575641, 0.7615320682525635, 0.23071267241731053
-0.44246710822977786, 0.7615320682525635, 0.2708511314591163
-0.6288193571752902, 0.7615320682525635, 0.12173706764233014
-0.5485459067682454, 0.7615320682525635, 0.17974006215260052
-0.5757734479428487, 0.7615320682525634, 0.14328523813307997
-0.6706305171851514, 0.7615320682525635, 0.22436818979842713
-0.5776735196667522, 0.7615320682525635, 0.2437109963632097
-0.328223427890337, 0.7615320682525635, 0.26866839197180187
-0.5129257215699146, 0.7615320682525635, 0.16936875800132084
-0.6237717454335694, 0.7615320682525635, 0.24430170464150097
-0.5154570824631356, 0.7615320682525636, 0.16677092028361945
-0.5867166501661142, 0.7615320682525635, 0.1648827407530114
-0.5606593196649763, 0.7615320682525635, 0.21734505372363122
-0.6061820473583281, 0.7615320682525635, 0.24921668507529926
-0.5782383989198687, 0.7615320682525635, 0.26119541625166454
-0.5534616290358195, 0.7615320682525635, 0.2652285435695417
-0.5154086441003549, 0.7615320682525635, 0.23553224983868692
-0.5600011557933741, 0.7615320682525635, 0.21781869806542398
-0.6371491448812339, 0.7615320682525635, 0.22637607680012467
-0.634666729278548, 0.7615320682525635, 0.18715605260016638
-0.4295164480810049, 0.7615320682525635, 0.25811133006756115
-0.4199560555041105, 0.7615320682525635, 0.24009092868565848
-0.5034374685296381, 0.7615320682525635, 0.23982144902947886
-0.6670120886936143, 0.7615320682525636, 0.12908858396220305
-0.654659008289181, 0.7615320682525635, 0.13321750832872525
-0.6567218123055953, 0.7615320682525635, 0.19764062634507518
-0.508268508107725, 0.7615320682525635, 0.2650423002434729
-0.34345139084660925, 0.7615320682525634, 0.23388079877087584
-0.6325467908832063, 0.7615320682525635, 0.17993317882408927
-0.3456721074415619, 0.7615320682525635, 0.26097494958907647
-0.19089394296080392, 0.7615320593339001, 0.21139043380711994
-0.19232052245630396, 0.7615320597087771, 0.23979337957474323
-0.21629632056507142, 0.7615320661072185, 0.24430926478708342
0.017018236251104504, 0.7615320038579922, 0.12502695706544642
0.11154059744064654, 0.7615319786296766, 0.12194469625806342
0.03972665249847056, 0.7615319977898556, 0.15894485638244601
-0.12376506296058065, 0.7615320414240851, 0.17499824393884206
0.016897212322690536, 0.7615320038905948, 0.12357987992971145
-0.12907578428087566, 0.7615320428435692, 0.16535632367563868
-0.08967853336000475, 0.7615320323375274, 0.11967568824150153
-0.1231908377723496, 0.7615320412629349, 0.21300784672837414
-0.07383344735767879, 0.7615320280928292, 0.1943451435305892
0.1597962333333923, 0.7615319657535753, 0.103594795247777
-0.016902484323489383, 0.7615320129114633, 0.12649955430099472
-0.22423698904571004, 0.7615320682198519, 0.27714066843463503
0.12758786016245396, 0.7615319743509725, 0.1003965957349271
-0.05967040327263553, 0.761532024315162, 0.18186036452213764
-0.12859704183975665, 0.7615320427144713, 0.1717049565323707
-0.15323954945415347, 0.7615320492899955, 0.18040862392036208
-0.1658629887580961, 0.7615320526752207, 0.10373086898867949
-0.015139471166116749, 0.7615320124281054, 0.1881733173928638
-0.07953334901714819, 0.7615320296272767, 0.13124891067420585
-0.13169373128894088, 0.7615320435534229, 0.11185187126315786
-0.022941903132234626, 0.7615320145220046, 0.13343960187530765
-0.09824814455499715, 0.7615320346244858, 0.12139036720982757
-0.11297032704182579, 0.7615320385420756, 0.17879501729849284
-0.05301866511811808, 0.7615320225572426, 0.09751055614580628
-0.13806732550389564, 0.7615320452539158, 0.11514266986184993
-0.17765171706730393, 0.7615320558181937, 0.120872673709667
-0.21848137095584363, 0.7615320667179508, 0.11162626342361281
-0.12253817572810397, 0.7615320410845777, 0.2330409820998428
-0.18485619523139402, 0.7615320577321134, 0.16439351127136698
-0.15499065142308252, 0.7615320497614455, 0.16081766075984005
-0.19600136054947087, 0.7615320607048159, 0.1742893422682992
-0.11085605690652808, 0.7615320379720475, 0.20631693814510846
0.055386599308905334, 0.7615319936174977, 0.12309000224683143
-0.17515393689373376, 0.7615320551285018, 0.23180687130752156
-0.21364900979020704, 0.7615320654109297, 0.19462893204234993
-0.10834635106575471, 0.7615320373191266, 0.12462384252951095
-0.20942751732010306, 0.7615320642869735, 0.18111977791192135
0.004520866462232029, 0.7615320071975141, 0.10646518100152691
-0.40469822406820993, 0.7615320682525635, 0.28676928512858013
-0.46122680161157437, 0.7615320682525635, 0.28769139035525687
-0.09130425417202437, 0.7615320326994801, 0.28250901810491197
0.061971360605672696, 0.7615319918003141, 0.2813031994444617
-0.4911813379527852, 0.7615320682525635, 0.2928768616710894
-0.259175824181967, 0.7615320682525635, 0.29153517612881574
-0.539475709126682, 0.7615319490432739, 0.3348526110670435
0.0958896983380566, 0.7615319647105545, 0.29961495389951337
-0.08447217143215736, 0.7615319652027651, 0.31435086137991697
0.14565731096421766, 0.761531953388547, 0.2990073806392178
0.004627270269079706, 0.761531987524259, 0.30009475266372887
0.2047599168929591, 0.7615319527275636, 0.2943330794995543
-0.017975330205628456, 0.7615319716156359, 0.3068791111433837
0.13195048850522137, 0.7615319605845131, 0.2979139776857075
0.005846565836170783, 0.7615320046944442, 0.2946854445915317
-0.5140613278643951, 0.7615319679460075, 0.3250395744585504
-0.2926567082965773, 0.7615320022397747, 0.31444998492835596
-0.2892235981192654, 0.7615320402219263, 0.3027214573841137
-0.37721520799986985, 0.761532008192636, 0.31261179788482607
-0.29207677033959284, 0.76153203105555, 0.30555194727948276
-0.3392605348362898, 0.761531993820453, 0.31704979153816065
-0.5201317144467007, 0.7615319630826752, 0.32654132525702395
-0.2457649596950941, 0.7615319659544851, 0.3256545376556462
-0.01812882292834026, 0.7615320130835502, 0.29079904826746034
0.41239028022319996, 0.7517829739401303, 0.33587658405303955
0.4410319175467882, 0.7477653790197054, 0.33587658405303955
0.46792873507842, 0.7494969506405761, 0.33587658405303955
0.3540235411457877, 0.7603093877549872, 0.33587658405303955
0.23580644195213624, 0.7564405724256456, -0.32658472657203674
0.24141767954287707, 0.748365630014742, -0.3265847265720367
0.6946109045072318, 0.7508075715766453, -0.32658472657203674
0.3767073601266458, 0.7473571600788472, -0.32658472657203674
0.25775747478490496, 0.7449704470243137, -0.32658472657203674
0.3084761352023525, 0.7615319490432739, -0.3224537597069225
0.6099303714034646, 0.761531971748682, -0.3145153909680766
0.5547496287158978, 0.7615320223033515, -0.29876544879074524
0.6293817730095607, 0.7615319656415221, -0.3164164617008633
0.4461536514858445, 0.7615320325945423, -0.29557126489502716
0.6301964964149801, 0.7615320497686361, -0.2901958848530811
0.43026957891849615, 0.7615320396217413, -0.2933830009474556
0.3460336479820304, 0.7615320484953249, -0.29062765954235215
0.645597092920847, 0.7615320137390336, -0.30142358695074256
0.524293838145812, 0.7615320146678219, -0.30114900873243705
0.4824727983675982, 0.7615320048506289, -0.28183494873913084
0.6884109344829136, 0.7615319490432739, 0.2840924531160308
0.27998327617619884, 0.7615319490432739, 0.2449832546277527
0.3331966902439645, 0.7615319490432739, 0.18724529811520058
0.289047289290733, 0.7615319490432739, 0.2041792882786221
0.3199799403186441, 0.7615319490432739, 0.13903068164505372
0.3212614025734256, 0.7615319490432739, 0.2051849729900811
0.23829005710629847, 0.7615319490432739, 0.24893419162275218
0.5867370441906178, 0.7615319490432739, 0.27737036037878554
0.31757068391776033, 0.7615319490432739, 0.19428660307062517
0.3125439711284638, 0.7615319490432739, 0.14396151582151312
0.24269604360360664, 0.7615319490432739, 0.155137590369317
0.42983718591155795, 0.7615319490432739, 0.21146626483019607
0.28319287967419227, 0.7615319490432739, 0.241588427238939
0.31026731767643045, 0.7615319490432739, 0.24934802494709468
0.5092548124407845, 0.7615319490432739, 0.24895333578382062
0.6199150966134013, 0.7615319490432738, 0.27184734892942786
0.4775424153938309, 0.7615319490432739, 0.2026386968165207
0.2567354063026669, 0.7615319490432739, 0.24882874034265082
0.2599501243711864, 0.7615319490432739, 0.2055647262479715
0.5377676728758399, 0.7615319490432739, 0.24038783514734874
0.23563706395008485, 0.7615319490432739, 0.13925496678432245
0.342291324698535, 0.7615319490432739, 0.1647985071600239
0.2708786399386955, 0.7615319490432739, 0.26767539082720215
0.3608543595033954, 0.7615319490432739, 0.21027301566994144
0.28530907515591003, 0.7615319490432739, 0.20315113621869316
0.4803864451049803, 0.7615319490432739, 0.2605703139375302
0.23092060594217068, 0.7615319490432739, 0.24794319401375442
0.32414735324145433, 0.7615319490432739, 0.16081170529142189
0.5835104841464247, 0.761531949043274, 0.25591131250831045
0.5354880927235133, 0.7615319490432739, 0.24959668114811936
0.4290698859084334, 0.7615319490432739, 0.21820772932835134
0.3449672091381886, 0.7615319490432739, 0.20248178318927432
0.26341456788397943, 0.7615319490432739, 0.20805765603792023
0.26953174452363554, 0.7615319490432739, 0.19910139369061408
0.3137761833120486, 0.7615319490432739, 0.2153967847510807
0.30962804837029695, 0.7615319490432739, 0.17761715373346318
0.6256839099227329, 0.7615319490432739, 0.27853609765784415
0.30679563757192974, 0.7615319490432739, 0.25553227600422174
0.5790542267512927, 0.7615319490432738, 0.2644091825737301
0.5363260906244165, 0.7615319490432739, 0.24754954087551354
0.48185994177961633, 0.7615319490432739, 0.26770255753875866
0.3421935539248692, 0.7615319490432739, 0.20940054958455612
0.41343861325444714, 0.761531949043274, 0.2922490991765774
0.253206161613565, 0.7615319490432739, 0.2874292760701319
0.31002670713305397, 0.7615319490432739, 0.28419797759477794
0.295118022566063, 0.7615319490432739, 0.3305040827521339
0.4827427553871272, 0.7615319490432739, 0.3259774325264202
0.48235281760375015, 0.7615319490432739, 0.32331701353637743
0.6011322845472451, 0.7615319490432739, 0.3203561973422822
0.5412703777083292, 0.7615319490432739, 0.3113925092869324
0.6312062083668919, 0.7615319490432739, 0.31116843890674784
0.4351316770513194, 0.7615319490432739, 0.32988844076101764
0.5340068607685211, 0.7615319490432739, 0.32745155787066277
0.3325618108787591, 0.7615319490432739, 0.322512142290854
0.40379178923114223, 0.7615319490432739, 0.3346585147688975
0.7348443530783767, 0.7615319490432739, 0.11947827544555074
-0.43848235509234695, 0.7615319490432739, -0.32431838139427693
-0.6703760141560239, 0.7615320429060941, -0.2923432078671559
0.7337670106849141, 0.7615319490432739, 0.29806828484813913
-0.4976364944967264, 0.7615320199207198, 0.3089902770709649
-0.5946867770012804, 0.7615320375841554, 0.30353597592687065
-0.5054841469530431, 0.7615320195885311, 0.3090928538076905
-0.48673743769803385, 0.7615320291255205, 0.3061479220411054
-0.6518323312055881, 0.7615320119077962, 0.31146459177216945
-0.4979177778246436, 0.7615320574244158, 0.29740949204146894
-0.3224937154910983, 0.7615320614921739, 0.29615340701234866
-0.5872454653891446, 0.7615320206580454, 0.30876259792946287
-0.4651641726573095, 0.7615320338718023, 0.3046823152847496
-0.7244226910141718, 0.7615319612412979, 0.3018090631310169
-0.3791871817939601, 0.7565171127827466, 0.33587658405303955
-0.44065924491819247, 0.7543526597387058, 0.33587658405303955
-0.5954490573796412, 0.7594891240677786, 0.33587658405303955
-0.29295345550466934, 0.7424636682742422, 0.33587658405303955
-0.32720683989293026, 0.7394866567745726, 0.33587658405303955
-0.4173194027357192, 0.7423490255110791, 0.33587658405303955
0.7097324569854253, 0.750213921390895, 0.32909226261949576
0.7393102049827576, 0.7586223824735856, 0.2385058605059533
0.7393102049827576, 0.76057166657251, 0.1832600442735458
0.6818735964610986, 0.7567824611441949, -0.32658472657203674
-0.3054774031427983, 0.7529361045877077, -0.32658472657203674
-0.22680503698488272, 0.7564759570805704, -0.32658472657203674
-0.6000654458031112, 0.7481319148436496, -0.32658472657203674
-0.6749557948134622, 0.7528888989138284, -0.32658472657203674
-0.7398192286491394, 0.7522798989630832, -0.2788186075966044
-0.7398192286491394, 0.7501591889348007, 0.20327904290527948
-0.7398192286491394, 0.7424122076217349, 0.2360919243357701
-0.7136575693726852, 0.7586561318618316, 0.3248752983179558
-0.7069802093807498, 0.7503549781601047, 0.33221136930339795
-0.32519273670668447, 0.7615320682525635, 0.28889558046855457
-0.6754915784712268, 0.7615320166614336, 0.3099967137106475
-0.6926875026192851, 0.7615320682525636, 0.1643946350138103
-0.6915836274682836, 0.7615320682525635, 0.15831282293722346
-0.5390504148667921, 0.7615320682525635, 0.28307329404254383
-0.5518363741642601, 0.7615320682525635, 0.2850617627070662
-0.6795947074960469, 0.7615320682525635, 0.2839086173572764
-0.6192562272897602, 0.7615320100730022, -0.28212673270998856
-0.5841305923062823, 0.7615319664637159, -0.31617925093533866
-0.476120470535772, 0.7615319882183702, -0.30942888507987404
-0.39765667872132204, 0.7615319934466486, -0.3078065751431649
-0.4789244043048599, 0.7615319606232975, -0.31799150502274787
-0.507834973055889, 0.7615319711724776, -0.3147181445522033
-0.3081955248087906, 0.7615319708167898, -0.3148285128089795
-0.5208601270600479, 0.7615320048173362, -0.30427830476700374
-0.6285667654525128, 0.761531972534815, -0.3142954177349544
-0.5705545324688948, 0.7615320026111796, -0.3049628646750737
-0.7216007186470141, 0.7615319490432739, -0.2944011946966996
0.7229282817461933, 0.7615319649874192, -0.2925789666131884
-0.7271844576401009, 0.7615319764156161, 0.19400718098779285
-0.7308321041105917, 0.7615319633380051, 0.13655460453855933
-0.7264480631501169, 0.7615319790557515, 0.21162490170433526
-0.7001920772887724, 0.7615320682525635, 0.1860086288842765
0.6699706172724055, 0.7615319490432738, 0.2309579992293555
0.669275440687898, 0.7615319490432739, 0.23917498598543074
0.716603263327109, 0.7615319490432739, 0.11064335986648333
0.7025862655655977, 0.7615319490432739, 0.10354877361058934
0.724894061114292, 0.7615319490432739, 0.10165720891712293
0.7005545424990689, 0.7615319490432739, 0.2707954532092871
0.7015338479168439, 0.7615319490432739, 0.2900889039107105
0.45014190674667315, 0.6724966046814238, -0.3191550374031067
0.424318982551941, 0.675647125367473, -0.3191550374031067
0.42749826195309737, 0.685080310693072, -0.31915503740310674
0.4020893103428571, 0.6390131560288008, -0.31915503740310674
0.36017530224769473, 0.6108592647895454, -0.3191550374031067
0.3705885604542151, 0.6423432194651432, -0.3191550374031067
0.34851786212140023, 0.6265716386724833, -0.3191550374031067
0.4888390874256672, 0.6549925140172521, -0.3191550374031067
0.5549014856172552, 0.6695487534405026, -0.3191550374031067
0.6462212125022329, 0.6650553060048883, -0.3191550374031067
0.6475075872338533, 0.6610461275381981, -0.3191550374031067
0.6758142583338619, 0.6571491249998485, -0.3191550374031067
0.4650842457500154, 0.6394399192817686, -0.3191550374031067
0.5336746844827865, 0.6501506947639595, -0.3191550374031067
0.49151243644595694, 0.648391243663796, -0.3191550374031067
0.5940151886508475, 0.6185572057764842, -0.3191550374031067
0.595110650513855, 0.6391421921608191, -0.3191550374031067
0.5900718177215794, 0.626084098529687, -0.3191550374031067
0.5851495980323079, 0.6078017740277165, -0.31915503740310663
0.7009193301200867, 0.6736270390780811, -0.31770414443608824
0.6773942892157556, 0.6146824824617318, -0.29775211215019226
0.6219140378857841, 0.616588295681726, -0.29775211215019226
0.691078884125979, 0.6090833433084633, -0.29775211215019226
0.6916481122975806, 0.6218658580777638, -0.29775211215019226
0.6239122661409459, 0.6754292206131788, -0.29775211215019226
0.5891865543036112, 0.6668459185740939, -0.29775211215019226
0.4828194083726691, 0.6614308709999255, -0.29775211215019226
0.46490867605988445, 0.6570273602587533, -0.29775211215019226
0.47343886710794186, 0.6800775621093111, -0.29775211215019226
0.5601172103408121, 0.6349671433272588, -0.29775211215019226
0.4904484620862535, 0.6460727292760352, -0.29775211215019226
0.5351782881499199, 0.6413480218510024, -0.29775211215019226
0.355035756361628, 0.6695221796611849, -0.29775211215019226
0.3448424362298409, 0.6919957492171627, -0.29775211215019226
0.3729762612534341, 0.6799913740281686, -0.29775211215019226
0.43231759160319105, 0.6392502189079918, -0.29775211215019226
0.4328141229581741, 0.6255379812681459, -0.29775211215019226
0.39723992378722756, 0.6387501193425809, -0.29775211215019226
0.34049297594062977, 0.6300646923120453, -0.29775211215019226
0.15842881989215402, 0.6804730968906544, -0.29775211215019226
0.18803413816412906, 0.6655112724471187, -0.29775211215019226
0.11053135340047293, 0.6930273138066126, -0.29775211215019226
0.20970234526756779, 0.6771480633608716, -0.29775211215019226
0.23224290293821576, 0.6711567420611368, -0.29775211215019226
0.012901010192291278, 0.6605175860820696, -0.29775211215019226
0.034084993765048546, 0.6618338640115866, -0.29775211215019226
0.09002601607754113, 0.6563640261110565, -0.29775211215019226
-0.06345539934160688, 0.6840369470318379, -0.29775211215019226
0.27166486063228634, 0.6340317386170158, -0.29775211215019226
0.16285630539063484, 0.642688133429358, -0.29775211215019226
0.28562569995497794, 0.6285246803401981, -0.29775211215019226
0.27898817296727546, 0.6194968381138148, -0.29775211215019226
0.18313835348620516, 0.6470876323342668, -0.29775211215019226
0.3220400448302757, 0.6217190052546056, -0.29775211215019226
0.12970375041447227, 0.6511916977972293, -0.29775211215019226
0.0010282433167933744, 0.6506266576712445, -0.29775211215019226
0.07526334196649663, 0.6436017771032437, -0.29775211215019226
0.026383483117508162, 0.6509776518700148, -0.29775211215019226
-0.05528361410308836, 0.6431034881011994, -0.29775211215019226
0.027758146508489775, 0.6374004039158901, -0.29775211215019226
-0.024937824784538702, 0.6397799763493552, -0.29775211215019226
-0.18476073071645513, 0.6654880999317313, -0.29775211215019226
-0.2621557785497975, 0.6851034746395116, -0.2977521121501922
-0.31340199989896694, 0.6916368920239999, -0.29775211215019226
-0.2564186103570124, 0.665054621763614, -0.29775211215019226
-0.18939456220750228, 0.6562575543285438, -0.29775211215019226
-0.23746149180254783, 0.6399594664726612, -0.29775211215019226
-0.17159959820880955, 0.6348820460259925, -0.29775211215019226
-0.23643244566075772, 0.6322444092015921, -0.2977521121501922
-0.14117296266744545, 0.6161476487832669, -0.29775211215019226
-0.15218319707497804, 0.6119141256742602, -0.29775211215019226
-0.23278915228469996, 0.652514898911754, -0.29775211215019226
-0.3990996565680791, 0.6592766670651042, -0.29775211215019226
-0.4285478622308253, 0.6734260108946607, -0.29775211215019226
-0.3862066482805145, 0.6688144246377007, -0.2977521121501922
-0.4072566512424952, 0.6473802560830265, -0.29775211215019226
-0.4095647220593679, 0.6332689595931625, -0.29775211215019226
-0.3717601406582672, 0.6548140508731268, -0.29775211215019226
-0.5201121706656495, 0.6690390505836636, -0.29775211215019226
-0.5526184609747967, 0.6658260296005679, -0.29775211215019226
-0.5007474126008176, 0.6638806703126982, -0.29775211215019226
-0.5583315619643882, 0.6497885558305831, -0.29775211215019226
-0.49933677802213505, 0.6450031688007871, -0.29775211215019226
-0.4717183716565063, 0.6251562392638216, -0.29775211215019226
-0.602889885232189, 0.6637411353805702, -0.29775211215019226
-0.6084733178983874, 0.6638911771639743, -0.29775211215019226
-0.6131125874637006, 0.6573871422446751, -0.29775211215019226
-0.6366323879954063, 0.6391336549558709, -0.2977521121501922
-0.668272442449815, 0.643198537199633, -0.29775211215019226
-0.6606608150297749, 0.6453551324193276, -0.29775211215019226
-0.694291274663829, 0.6475284937503485, -0.29775211215019226
-0.7009193301200867, 0.6915621283841002, -0.3098924732045186
-0.6794831865091082, 0.6573452865024259, -0.3191550374031067
-0.6236661825747397, 0.6760709356354394, -0.3191550374031067
-0.6176870189213491, 0.6602669987216676, -0.3191550374031067
-0.5274461067390306, 0.6570883764031852, -0.3191550374031067
-0.4959783603696599, 0.6558631844827219, -0.3191550374031067
-0.6756849915951019, 0.6097127399620152, -0.31915503740310663
-0.648562773400863, 0.6256513588719538, -0.31915503740310663
-0.6482589154049884, 0.6498056332868618, -0.3191550374031067
-0.6818679527417288, 0.6137783593186611, -0.3191550374031067
-0.5448461617605015, 0.6236025085909772, -0.3191550374031067
-0.5292750506914076, 0.6494795414788659, -0.3191550374031067
-0.5605137225397122, 0.6110117062145913, -0.3191550374031067
-0.38715371051771286, 0.6729092124730434, -0.3191550374031067
-0.34803416332588905, 0.6575213889358353, -0.3191550374031067
-0.4192400753118237, 0.6574102180155431, -0.3191550374031067
-0.43669543933752925, 0.625138789861822, -0.3191550374031067
-0.4554637780231096, 0.6386164960250298, -0.3191550374031067
-0.36706599020691244, 0.6463739679906468, -0.3191550374031067
-0.19336299536737564, 0.6680668848014066, -0.3191550374031067
-0.2545625104800985, 0.6593803073179962, -0.3191550374031067
-0.1555127776035553, 0.6747113890936614, -0.3191550374031067
-0.1910904671400085, 0.6745469856396327, -0.31915503740310674
-0.18066998925588204, 0.67489664966377, -0.3191550374031067
-0.25896896408138115, 0.6187948267409278, -0.3191550374031067
-0.19417501762939288, 0.6373322297480108, -0.3191550374031067
-0.31816216144290754, 0.6241829233343075, -0.3191550374031067
-0.254213236177051, 0.6492978488039474, -0.3191550374031067
-0.21038102351521556, 0.6311317656510919, -0.3191550374031067
-0.31454714040628035, 0.6371761833723948, -0.3191550374031067
-0.29228551757590093, 0.6450212770176638, -0.3191550374031067
0.08326154269650267, 0.6787067784808605, -0.31915503740310663
-0.0686576997582867, 0.6567672658009047, -0.3191550374031067
-0.022025366851989966, 0.6721268732392195, -0.3191550374031067
-0.05958391216341679, 0.6631037065141117, -0.31915503740310674
0.3105994041788758, 0.6553151400711945, -0.3191550374031067
0.30514255254718997, 0.6657823327089866, -0.3191550374031067
0.30585008771994016, 0.6550259367714174, -0.3191550374031067
0.3016027185346234, 0.683436548438309, -0.3191550374031067
0.31523139903614816, 0.6667813935331828, -0.3191550374031067
-0.09295117445472656, 0.6229437232061703, -0.3191550374031067
-0.022697331462191814, 0.6470497094821037, -0.3191550374031067
-0.07876233802811966, 0.6090297952024205, -0.3191550374031067
-0.09664139973068409, 0.6209374569292574, -0.3191550374031067
-0.09614201703793455, 0.6258733062493654, -0.3191550374031067
-0.055339097043522675, 0.6541867273533879, -0.3191550374031067
0.10756435659755353, 0.6531082972423355, -0.3191550374031067
0.16576820933849978, 0.6495964444227891, -0.3191550374031067
0.15841956605852178, 0.6405644063826335, -0.3191550374031067
0.15374040725560223, 0.6470466545553706, -0.3191550374031067
0.3058833436947123, 0.6526327476559873, -0.3191550374031067
0.11739668050816196, 0.6082860334812734, -0.31915503740310674
0.32777757895065873, 0.667328509355696, -0.3191550374031067
0.6045034471490969, 0.6021318215058549, -0.3191550374031067
