-0.27415499091148376, 0.8053400311209403, 0.18146903196603253
-0.27415499091148376, 0.7503767039364049, 0.06808805845532995
-0.27415499091148376, 0.7405339043758028, -0.003886701580131817
-0.27415499091148376, 0.7616275323979599, 0.062173959802710475
-0.6293889284133911, 0.8158359659242893, 0.022284000104806398
-0.6293889284133911, 0.8147434659783255, -0.1222704821338524
-0.6293889284133911, 0.8212211137296269, 0.060511672935620216
-0.6293889284133911, 0.7513317472510126, -0.12068014413685305
-0.629388928413391, 0.7301901833035398, -0.09827747829313144
-0.6293889284133911, 0.7564259066794893, -0.0006267838419929304
-0.6293889284133911, 0.8043633639753489, -0.023213852076682126
-0.6293889284133911, 0.7979223630342053, 0.10486631620802658
-0.6293889284133911, 0.7892058522498511, -0.052846339944589135
-0.629388928413391, 0.8196766303557339, 0.13905915298563157
-0.6293889284133911, 0.8210280589464007, -0.1139603192453042
-0.6293889284133911, 0.723109415902331, -0.06303256625069914
-0.6293889284133911, 0.767562199916863, 0.11843608763192151
-0.6293889284133911, 0.7313935266748899, 0.05442310135122636
-0.629388928413391, 0.8073874726526886, 0.1602824993946434
-0.6293889284133911, 0.7264824402512545, -0.04973654296051176
-0.6293889284133911, 0.7778340768436004, 0.0699479873507137
-0.629388928413391, 0.7783995849506943, 0.08556152224617761
-0.6293889284133911, 0.7667811207030385, 0.051425680555429475
-0.6293889284133911, 0.7443365148985341, 0.14423662121437503
-0.6293889284133911, 0.7536817189516639, 0.1040764306683586
-0.6293889284133911, 0.7350944172902861, 0.046691267369916786
-0.629388928413391, 0.7988204731968185, 0.13968232587318896
-0.25957024097442627, 0.7983859018214056, 0.17654060104784866
-0.25957024097442627, 0.7435128617879903, 0.09168538178716013
-0.25957024097442627, 0.8006756788685234, 0.1320344429851916
-0.25957024097442627, 0.7431264576017576, 0.14997046347871512
-0.25957024097442627, 0.778710012755652, -0.005270467693656907
-0.25957024097442627, 0.7790089842106269, 0.0724699211026259
-0.25957024097442627, 0.7773881053682279, 0.17306655018031308
-0.25957024097442627, 0.8167093450325315, -0.062463628635181775
-0.25957024097442627, 0.8132572642226563, 0.01079469712269527
-0.25957024097442627, 0.8135985759248916, 0.07213535158910224
-0.25957024097442627, 0.7844302574515827, 0.08573165909558
-0.25957024097442627, 0.7308050485818562, 0.011851962541007136
-0.25957024097442627, 0.7582165456129831, 0.03881724260496393
-0.25957024097442627, 0.720072571890781, -0.002893722204749344
-0.25957024097442627, 0.7125482922859152, 0.1306506699993423
-0.2595702409744263, 0.741390442855772, 0.08941724233995753
-0.25957024097442627, 0.714529726215314, 0.11212913355848322
-0.25957024097442627, 0.7097937555494205, -0.065905069816134
-0.25957024097442627, 0.7393171754417025, 0.07807010704216191
-0.25957024097442627, 0.7593545971732032, -0.11167763595576943
-0.25957024097442627, 0.7582760659722907, -0.08968230317884321
-0.25957024097442627, 0.7873625905431045, -0.07843386963502583
-0.42181283162010247, 0.7462749464448597, -0.12981635332107544
-0.3510575140481723, 0.7465229327237621, -0.12981635332107544
-0.4182572210425077, 0.7663920140274227, -0.12981635332107544
-0.39159665026117196, 0.7110867987559286, -0.12981635332107544
-0.293962838674291, 0.8028051810225287, -0.12981635332107544
-0.26924108081999015, 0.7948440942847097, -0.12981635332107544
-0.346054033290086, 0.7874917605618075, -0.12981635332107544
-0.3698670982579344, 0.7307075794599405, -0.12981635332107544
-0.2617243498376478, 0.782531534637916, -0.12981635332107544
-0.34169249462263707, 0.771335209578985, -0.12981635332107544
-0.3104620280817565, 0.7860438117896329, -0.12981635332107544
-0.2795152479611688, 0.7205307094361313, -0.12981635332107544
-0.40586156728512923, 0.7372017447311973, -0.12981635332107544
-0.4793429181453503, 0.7496348198398713, -0.12981635332107544
-0.5625101831188657, 0.7856357127591979, -0.12981635332107544
-0.4482069883499215, 0.8190605344156189, -0.12981635332107544
-0.5409067774701998, 0.8154904197511506, -0.12981635332107544
-0.6111703447834516, 0.7377156761836537, -0.12981635332107544
-0.6118604622396577, 0.7822177700177694, -0.12981635332107544
-0.5574831996299376, 0.7706755336309488, -0.12981635332107544
-0.5110969206490822, 0.7465394548520935, -0.12981635332107544
-0.5202910059641412, 0.7899167008212353, -0.12981635332107544
-0.5642615004788561, 0.813190899478295, -0.12981635332107544
-0.5935731916698825, 0.7283127372110649, -0.12981635332107544
-0.5273140289197407, 0.8006439892287094, -0.12981635332107544
-0.523111897923996, 0.8195288358176895, -0.12981635332107544
-0.557449341611073, 0.747018253968806, -0.12981635332107544
-0.6194628198245822, 0.8227338194847107, 0.16786792845019466
-0.6149967258995297, 0.8214657218478388, 0.05797753975263344
-0.5661176669005429, 0.8227338194847107, -0.12103422767092956
-0.5876273798697251, 0.8215848113247233, -0.11313342360671498
-0.262068522578797, 0.8227338194847107, -0.05865043541137999
-0.27245585577706055, 0.8227338194847107, 0.14513678436988306
-0.2605889435247399, 0.8222933665922447, 0.1587472064213908
-0.6173629385783707, 0.8227338194847106, -0.10655971638339909
-0.2726542934561673, 0.8227338194847107, -0.12062823456955887
-0.2913446083851276, 0.8227338194847107, -0.11891245452462684
-0.4978091335815909, 0.7093541026115417, 0.08912728990808919
-0.4941158386325043, 0.7093541026115417, 0.17706122919853345
-0.46018320646451194, 0.7093541026115417, 0.11397630600698297
-0.5995678346343479, 0.7093541026115417, 0.07348176595385798
-0.37967850454734264, 0.7093541026115417, 0.12060606696370886
-0.3480413636445289, 0.7093541026115416, 0.12798063786351338
-0.5588771167070994, 0.7093541026115419, 0.014536465320044475
-0.5604890815866216, 0.7093541026115417, -0.057103681482178724
-0.6005272123160001, 0.7093541026115417, 0.07480300421703018
-0.48587896765876615, 0.7093541026115417, 0.1518746376028738
-0.427346169964546, 0.7093541026115417, 0.07452628185138004
-0.4958529458774358, 0.7093541026115419, 0.05200966795934216
-0.4570794083020535, 0.7093541026115417, 0.03974748921714391
-0.49664032524475477, 0.7093541026115417, 0.1569118129826003
-0.5526212218331261, 0.7093541026115417, 0.1281051434508275
-0.4774196826811944, 0.7093541026115416, 0.05570237708888398
-0.5427311361498555, 0.7093541026115417, 0.06335796800728655
-0.5245902761143193, 0.7093541026115417, 0.12032111497835733
-0.6135194367919676, 0.7093541026115417, 0.11554512159244083
-0.3767010187609491, 0.7093541026115417, 0.10133317107314749
-0.4945897393924349, 0.7093541026115417, 0.17745059726782203
-0.6248892627458946, 0.7093541026115416, -0.12231385257921695
-0.4059872940153435, 0.7093541026115416, 0.14655562234348626
-0.48735795060851694, 0.7093541026115417, 0.07803106556785182
-0.554342323780793, 0.7093541026115417, 0.16560066244313124
-0.5611085284788695, 0.7093541026115417, 0.09330988697925024
-0.41294411281037857, 0.7093541026115417, 0.12210290346884126
-0.48634410131149175, 0.7093541026115419, 0.0005946530994874735
-0.609988343997106, 0.7093541026115417, -0.019314958438121872
-0.4826646008114057, 0.7093541026115417, 0.16585361545785982
-0.625125748156403, 0.7093541026115417, 0.07207047211876946
-0.4467383018737337, 0.7093541026115417, 0.0719163097854337
-0.4930294345388926, 0.7093541026115417, 0.1667116723697023
-0.3314151807787212, 0.7093541026115417, 0.1758975986549371
-0.3877885178719652, 0.7093541026115417, 0.13779232933858293
-0.6099445940039069, 0.7093541026115417, -0.005510567991016374
-0.4942325937179419, 0.7093541026115417, 0.022119928591440113
-0.6021712909623685, 0.7093541026115419, 0.1815124171195989
-0.5718609651061389, 0.7093541026115417, -0.10063193849432345
-0.4606996168618494, 0.7093541026115417, -0.06543423703236478
-0.2673106823390833, 0.7093541026115417, -0.08303075697776426
-0.2782968569352486, 0.7093541026115416, 0.11005528612677953
-0.3626449043476811, 0.7093541026115417, 0.02088716787416329
-0.30400636464176073, 0.7093541026115417, 0.023298304066483304
-0.38201453913945227, 0.7093541026115417, -0.10419715107477198
-0.26655534111344564, 0.7093541026115417, -0.0810024185307808
-0.2731138520698735, 0.7093541026115417, -0.05597882412421484
-0.3726230575344224, 0.7093541026115417, -0.05423261374131995
-0.29956529761083334, 0.7093541026115417, -0.024744833890929747
-0.3369992855843436, 0.7093541026115417, 0.00992037398368173
-0.34211297375788235, 0.7093541026115417, 0.08702720616489867
-0.5517109357037447, 0.7093541026115417, -0.07646966684831956
-0.26827630340671327, 0.7093541026115417, 0.05087415092791247
-0.40394535373121665, 0.7093541026115417, -0.11329075427482906
-0.4375699422876165, 0.7093541026115417, -0.013112490794907457
-0.5453873561056205, 0.7093541026115417, -0.08149473744086756
-0.4109485580513464, 0.7093541026115417, -0.1084867851544559
-0.311137360422033, 0.7093541026115417, 0.12897687265170746
-0.3395662123398749, 0.7093541026115417, -0.010374872897734401
-0.4014434248912268, 0.7093541026115417, -0.10631499591128064
-0.5167142569361342, 0.7093541026115417, -0.053430425984335214
-0.49513850113611674, 0.7093541026115417, -0.09095007955201007
-0.38593774431518735, 0.7093541026115417, 0.01548380202754511
-0.3135789841579024, 0.7093541026115417, 0.01949018495916554
-0.3665127609716461, 0.7093541026115417, 0.06563874126523946
-0.27466901862634807, 0.7093541026115417, -0.12057451349694302
-0.4033836899302025, 0.7093541026115417, -0.07460230269090752
-0.3935916207091792, 0.7093541026115417, 0.04368488741562283
-0.37376887945128767, 0.7093541026115416, -0.12925675692923255
-0.3694133985973198, 0.7093541026115417, -0.0330262738568451
-0.30704092419176354, 0.7093541026115417, -0.011843994362519775
-0.3373783667618062, 0.7093541026115419, 0.1013431472275727
-0.33083100778457236, 0.7093541026115419, 0.09343272951090831
-0.2617618223720575, 0.7093541026115417, 0.13980501464351427
-0.40914096123295496, 0.7093541026115417, -0.06395282934003302
-0.3486337121409186, 0.7231382727622986, 0.07210196646026068
-0.3523770573049212, 0.7231382727622986, 0.12961465890267715
-0.3374174822319373, 0.7231382727622986, 0.1494129631012489
-0.4177588031541421, 0.7231382727622986, 0.06882919316106659
-0.41474361244068153, 0.7231382727622986, 0.043696585604656515
-0.46880623148551803, 0.7231382727622986, 0.1704844627952658
-0.29493061627067374, 0.7231382727622986, 0.14749108285235243
-0.3151697842503797, 0.7231382727622986, -0.009161730498709664
-0.43568604698781066, 0.7231382727622986, 0.17177294470985
-0.41676631981597556, 0.7231382727622986, 0.05420886343327801
-0.3217654633649366, 0.7231382727622986, 0.09680175882575828
-0.38862296914863054, 0.7231382727622986, 0.14294564907784946
-0.43322700506677747, 0.7231382727622986, 0.09314189198392744
-0.4793137588174618, 0.7231382727622986, 0.11334686562442214
-0.32587466917962415, 0.7231382727622986, 0.10293321417495692
-0.41731498533297906, 0.7231382727622986, 0.1710236115906634
-0.3854802468046051, 0.7231382727622987, 0.04949298089113862
-0.41601418627405634, 0.7231382727622986, 0.04609229111387397
-0.331498005350174, 0.7231382727622985, 0.021163425294003967
-0.3269149485690118, 0.7231382727622986, 0.03280157940544214
-0.36229716829517233, 0.7231382727622986, 0.048783681451795076
-0.4217739599865551, 0.7231382727622986, 0.015759058316192873
-0.5102500940358792, 0.7231382727622986, 0.1275028811220159
-0.3233478973132989, 0.7231382727622986, 0.048768304946170196
-0.35411705138550986, 0.7231382727622986, -0.040992172520415024
-0.33537509007428495, 0.7231382727622986, 0.01700107882892292
-0.5546306417047319, 0.7231382727622987, 0.17669630409727125
-0.5893142163661708, 0.7231382727622986, 0.17174272857328957
-0.4554020544018278, 0.7231382727622986, 0.18164369112634815
-0.4370752853207161, 0.7231382727622986, 0.08236150938902526
-0.3849137881259326, 0.7231382727622986, 0.17402489450702763
-0.45311484243174466, 0.7231382727622985, 0.05526486486082667
-0.34225208659322415, 0.7231382727622986, -0.04190087557848665
-0.6048798253476174, 0.7231382727622986, 0.13347635293032328
-0.49075792357878656, 0.7231382727622986, 0.05928265916317141
-0.6115193354956373, 0.7231382727622986, 0.03365511371096251
-0.5519473399109951, 0.7231382727622986, -0.10761702292529979
-0.5594485538426431, 0.7231382727622986, -0.05665565643957124
-0.5735392171406168, 0.7231382727622986, -0.027832133977774835
-0.42687865894066007, 0.7231382727622986, -0.10657826884012847
-0.613993729720147, 0.7231382727622987, 0.10269368387957653
-0.5653961494902658, 0.7231382727622986, -0.06334492204041885
-0.3357087979975926, 0.7231382727622986, -0.09263404678288807
-0.5685892488320126, 0.7231382727622986, -0.005278512016956324
-0.5599905399409639, 0.7231382727622986, -0.02584232438896622
-0.5171180770968351, 0.7231382727622986, -0.011119221252071536
-0.6052830552486674, 0.7231382727622986, -0.08562757863510419
-0.32402226938921125, 0.7231382727622986, -0.08338232613040765
-0.42935548673742036, 0.7231382727622985, 0.016252793101858634
-0.34664467347223976, 0.7231382727622986, -0.07536665594086689
-0.4548944321851435, 0.7231382727622986, -0.0817986078224885
-0.6122767413835885, 0.7231382727622986, 0.08996827318818244
-0.529199342694871, 0.7231382727622986, -0.011357502360646914
-0.5403804806687466, 0.7231382727622987, 0.06685764292637966
-0.46947580534571526, 0.7231382727622986, 0.04669412507593199
-0.4706165225205274, 0.7231382727622986, -0.002407895111458353
-0.29298337633572347, 0.7231382727622987, -0.09680837281728395
-0.5385258572133055, 0.7231382727622986, 0.05420982099334928
-0.6035285535972484, 0.7231382727622986, 0.161536942061939
-0.5041712512085057, 0.7231382727622986, -0.05362794561675163
-0.41060885237392636, 0.7231382727622986, -0.06866136676520443
-0.6028832074637684, 0.7231382727622986, -0.04166409911541051
-0.48111923540597434, 0.7231382727622986, -0.015626588957043268
-0.4780728632235156, 0.7231382727622986, 0.05182132121149705
-0.3550220057424629, 0.7231382727622986, -0.06886544761802064
-0.2488390523100875, 0.7210961886698872, 0.1803491271226334
-0.44365201583235137, 0.8409226536750793, 0.20455202348084417
-0.45578986151279477, 0.7853756546974182, 0.2044997405012884
-0.4206285453988614, 0.7829956412315369, 0.20428012512157462
-0.570336369248474, 0.7829956412315369, 0.20085211940860254
-0.517574453120473, 0.6991798281669617, 0.20285561903389712
-0.6404716372489929, 0.7141469966047399, 0.19788110913455292
-0.6376253698206553, 0.723822347270209, 0.17991319298744202
-0.6240524489281358, 0.7362971443411069, 0.17991319298744202
-0.48293312908005265, 0.7620929291485041, 0.17991319298744202
-0.5128581282100317, 0.7583915402011652, 0.17991319298744202
-0.5510922576380477, 0.7674991221739901, 0.17991319298744202
-0.5377586171336741, 0.7402928239225277, 0.17991319298744202
-0.4518978488256283, 0.7402524314894098, 0.17991319298744204
-0.5188106918434858, 0.7572181375715352, 0.17991319298744202
-0.5139616433294071, 0.7552435958628179, 0.17991319298744202
-0.4147466128861589, 0.7545719961063821, 0.17991319298744202
-0.32686615209429626, 0.7772717281910771, 0.17991319298744202
-0.5054416137844376, 0.7676890874021587, 0.20757047832012177
-0.4010306980855259, 0.7375666706182622, 0.2075704783201218
-0.3482412750550022, 0.7481245006661172, 0.20757047832012177
-0.427711510235198, 0.7448397985180875, 0.20757047832012177
-0.438803198729695, 0.7620185736445181, 0.20757047832012174
-0.2667668292891125, 0.7642733648413003, 0.20757047832012177
-0.29952968948523934, 0.76259969997599, 0.20757047832012177
-0.26901833063491576, 0.7362896378935846, 0.20757047832012177
-0.509215014839263, 0.7751295732332057, 0.2075704783201218
-0.29789059079501956, 0.7712083347259424, 0.20757047832012177
-0.5805203227245452, 0.8409226536750793, 0.20139032344221203
-0.3911669898629139, 0.8081797438367497, 0.20757047832012174
-0.3136822366365869, 0.8203850983043439, 0.20757047832012177
-0.3716862336532475, 0.8149974946139107, 0.20757047832012177
-0.28114424235218227, 0.7913805769202099, 0.20757047832012177
-0.4659526030613584, 0.8380480488286318, 0.20757047832012177
-0.4500811355362322, 0.8162046985200752, 0.20757047832012177
-0.47641930755035855, 0.8257323202267902, 0.20757047832012177
-0.5260568926313338, 0.8015034340890199, 0.20757047832012177
-0.3258212082828654, 0.794674957153436, 0.20757047832012177
-0.5826977482803585, 0.8030374906310878, 0.20757047832012177
-0.5521241469915998, 0.8112247080878093, 0.20757047832012177
-0.4480544694810201, 0.8069474140306205, 0.20757047832012177
-0.6006715469632172, 0.8236323841746394, 0.20757047832012177
-0.5060876677002542, 0.8157879505733835, 0.20757047832012177
-0.521253826581256, 0.7853756546974181, 0.2017005786095817
-0.32835156221667994, 0.6991798281669617, 0.2019200871411323
-0.30230162392866183, 0.7023125400508676, 0.20757047832012177
-0.5132140848423503, 0.7226329719320732, 0.20757047832012177
-0.47706624695777106, 0.7085929330266494, 0.20757047832012177
-0.5790571109362004, 0.7198165405825524, 0.20757047832012177
-0.49045535829588544, 0.7046177042590189, 0.20757047832012177
-0.5368652725038937, 0.7383526318522168, 0.20757047832012177
-0.5858558696655615, 0.7647343759423948, 0.20757047832012174
-0.3718676202822172, 0.7079702382383537, 0.20757047832012177
-0.34331728207055107, 0.705336209810912, 0.20757047832012177
-0.6144508864153079, 0.7420251027966652, 0.20757047832012177
-0.570449837577375, 0.7072515785483301, 0.20757047832012177
-0.24848754703998566, 0.7762957244188669, 0.18982405870686603
-0.3479814725355953, 0.6991798281669617, 0.19147730357869253
-0.49608763642098946, 0.6991798281669617, 0.18441788815232144
-0.4637797104506982, 0.7067296587476557, 0.17991319298744202
-0.2892715558398545, 0.7274547973298959, 0.17991319298744202
-0.5390776678176424, 0.7159228259277522, 0.17991319298744204
-0.3194282106999903, 0.7016059131335504, 0.179913192987442
-0.512133116306387, 0.708868027753535, 0.17991319298744202
-0.2838562324891589, 0.7606415851364389, 0.17991319298744202
-0.3434245858707885, 0.7030782305274741, 0.17991319298744202
-0.3437452945048628, 0.7090268101539188, 0.17991319298744202
-0.2613466971440801, 0.7042722150358468, 0.17991319298744202
-0.2901616583469479, 0.7319573739176783, 0.17991319298744202
-0.46180901725002277, 0.7050560249280464, 0.17991319298744202
-0.5649409524688425, 0.6991798281669617, 0.18970440828568355
-0.5416363054623812, 0.6991798281669617, 0.19322523630982305
-0.561122382584611, 0.6996627972125612, 0.18024834613341767
-0.39817090443570097, 0.8409226536750793, 0.1919704029078472
-0.5433750934062518, 0.8409226536750793, 0.19914563921786926
-0.257886046824108, 0.8409226536750793, 0.19041082213399863
-0.6298675229763432, 0.7923457179887191, 0.17991319298744204
-0.3690736932825744, 0.8306993589964292, 0.179913192987442
-0.3422855556887339, 0.8279988640104459, 0.17991319298744204
-0.5699904946284264, 0.8386118365978933, 0.17991319298744202
-0.5473257739146963, 0.807370904642694, 0.17991319298744202
-0.561043368622145, 0.8131724071350714, 0.17991319298744202
-0.6311919006849503, 0.8188679685406264, 0.17991319298744202
-0.487289565707627, 0.8409226536750793, 0.18265140016459602
-0.283799453673102, 0.8409226536750793, 0.18134603651105569
-0.5675744896152239, 0.8409226536750793, 0.19039693872573246
-0.4120684751007585, 0.8127352862286176, 0.17991319298744204
-0.4213278042339836, 0.7965387335137812, 0.17991319298744202
-0.27683284550372445, 0.8184809527801167, 0.17991319298744202
-0.30651893245834205, 0.8294879392309025, 0.17991319298744202
-0.25204317168776547, 0.8365990006722543, 0.17991319298744202
-0.30269364486167355, 0.8132795892800011, 0.17991319298744202
-0.30239349671127025, 0.8197263367960554, 0.17991319298744202
-0.5999120040292345, 0.7836523990159003, 0.1999131590127945
0.1160531792477486, 0.27463073094590523, 0.20709600202444745
0.4442509013258997, 0.4233161509037018, 0.20337381098521431
0.0028007598593831062, 0.3700756835611911, 0.20423734035006869
0.14021470459512733, 0.36743757128715515, 0.20262033824382808
0.2655533052509721, 0.3647360599769675, 0.2072328616913146
0.6364944993506075, 0.36498576402664185, 0.20152406560999894
0.5864398283554306, 0.36498576402664185, 0.1999598190720148
0.0028007543928882796, 0.35292072326595303, 0.2029712597266689
0.023303400829070554, 0.2771126329898834, 0.20265734819155665
0.6407568454742432, 0.20932411206874152, 0.20189321219367534
0.5529404772053454, 0.27482372522354126, 0.20634700630256136
0.2073686009976835, 0.27482372522354126, 0.20267624302110301
0.0028007598593831062, 0.24192727613454687, 0.20070908441670438
0.25056990096044224, 0.19468213617801666, 0.20453825635552203
0.49362673680293934, 0.333874360356609, 0.20781491696834564
0.17960353699439097, 0.35729243381533554, 0.20781491696834564
0.6188140304888294, 0.3269428945410511, 0.20781491696834564
0.24639121595360214, 0.33692625346567345, 0.20781491696834564
0.6121791323602395, 0.28424552676024145, 0.20781491696834561
0.27545013043691013, 0.3312025859043892, 0.20781491696834564
0.4585375791206468, 0.3541909209517097, 0.20781491696834564
0.4792560568555114, 0.3608868710497271, 0.20781491696834564
0.4221402798796208, 0.3095482738905999, 0.20781491696834564
0.5001047544833033, 0.34263252550367007, 0.20781491696834564
0.5252531174854977, 0.34252518246411123, 0.20781491696834564
0.393700253042909, 0.341219819268365, 0.20781491696834564
0.43804928829371514, 0.3494898433559354, 0.20781491696834564
0.6334666179508655, 0.3075027870328365, 0.20781491696834567
0.1892404635686477, 0.3479446236758007, 0.20781491696834561
0.4708548042347802, 0.3306108550010384, 0.20781491696834564
0.2976711431205251, 0.3477441203685348, 0.20781491696834564
0.3370515359906873, 0.3335199740484038, 0.20781491696834564
0.002800757380301656, 0.29630482158889226, 0.1863807092953188
0.0028007598593831062, 0.22325653903056264, 0.1904581575568718
0.3662452489252606, 0.4233161509037018, 0.20005470502768605
0.5755024058054218, 0.37464502685640005, 0.20781491696834564
0.5639611506371254, 0.37802649160666457, 0.20781491696834564
0.4287851223539046, 0.40590769972150276, 0.20781491696834567
0.4450191604069356, 0.4194297357454343, 0.20781491696834564
0.5718074301698985, 0.41120275999792505, 0.20781491696834564
0.20491827775838517, 0.41858498549254686, 0.20781491696834564
0.0938557573737647, 0.41559769630140925, 0.20781491696834564
0.5820799439187508, 0.4196483132693862, 0.20781491696834561
0.4003227083263775, 0.42148309758781766, 0.20781491696834564
0.5236398923945709, 0.409106192623626, 0.20781491696834564
0.631895098428506, 0.3879954189848023, 0.20781491696834564
0.17434322294621415, 0.4232696284087486, 0.20674236357426168
0.02249228374570236, 0.39644771510561344, 0.20781491696834564
0.22280302709329175, 0.39093007914416467, 0.20781491696834567
0.20631748740557143, 0.3987724500394474, 0.20781491696834564
0.09051845609876324, 0.36900657619942256, 0.20781491696834564
0.3503869840314608, 0.3781831973914904, 0.20781491696834561
0.11628886763781776, 0.3757135716262214, 0.20781491696834564
0.057505547870272115, 0.40996457413846515, 0.20781491696834564
0.221213717461268, 0.3756360905020196, 0.20781491696834564
0.10141766584586591, 0.4097752079976806, 0.20781491696834564
0.08140278399202076, 0.37791101585397047, 0.20781491696834564
0.04295768636184955, 0.37468192046223, 0.20781491696834564
0.5925768718904248, 0.36743757128715515, 0.20564894590491412
0.619112619027173, 0.36743757128715515, 0.20444600628202933
0.16247885497184764, 0.28153072456643613, 0.20781491696834564
0.24824793140498505, 0.3249042566351302, 0.20781491696834561
0.17075487090046565, 0.32869142004493834, 0.20781491696834564
0.21001991212350277, 0.3156089686942894, 0.20781491696834564
0.15378005687487267, 0.29149116377480344, 0.20781491696834564
0.24176731540910062, 0.30670657855305977, 0.20781491696834564
0.049121939900167104, 0.2879827489915172, 0.20781491696834564
0.29079149104845214, 0.3058527037774024, 0.20781491696834567
0.014791466793010175, 0.2929076060129587, 0.20781491696834564
0.11479192140238058, 0.29511549614117083, 0.20781491696834564
0.26745693941946874, 0.2900124691874312, 0.20781491696834564
0.10082441900346718, 0.3139401920721576, 0.20781491696834564
0.5141757385393412, 0.2915232019468268, 0.20781491696834564
0.03688103092537695, 0.35831314312396456, 0.20781491696834564
0.04785693657679057, 0.3568956031591553, 0.20781491696834561
0.0241059971660096, 0.29811772458665337, 0.20781491696834564
0.39659058968916977, 0.2940435516923704, 0.20781491696834564
0.04978814328981362, 0.3447108318569829, 0.20781491696834564
0.6231347509003389, 0.2771126329898834, 0.20633695467440025
0.30916144621421654, 0.2777938791546213, 0.20760629190626037
0.38808809835777586, 0.24538725046012644, 0.20781491696834564
0.26225425583766016, 0.26234215447038844, 0.20781491696834564
0.14906237655647742, 0.27251070810047273, 0.20781491696834567
0.5421149766118206, 0.2239152338663811, 0.20781491696834564
0.6020036133227511, 0.266832982490256, 0.20781491696834564
0.4089744294211643, 0.23652901321623782, 0.20781491696834561
0.5773688096253549, 0.2647461908301728, 0.20781491696834564
0.6197573283611424, 0.22174851518815492, 0.20781491696834564
0.43717452442578164, 0.26360891623962307, 0.20781491696834564
0.4129483696487677, 0.26171844832964597, 0.20781491696834564
0.5261883374934189, 0.26063683094501056, 0.20781491696834564
0.49211913207258207, 0.23944575032956628, 0.20781491696834564
0.3583575556559343, 0.23067030967576146, 0.20781491696834561
0.18994936052814446, 0.26195583011837964, 0.20781491696834564
0.6249266655130187, 0.26106264387358324, 0.20781491696834564
0.32420109559199567, 0.23696600873722853, 0.20781491696834564
0.32514721978344424, 0.19468213617801666, 0.20211912448379807
0.2218694428830677, 0.19468213617801666, 0.201236010241912
0.11412039761645672, 0.20628522454098794, 0.20781491696834564
0.5565690620113856, 0.1961899586422032, 0.20781491696834564
0.0914159018920817, 0.2538364240050063, 0.20781491696834564
0.5769584816951294, 0.1961007962286885, 0.20781491696834564
0.10340390432037826, 0.23426306999159305, 0.20781491696834564
0.3745999358672462, 0.22453753878432658, 0.20781491696834567
0.21961527891679714, 0.22958265235947947, 0.20781491696834564
0.05381138013143223, 0.20994844326925124, 0.20781491696834564
0.18176099416880181, 0.2062578057381249, 0.20781491696834564
0.2875890930170011, 0.213930206422117, 0.20781491696834564
0.10857271946137871, 0.236656639965365, 0.20781491696834564
0.17251703558039705, 0.2249758388365667, 0.20781491696834564
0.07928865138350842, 0.2035990043235829, 0.20781491696834564
0.038832332063964324, 0.25741846650044353, 0.20781491696834564
0.03998497717823583, 0.2593702338730867, 0.20781491696834564
0.06887297454189469, 0.24224390897234077, 0.20781491696834564
0.0028007598593831062, 0.35809191057429285, 0.18347676544022384
0.1373927500220348, 0.29118996374990347, 0.1799149066209793
0.12027824677055596, 0.2924076457322549, 0.17991490662097934
0.4686964693145155, 0.304568592489998, 0.1799149066209793
0.5482162150508467, 0.3176274896339679, 0.1799149066209793
0.14061213782700321, 0.2944025790569972, 0.1799149066209793
0.5848177447479017, 0.3002144933606443, 0.1799149066209793
0.24203153151651932, 0.30877329459237457, 0.17991490662097928
0.6281221650265916, 0.31798874626655704, 0.1799149066209793
0.45224228750645057, 0.28108907910475345, 0.1799149066209793
0.6368491677997905, 0.36094842591018267, 0.17991490662097928
0.5831811081176504, 0.32807117996943524, 0.1799149066209793
0.537716586298312, 0.28680713757730936, 0.1799149066209793
0.5380601343215836, 0.32958249610707485, 0.1799149066209793
0.48253751735013944, 0.2802836831485085, 0.1799149066209793
0.4957407006822573, 0.3125374474855787, 0.1799149066209793
0.2878044778648856, 0.27775333804479974, 0.1799149066209793
0.5604371269403449, 0.34854293118125235, 0.17991490662097934
0.28277098669758877, 0.29147539550742046, 0.1799149066209793
0.4832503766884859, 0.36680279677172584, 0.1799149066209793
0.06769879723256739, 0.2896809180401703, 0.17991490662097934
0.028260980124852876, 0.28362875420433925, 0.17991490662097928
0.47361316722493724, 0.342422623650338, 0.1799149066209793
0.05470649381511966, 0.3393870212827951, 0.1799149066209793
0.2810546275439146, 0.3200067230609262, 0.1799149066209793
0.4913449554389279, 0.3628571173201406, 0.1799149066209793
0.07716242238410163, 0.34634817405292284, 0.1799149066209793
0.3058480493145416, 0.3496113769952258, 0.1799149066209793
0.3182007494587044, 0.3313127753523375, 0.1799149066209793
0.13303210769989038, 0.32158673036558094, 0.1799149066209793
0.25362506076214747, 0.33955032013525743, 0.1799149066209793
0.05943207981894112, 0.3128930810792025, 0.1799149066209793
0.2685239694824658, 0.33588884329442026, 0.1799149066209793
0.2338513114140666, 0.3284106062836545, 0.17991490662097934
0.2358859962264167, 0.3348012906875445, 0.1799149066209793
0.07098655629460421, 0.2965398058754216, 0.1799149066209793
0.055713205728339626, 0.3449906923491739, 0.1799149066209793
0.3903056026338319, 0.33489031170777606, 0.1799149066209793
0.6407567556981453, 0.3426155950924262, 0.18574530525285493
0.0028007598593831062, 0.27089182869655254, 0.19670897115399438
0.2487081904153486, 0.19468213617801666, 0.18652833678384267
0.2967827756367877, 0.19468213617801666, 0.1827208984610077
0.47806452118091614, 0.19468213617801666, 0.18398180819358334
0.5247134316242152, 0.19468213617801666, 0.18326451486230178
0.5631015719716224, 0.1965605672208947, 0.1799149066209793
0.3166012721941413, 0.19931834226266804, 0.1799149066209793
0.43198174856890587, 0.2021016349007088, 0.1799149066209793
0.12215473180852618, 0.20276633705087133, 0.1799149066209793
0.36543790730028797, 0.20648879752237198, 0.1799149066209793
0.5928932362030794, 0.21546146688310505, 0.1799149066209793
0.4565217041209104, 0.20939389373962475, 0.1799149066209793
0.5573228548617207, 0.19693986285211992, 0.1799149066209793
0.5151553852467964, 0.19992114716049728, 0.1799149066209793
0.22025984934321233, 0.21731383181453912, 0.1799149066209793
0.606086066933428, 0.22682577576315177, 0.1799149066209793
0.5427324593706709, 0.20983686066564528, 0.1799149066209793
0.5197309675870656, 0.2222968907192152, 0.1799149066209793
0.38488130821181177, 0.21176845868788374, 0.1799149066209793
0.14582381337334574, 0.20140955085121304, 0.17991490662097934
0.5919363510395368, 0.22811252500168405, 0.1799149066209793
0.4742550888448809, 0.24112301961589422, 0.1799149066209793
0.31468263109974925, 0.19468213617801666, 0.19287352759795356
0.10169676001438496, 0.1946821361780167, 0.18706222120971686
0.26111771044611304, 0.19468213617801666, 0.1954678418998586
0.555401604795632, 0.195334580745791, 0.1801354624267575
0.2094378574121703, 0.22315866188647807, 0.1799149066209793
0.396976954874772, 0.2538426519661928, 0.17991490662097928
0.08429220389283087, 0.20816134493391125, 0.17991490662097934
0.30566430783504894, 0.24448488615464958, 0.1799149066209793
0.07252189830965555, 0.26572121320511266, 0.1799149066209793
0.27883854526281604, 0.241893377021072, 0.1799149066209793
0.2735186965161187, 0.24747168170069345, 0.1799149066209793
0.06908109635633165, 0.211928909144758, 0.1799149066209793
0.15571569350954814, 0.21697769005398873, 0.1799149066209793
0.21002012966708994, 0.2488895884877408, 0.1799149066209793
0.3500976266701395, 0.2717897312295552, 0.1799149066209793
0.10808769972223933, 0.27195108275314084, 0.1799149066209793
0.06100402429709643, 0.2309348092429226, 0.1799149066209793
0.3931196657604185, 0.25784792428702935, 0.1799149066209793
0.2085318234813515, 0.2339954681501251, 0.1799149066209793
0.2122378403477405, 0.25263459854297265, 0.1799149066209793
0.13093358297005267, 0.21401857035925415, 0.1799149066209793
0.05635950534539305, 0.4233161509037018, 0.193964106572679
0.2797239000254267, 0.4233161509037018, 0.18542351683934064
0.47401362064275837, 0.4233161509037018, 0.1817138397766923
0.06633636410739478, 0.42331615090370184, 0.19365043008908361
0.0028007598593831062, 0.4202729236012235, 0.19778429670860068
0.6256609695702298, 0.39167873297625255, 0.1799149066209793
0.3345063294427729, 0.3726175094582368, 0.1799149066209793
0.44569526646216934, 0.3712443625413585, 0.1799149066209793
0.4972875437438597, 0.4032417342166825, 0.1799149066209793
0.553682214747383, 0.3945495534676884, 0.1799149066209793
0.4112116907780815, 0.38688174163578115, 0.1799149066209793
0.6244969064482793, 0.41928788514581344, 0.17991490662097928
0.5073281544297017, 0.3852021713402811, 0.1799149066209793
0.3271199955028991, 0.38635750620026266, 0.1799149066209793
0.5305564686220909, 0.3740140427022822, 0.1799149066209793
0.5025622567020523, 0.381678257489546, 0.1799149066209793
0.16628342981351213, 0.42266937295850826, 0.18013781769173576
0.07105943741601961, 0.4233161509037018, 0.19806898343477494
0.21620854985232207, 0.4233161509037018, 0.1943964880305849
0.4797427578687231, 0.4233161509037018, 0.19108757706845858
0.022282946223446495, 0.3960859389764737, 0.1799149066209793
0.09157628699014263, 0.3993750396284784, 0.1799149066209793
0.18242300749393836, 0.39714192104483836, 0.17991490662097928
0.0424736061298267, 0.4189436027443407, 0.1799149066209793
0.006050663546312795, 0.3797162011065289, 0.1799149066209793
0.3275313590901879, 0.4059854936874787, 0.1799149066209793
0.10092533322624955, 0.381036333952253, 0.17991490662097934
0.33574815368725297, 0.39856703759108025, 0.17991490662097928
0.2197432119168625, 0.4186387646373727, 0.1799149066209793
0.23009171067397474, 0.40180715266841494, 0.1799149066209793
0.12990463909494232, 0.4082171913853225, 0.1799149066209793
0.03876506849885696, 0.37885040380605134, 0.1799149066209793
0.6407568062138023, 0.40411842284989763, 0.18671181931761996
0.27188391275086526, 0.27653558977318793, 0.19991490244865417
0.14716806940013527, 0.3652599413550457, 0.19991490244865417
-0.6214904706821449, 0.6626589894294739, 0.20031085015052447
0.18711237365349181, 0.6626589894294739, 0.20939805978818962
-0.2027663237384652, 0.6626589894294738, 0.19135546522819338
0.16295373027882842, 0.6626589894294739, 0.20267219526520922
-0.3215816986100211, 0.6626589894294739, 0.1940231041753525
-0.44946699949136953, 0.6626589894294739, 0.18604780178693736
-0.57476229914453, 0.6626589894294739, 0.2101050513609492
-0.5408979915858071, 0.6626589894294739, 0.20989753019914018
0.021026176683846154, 0.6626589894294739, 0.20981349553774387
0.10027547773337481, 0.6626589894294739, 0.20876998457488422
-0.5205317647639146, 0.6626589894294739, 0.2056506328566229
-0.31777938186323323, 0.6626589894294739, 0.20363950245947354
-0.10374163339564366, 0.6626589894294739, 0.20967965643224795
-0.6113500529578079, 0.6626589894294739, 0.18780708465389176
0.06398659756019232, 0.6961557209968949, 0.18171228038691178
-0.5153874284640184, 0.6961557745278465, 0.1861102457233183
-0.40598675924750616, 0.6961557644198305, 0.19817781822522312
0.5772403668362663, 0.6961556735750891, 0.17874386604391557
0.02301200069752679, 0.6961557247827208, 0.17977535107915663
-0.5670118326703291, 0.6961557792976556, 0.1843904597997189
-0.62823023661463, 0.6961557849538971, 0.20936589569560274
-0.49131825646877997, 0.6961557723039882, 0.18358291443889685
-0.32194643506679366, 0.6961557566549699, 0.1933603321180693
-0.4963729470647617, 0.6961557727710137, 0.2021850785457281
-0.29914824685437025, 0.6961557545485436, 0.18487878142399802
-0.6155120872283342, 0.6961557837788105, 0.17918006614080187
-0.34679586808978324, 0.69615575895092, 0.19078709891549156
0.08958567647152149, 0.6893907838210186, 0.21248921751976013
0.48259073341035136, 0.6907846870291292, 0.21248921751976013
-0.20092500352969256, 0.6848722377267243, 0.21248921751976013
-0.17132331661849654, 0.6876138658783644, 0.2124892175197601
0.007999224178529815, 0.684790861903093, 0.21248921751976013
0.5696760473952789, 0.6922923871120894, 0.21248921751976013
-0.11168664759854749, 0.686627490124879, 0.21248921751976013
-0.2048590167917896, 0.6921405261867599, 0.21248921751976013
0.33299462232668997, 0.6818743551901716, 0.21248921751976013
0.26958450451786165, 0.684793573261643, 0.21248921751976013
0.22099704639291118, 0.6879709564652363, 0.21248921751976013
0.43550048404876857, 0.6795443592615852, 0.21248921751976013
0.5219237975452123, 0.6797992996993915, 0.21248921751976013
-0.6170698479188104, 0.6961478761122175, 0.2109148705537829
0.4202330859692702, 0.6961556880816924, 0.20826820765989218
0.28387540767781155, 0.6961557006803867, 0.18974423479032967
0.2403616852452165, 0.6961557047008137, 0.19167354388981664
0.5979922110327703, 0.6961556716577335, 0.1911556164993446
0.04201629954788055, 0.6961557230268289, 0.20310639196176258
0.41452936164855375, 0.6961556886086848, 0.21015599131123341
-0.5653443888346282, 0.696155779143593, 0.21067621563590183
0.0015237182491009416, 0.6961557267681191, 0.20621408803638305
0.5288827475926933, 0.6961556780430653, 0.19122650320286835
0.14176835878697164, 0.696155713810291, 0.1956916398208679
0.3178142627826191, 0.6961556975446244, 0.19907843269606193
-0.14754910935711024, 0.6961557405416228, 0.209748380651831
-0.23981156070050816, 0.6961557490661625, 0.2023513387823835
0.4095387069685756, 0.6961556890697937, 0.20218593222372913
0.20108470227991262, 0.6641339948382363, 0.2124497729226344
-0.5843647106390445, 0.663078204413851, 0.21192362672204418
0.3501585367084194, 0.6632242957289506, 0.21206693917738187
-0.6086321168156436, 0.6668562287717971, 0.21248921751976016
-0.385433056562794, 0.6824793138461329, 0.21248921751976013
-0.14528709181211813, 0.6725907265368433, 0.21248921751976013
-0.29607231396570644, 0.6823758763507587, 0.21248921751976013
-0.6134503759602408, 0.6926535804332914, 0.21248921751976016
-0.2697873414316273, 0.6802329036250092, 0.21248921751976013
-0.33589043498407495, 0.6858321853947542, 0.2124892175197601
0.34526691028024625, 0.6648039681454467, 0.21248921751976013
0.2341630204286389, 0.6688928069103349, 0.21248921751976016
-0.26473825427625103, 0.6783299239199818, 0.21248921751976013
-0.3039734599460301, 0.6862994504717679, 0.2124892175197601
-0.3075233959926871, 0.6834588857013821, 0.21248921751976013
-0.28047030214407787, 0.6839608487965684, 0.21248921751976013
0.0037268420760999954, 0.6626589894294739, 0.1873267923303829
-0.4530927047164401, 0.662658989429474, 0.18326763931987078
0.25711422731678846, 0.6626589894294739, 0.18242259051775161
-0.25524761570386645, 0.6626589894294739, 0.18218017940709347
0.276452374315439, 0.6626589894294739, 0.19265186277823562
0.24191368956764758, 0.662658989429474, 0.19701569194049925
0.644430697113025, 0.6626589894294739, 0.19528820019372978
0.47457567849716753, 0.6626589894294739, 0.19429805743538023
0.1963038357602162, 0.6626589894294739, 0.18092669209300385
0.12648596015047428, 0.6626589894294739, 0.19087278160759802
0.6311101894934282, 0.6626589894294739, 0.18577308208432403
-0.382444453474891, 0.6626589894294739, 0.18370861183194814
-0.045373024223493263, 0.662658989429474, 0.18224484741343844
0.6466963887214661, 0.6832088344381567, 0.19290931391576072
-0.25120742667535295, 0.8444407582283021, 0.07533538808418525
0.02345375342337719, 0.844440758228302, 0.165708787004184
0.19343422897525614, 0.844440758228302, 0.147365077887251
0.14480536085910636, 0.844440758228302, 0.19957327215860599
-0.4806630597813384, 0.844440758228302, 0.052515154057495954
-0.5191340290120893, 0.844440758228302, 0.19547096095127833
-0.47451330890639476, 0.844440758228302, 0.17777096579551654
-0.016721490133763367, 0.844440758228302, 0.1856164028971013
-0.13362035316376691, 0.844440758228302, 0.19385655750968622
0.4054387082714914, 0.844440758228302, 0.20740818392425264
-0.0887511375107341, 0.844440758228302, 0.15871075700261844
0.05950155393983236, 0.844440758228302, 0.21395630553963643
0.013177945834074584, 0.844440758228302, 0.15356724055196624
-0.5990291532353511, 0.844440758228302, 0.14928342937335348
-0.2102139971716042, 0.8444407582283021, 0.12348119140414465
-0.5106812821084455, 0.844440758228302, 0.1950581892924517
-0.32131729002175335, 0.844440758228302, 0.2101143776945474
-0.6222039236923003, 0.844440758228302, 0.05061049447056274
-0.2150583669358372, 0.8444407582283019, 0.07811107122280136
-0.6443141044623375, 0.844440758228302, 0.09848351594272162
-0.5610684123230789, 0.844440758228302, 0.174635075669737
-0.47552188571773113, 0.844440758228302, 0.16153751648176812
-0.06346056046753223, 0.844440758228302, 0.1435158470797887
-0.3117754430974966, 0.844440758228302, 0.06767722696949498
0.16799100723860863, 0.844440758228302, 0.1805986041404527
0.07669481256359972, 0.844440758228302, 0.20282151012730482
0.35337362854757687, 0.844440758228302, 0.17759555271776023
0.3377828687864027, 0.844440758228302, 0.16802600623377628
0.3578247974563873, 0.844440758228302, 0.19790714710300783
0.4444122608313974, 0.844440758228302, 0.2107984977033326
-0.3881377278585134, 0.844440758228302, 0.1001381080155847
-0.6373717858259844, 0.844440758228302, 0.10666857736252844
-0.3048379897091907, 0.844440758228302, 0.060724171363539456
-0.3093113327020154, 0.844440758228302, 0.17477299107773
-0.2720179226841861, 0.844440758228302, 0.21198392142816558
-0.45403409740415035, 0.844440758228302, 0.05219321948212635
-0.5352222769050994, 0.8444407582283021, 0.07213658692877149
0.1585644716284217, 0.844440758228302, 0.14125010614301295
-0.48470932849759696, 0.844440758228302, 0.06429903202497564
-0.45688779091798, 0.844440758228302, 0.12990648562864682
-0.4907489118845445, 0.844440758228302, 0.12332620073719422
-0.6171805819605636, 0.844440758228302, 0.12122807492412264
-0.5460936608023105, 0.844440758228302, 0.08091161943645192
-0.49726495233876405, 0.844440758228302, 0.13967497480121838
-0.5158747947751499, 0.844440758228302, 0.0627363295927649
0.3289649283489111, 0.844440758228302, 0.169286576854266
0.14598691679734652, 0.844440758228302, 0.20346318433295243
-0.6199492659560313, 0.844440758228302, 0.0905642882803132
-0.1436078682368644, 0.844440758228302, 0.08769110588265888
-0.24758377668162151, 0.844440758228302, 0.08166660984553316
-0.3500977715617598, 0.844440758228302, 0.1528392371980471
-0.5853711110948135, 0.844440758228302, 0.029706041992776922
0.24973644260933087, 0.844440758228302, 0.17204941336715524
-0.2246393674688025, 0.844440758228302, 0.14900958586005614
-0.026241826891151676, 0.844440758228302, 0.16791652784770905
0.3538005187197478, 0.8444407582283021, 0.21053235932919262
-0.28338529029209436, 0.844440758228302, 0.1418632959663354
-0.11059372484933735, 0.844440758228302, 0.17864158695784033
-0.3459457913357665, 0.844440758228302, 0.16391330541399096
-0.4066178612350991, 0.844440758228302, 0.04766258699345048
0.3428685417309151, 0.8444407582283021, 0.19478485772226495
-0.6260228236927252, 0.844440758228302, 0.2091888270644043
-0.4902373718020156, 0.844440758228302, 0.11495914582049238
-0.23614635421976463, 0.844440758228302, 0.1335696887086427
-0.06730456502078913, 0.844440758228302, 0.20168215287366575
-0.26839259895706413, 0.8444407582283019, 0.06867055719140891
-0.5845004456576209, 0.844440758228302, 0.06725341672549155
-0.06786748513456359, 0.844440758228302, 0.164173228299902
0.1319887235774093, 0.844440758228302, 0.21085129723774315
0.14779577157982304, 0.844440758228302, 0.21241119858012236
-0.5571880475754978, 0.844440758228302, 0.1361732354361082
-0.47098992204098544, 0.844440758228302, 0.18796875754771375
-0.13473347573232303, 0.844440758228302, 0.17557977479495354
-0.0044949133278490705, 0.844440758228302, 0.20590168806296077
-0.049648299152478426, 0.844440758228302, 0.1187726042291461
0.1642425137706688, 0.8444407582283019, 0.16800864302257426
-0.040950579614697155, 0.844440758228302, 0.12775496069205064
-0.37196241621588344, 0.844440758228302, 0.08012930413286803
-0.33173107908011557, 0.844440758228302, 0.14826408712199526
0.2874709767430601, 0.844440758228302, 0.19228241868597712
-0.2755357561479257, 0.844440758228302, 0.1942257747265908
-0.06195081218467677, 0.8444407582283021, 0.11229936917250953
-0.5756871983800851, 0.844440758228302, 0.07517516904926852
-0.48814736660080393, 0.844440758228302, 0.1928424035809861
-0.10213099959151511, 0.844440758228302, 0.19247767160991072
0.14983757047588167, 0.844440758228302, 0.19618041715508716
-0.3009847543525685, 0.844440758228302, 0.20120584191957
-0.4861394369284636, 0.844440758228302, 0.09467061992619431
-0.3804591689805952, 0.844440758228302, 0.10910303984320144
-0.26860028716461926, 0.844440758228302, 0.17515149800549434
-0.34035635504078277, 0.844440758228302, 0.1643325212511727
0.3326043195360948, 0.8455651954667301, 0.21543501446850244
0.3535168034673871, 0.8444407582283019, 0.14742056150194752
-0.5557082977218462, 0.8444407582283019, -0.0012372840836590532
-0.23132565781901587, 0.8444407582283021, 0.0335819888658718
0.021447455223339587, 0.844440758228302, 0.0670546314040553
-0.09328680289955041, 0.844440758228302, 0.027296446407435775
0.6434534105597141, 0.844440758228302, 0.1390880821118716
0.6089708543143921, 0.844440758228302, 0.051630418899217025
0.3214494676557887, 0.8444407582283019, 0.146398318885934
0.29006343142092395, 0.844440758228302, 0.07782543384793841
-0.14482779605826265, 0.8444407582283019, 0.07266828174424889
-0.08380624925804368, 0.844440758228302, 0.07039520096461092
0.03923719209496096, 0.844440758228302, 0.007029091503961951
0.07673498437185336, 0.844440758228302, 0.06841717966100408
0.6365677775203944, 0.844440758228302, 0.04051314591328333
0.04997502495223943, 0.844440758228302, 0.008495740263471383
-0.2543444362902466, 0.8444407582283019, 0.035859240115844945
0.1512829353105927, 0.844440758228302, 0.12900414045891145
0.29381104722150087, 0.844440758228302, 0.1014218917020931
0.5628646679514832, 0.844440758228302, 0.006466760563233405
0.5414359029613012, 0.8444407582283021, 0.17664307708197988
0.4051875473059432, 0.8444407582283019, 0.12456237590144646
-0.03368899297283796, 0.844440758228302, 0.08363328293564593
0.35730996118905367, 0.844440758228302, 0.05691143887554329
0.5743042781376811, 0.8444407582283019, 0.20194772838231229
0.16605750613786818, 0.8444407582283021, 0.11139862705470288
0.5305929609812993, 0.844440758228302, 0.07471381230323361
-0.3195707901058887, 0.844440758228302, 0.014654268495263505
0.5156103172211862, 0.844440758228302, 0.1064025537189049
0.6029075254179534, 0.844440758228302, 0.05811468964405681
-0.2753478094139582, 0.8444407582283021, 0.05536562802649226
0.4716755654070632, 0.844440758228302, 0.0018060059834737545
-0.007329053850542146, 0.8444407582283021, 0.10285244440076949
0.5978330022312818, 0.844440758228302, 0.006876865227093073
0.43486934371209973, 0.8444407582283019, 0.025125587028305557
0.08460263355843686, 0.844440758228302, 0.05209494462658325
0.5243965327319744, 0.844440758228302, 0.04165457732417292
0.17070094110808287, 0.844440758228302, 0.06422660098411385
0.4622031681529894, 0.844440758228302, 0.12071321186656572
0.5587139338508245, 0.844440758228302, 0.11204997148020558
-0.15035844532635392, 0.8444407582283021, 0.028590151568581617
0.5657363640387112, 0.844440758228302, 0.09726936181988728
0.17768743681476443, 0.844440758228302, -0.0037791619373352707
0.14271686781878756, 0.844440758228302, 0.014201916621338677
0.38149386106541994, 0.844440758228302, 0.013701678962071907
0.3945220406406322, 0.844440758228302, 0.001472730270994308
0.28699444812839414, 0.844440758228302, 0.033383320399426694
-0.5080894721899916, 0.844440758228302, 0.016318503887904876
0.11141963846638889, 0.844440758228302, 0.08245826826585649
0.5088342362287193, 0.844440758228302, 0.16621138763465246
-0.39581343837682004, 0.8444407582283021, 0.010953372997667646
0.06681346549909332, 0.844440758228302, 0.0896405691560069
0.4281470389759703, 0.8444407582283019, 0.03957919637105247
0.09990437464965896, 0.844440758228302, 0.05576549623682874
0.3683183409015718, 0.844440758228302, 0.07222165100874839
0.467481190721841, 0.844440758228302, 0.04581086492805959
0.1700558867138565, 0.844440758228302, 0.07709187540946064
0.5092121918634885, 0.844440758228302, 0.12454472602439697
0.444419820658172, 0.844440758228302, 0.15557431554877563
0.6350940833851187, 0.844440758228302, 0.03162253926377076
0.4282535356270275, 0.844440758228302, 0.06943095724545824
