0.9994846278485824, 0.14854406822948113, -0.17777063465924256
0.9994980987076454, 0.12138072804350221, -0.19057972949522572
0.9994261930688173, 0.15884115135497448, -0.20019173635131732
0.9993491082000594, 0.11897753032138778, 0.25549925428587916
0.9993260588566145, 0.19545417731635964, 0.17844844725926612
0.9993478107835116, 0.12494454770437706, 0.24903672085980008
0.9993240516727344, 0.23670845989421505, 0.1275041587666863
0.9993387606121801, 0.1796364091861431, 0.18724667733711314
0.9993767197614541, 0.0760378804546987, 0.2855633015095001
0.9991759122562839, 0.2253208208690914, 0.2753402272899009
0.9992529183104051, 0.23933851575905565, 0.18813709794210484
0.9993135124043866, 0.1843303338564906, 0.2039595741467357
0.9993528788285864, 0.1901447269257338, 0.16110854246348005
0.9993302910546022, 0.21957075054052821, 0.14380408330738967
0.9991784059046275, 0.2177226204930349, 0.28281228155873683
0.9993305742567511, 0.1673261967571845, 0.21035215609631952
0.9994162409031433, 0.15496738206968141, 0.14908393941056267
0.9994072413199253, 0.22724733888849186, 0.06475924450003712
0.9993650218759654, 0.23659149833026671, 0.09079443785545202
0.9993383008388754, 0.13564980739316837, 0.2439040886161707
0.99942859473236, 0.20615109230558307, 0.07252328323593052
0.9994254864254501, 0.05116403403040527, 0.2734949739646203
0.9994091980940552, 0.2527789334020322, 0.030352662855793994
0.9993423971436721, 0.17980993370372872, 0.1837531551795791
0.999237592949458, 0.23225541960328988, 0.21098156993645129
0.999200244890468, 0.25203378766164786, 0.2192923977994714
0.999424920400731, 0.06140158472509043, 0.2609138893440735
0.9994213102185068, 0.15912778375947745, 0.13920355020057518
0.9993431182311315, 0.2135736540724501, 0.13993220762411485
0.999433703311822, 0.1225922590866841, 0.17477037363920958
0.9991462071296442, 0.24904963348721113, 0.2717237474594833
0.9992760695869921, 0.2523075405974825, 0.1507258753052143
0.9993168610488169, 0.23123385719740844, 0.14097341771823
0.9992397352125469, 0.23557086474117636, 0.2048149436331826
0.9992677955364906, 0.2294528448987626, 0.18739302602830188
0.9993055407764175, 0.18841480109381867, 0.2059087009956315
0.9994176253856901, 0.16412835406666765, 0.13612463516360243
0.999292921275448, 0.2441233009096475, 0.1460299108463328
0.9997203922182132, 0.04114745518351672, 0.12907137580325606
0.9996442522083169, 0.08530648691584372, 0.11160156540475591
0.9995660926915308, 0.07416330069116411, 0.16583772501971025
0.9995456098162382, 0.19336054191200988, 0.023993132844428135
0.9996901158169793, 0.033982959432769876, 0.1537202111053602
0.9994632106991352, 0.07662092015491737, 0.21534398659323706
0.999530979849494, 0.04019201902841942, 0.22721875526830865
0.9995150945975122, 0.10909817398228845, 0.1472901128572331
0.9998204950320192, 0.04531179935945011, 0.07252485216538296
0.999858720782237, 0.036875323825256365, 0.06374516387413874
0.9996458322758226, 0.09913757752377116, 0.0931177997891211
0.9996899714980927, 0.05910320023570113, 0.12169207047871998
0.9997770576296401, 0.09054799834005214, 0.036943864039549856
0.999923230079686, 0.036230390420678785, 0.031558546387585255
0.9998552481689816, 0.0840945728097905, 0.0051791252842358
0.9994529621813055, 0.17661248902748825, 0.09280582074098834
0.9999014391881019, 0.044410349873461, 0.03225597335725942
0.9994568809044586, 0.14821819602292252, 0.12708653753622223
0.9999400736305883, 0.033826224576376546, 0.026011701519174733
0.9994930908944891, 0.21719676949530742, 0.020407089753736604
0.9996241039004021, 0.13109483002953623, 0.06339744179673631
0.9994973486884403, 0.2059698051830241, 0.03257559604745846
0.9994537942392834, 0.08417175877170663, 0.21051312430990216
0.9997808242987394, 0.06033905725325237, 0.07362138935005039
0.9995341611494526, 0.046584195496509134, 0.21742204040232968
0.9994659414812646, 0.09963463764895913, 0.1845365909847694
0.9996708359147849, 0.15026459485204163, 0.014985981324718366
0.9996182483553047, 0.03414738806000902, 0.1902862130307488
0.9994616763261908, 0.09493771052864439, 0.19272152233940829
0.9996908004328804, 0.034533907110398006, 0.1526658040050139
0.999609188999279, 0.0789886317903245, 0.13761796330877085
0.9996290050975872, 0.07341239228517225, 0.13460370029420166
0.999687712486334, 0.046746630702222555, 0.138638926964824
0.9995921520835467, 0.04857612245249459, 0.18520127847523435
0.9994447075377579, -0.06913970131168314, 0.13561893545112957
0.9995141235996619, -0.0581956506913949, 0.11646372597386237
0.9997715576285379, -0.03431169049004886, 0.020446977637651142
0.9995002632519335, -0.11351717787355699, 0.040824995379957374
0.9994505964063047, -0.061046511630924075, 0.14470855358911736
0.9997832806093497, -0.0231772907916395, 0.031099179501907548
0.9996747662120953, 0.012296168066087751, 0.13967754159842072
0.9999065396822014, 0.006391117832044469, 0.012243439202237406
0.9998559594840888, -0.0012802078706426758, 0.026654187599450554
0.9994882152119039, -0.045537264010087716, 0.1486517507131999
0.999820239998922, -0.020735688285504424, 0.015837619086058633
0.9994899818579654, -0.009464941309552926, 0.2016925855985461
0.9997418970740859, 0.02579341608699615, 0.12550993162292073
0.999659071201676, -0.06265902920147273, 0.03561619687761826
0.9996507222732204, -0.085484174082, 0.005754332151208396
0.9996990314153364, -0.021806966137574192, 0.07626051802997456
0.9998587120566733, 0.0052524023127747555, 0.035014923047509104
0.9999436948759748, 0.023478534290504432, 0.018783971031062576
0.9996034284278424, -0.00888035577138929, 0.14451383982792154
0.9996334702187647, -0.08289876169979418, 0.018448959174798222
0.9995388370451559, 0.005093411509217393, 0.19846386318872453
0.9996720621199244, 0.01212705361598677, 0.14080837728532733
0.9998995678278685, 0.0037580553009004384, 0.011873431710229728
0.9996932925165671, 0.0005389275451183357, 0.11261471437082234
0.999571418565512, 0.025094623773740818, 0.21170231605021975
0.999478342531624, -0.12948077207749073, 0.028169302066371513
0.9995284695199047, 0.016020145912691488, 0.22010968106903647
0.9997262475562881, -0.03531413788644107, 0.04213396112835808
0.9997257072211319, 0.027470937718964628, 0.13630328997098193
0.9993694309044716, -0.14410671642111017, 0.08969338992473944
0.9993987551923387, -0.030064607055982594, 0.23402410502377732
0.999336902038255, -0.1460240044369609, 0.1159061341631243
0.9994368279683639, 0.0005178602886530825, 0.24572299360826924
0.9993700918390211, -0.04576800849074831, 0.23616454094448935
0.9994359909807775, -0.12040313217255656, 0.06563823317529606
0.9992593254365888, -0.14020497443466837, 0.1939597950597335
0.9994354846948925, -0.11493662148482016, 0.07426581050637568
0.9993037890995777, -0.08040920113181177, 0.24363284412573083
0.9992308132389347, -0.12791415365787223, 0.2378294566553396
0.9991835029980778, -0.15669487426164525, 0.2370830744731623
0.9993576239493753, -0.10466338095277308, 0.15923460083228816
0.9993857359752637, -0.1216672405563091, 0.10867450214454755
0.9992934931261555, -0.10021196659235641, 0.22322285739243566
0.9993902068697893, -0.044103105402880365, 0.22067201749613763
0.9992027750124233, -0.14321320815119526, 0.24001573144341454
0.9993992829104669, -0.0789923563292671, 0.16038264472325514
0.9992350443966476, -0.15684202935963165, 0.19078630889917095
0.9993339110025585, -0.0422685402054737, 0.2737426184853007
0.9994409631764366, 0.016557101446939275, 0.2660123324151878
0.9992001672918713, -0.1394433433471106, 0.24798466490892
0.9993971318201894, -0.11164560227928182, 0.1134739069116091
0.999301888609225, -0.15617752810884844, 0.13202301947140527
0.9993192842804723, -0.06996582715740363, 0.2453982373258217
0.9992929846476929, -0.05956000385803006, 0.2844709760542541
0.9993448989427852, -0.04661561305705114, 0.25741878768553084
0.9994170788636308, -0.140123434886619, 0.053054180032832465
0.9991856725750071, -0.1289306768548807, 0.27666388899107397
0.9991624120314121, -0.15208476781274066, 0.26283211145053464
0.9991921923983741, -0.11989520169579333, 0.2843475615449713
0.9225539894608612, 0.011874163666901933, -0.34212647491517767
0.9309976063511658, -0.08402135674061297, -0.34413228764519266
0.9269294199846168, -0.027538872364668766, -0.34316586292988194
0.9336914619430233, 0.033532478403024445, -0.3447723900483182
0.9333987858272594, 0.20101132368723587, -0.3447027578197381
0.9233802364950519, 0.13475810476305394, -0.3423247383409586
0.9504412084067121, 0.05718142218157866, -0.3458831326809122
0.9433547437800897, 0.09204087162867337, -0.34549290416519624
0.9547507780620922, 0.07611196012410984, -0.34612042265299736
0.9402599289304372, 0.1547606173700886, -0.34532245418339846
0.9471667443419951, 0.25008386172122543, -0.34570271267295327
0.9378797309178162, 0.22982280586326623, -0.34519134616492975
0.9414229165465985, -0.16349482734021803, -0.34538637721002285
0.9542340199886529, 0.015844333214951545, -0.34609198012162534
0.9414142681953348, -0.008827564831123735, -0.3453860397927847
0.9418898177407655, -0.06025307125657272, -0.34541215762651667
0.9440434755014453, -0.046332303808607575, -0.3455307645443272
0.9111524877256033, 0.025976363417857824, 0.2558454739067684
0.9111815652873447, -0.02379915891602274, 0.1986743417132545
0.9110636936850629, -0.02485721605889178, 0.12668322113576735
0.9110190683949545, -0.057834773152530855, 0.050643375151519475
0.9108777960042922, 0.0011250675087322963, 0.054552339000807575
0.9109255792995288, 0.022814202683641448, 0.11557392116234698
0.9108410474864368, 0.018155376178561194, 0.05810499983580377
0.9111534914190549, -0.01582873644526427, 0.19384118988824664
0.9109443787043788, 0.004782621824106086, 0.09980053628152367
0.9110591800879853, -0.06591833019944646, 0.06249749851289951
0.9111258753390933, -0.09388641932510171, 0.06045301668844384
0.9109188080005317, 0.01974519777664964, 0.10693342794912787
0.9109137611957211, -0.0010154872328385113, 0.07282942934096337
0.9111434838804349, -0.06694853815014853, 0.1113107990916992
0.9111323336502841, -0.04307417837633566, 0.1404028179148962
0.9110943169017238, -0.05867987994514845, 0.09432499535251694
0.9109189753273248, -0.037089275103694724, 0.021922841389192087
0.911155143835038, -0.08281766881128741, 0.09451120597840942
0.9110636555814123, -0.0005693859600774988, 0.16303187585829962
0.910872883120036, -0.01435105601967607, 0.028442048837700448
0.9108265615371294, 0.007377376974200309, 0.03331207557864177
0.9110827717616405, -0.08869426660309643, 0.04248186684167208
0.9109902352282784, -0.0796077112912734, 0.0008155228041950135
0.9108259522190139, 0.029112688368261887, 0.06549709677531981
0.9111523475680621, -0.06758448566934347, 0.11565288512617107
0.9111192347892128, -0.0296604823994104, 0.15266587555327746
0.9109654346183963, -0.06871198502462182, 0.002318231814079528
0.911128232846952, 0.00758661650326908, 0.21381869198903267
0.9111694372504766, -0.1366713614832217, 0.022402132575322233
0.9112435137072268, -0.020747249119422533, 0.24633986422561016
0.911203383830383, -0.11439152523223688, 0.07735210293648304
0.9112965215909494, -0.10364498174553946, 0.16009665603257722
0.9114965322908467, -0.14779493862010434, 0.2370861583926189
0.9113484520320956, -0.04685734730319698, 0.2823202353388055
0.91121877572404, -0.10988150999247032, 0.09512181084701157
0.911474072316399, -0.12571824688696598, 0.25408351949814845
0.9112151384775669, -0.08981615318544084, 0.12257542612696606
0.9112296403140997, -0.03153406246976065, 0.22025460388118445
0.9113125531203631, -0.11883033168593024, 0.14882195142291202
0.9113945334385888, -0.0768551843997613, 0.2703605271022408
0.9112891879855669, -0.13598918559950013, 0.10639981685863967
0.9112033809975337, -0.15212111162956754, 0.020834099856543976
0.9113280271044826, -0.05066221682834917, 0.26200526650761524
0.9112625964512742, -0.059385942343577726, 0.202117255158122
0.9112254632187131, -0.04220045197716142, 0.2012881590402501
0.911290631043292, -0.05756954419003571, 0.2248989360205878
0.9113358856831699, -0.05531572974111651, 0.2606580711752773
0.9112131586171865, -0.01026794735531348, 0.2403156914830452
0.9113263415557904, -0.08588394627741894, 0.20803972773089294
0.9112875516732092, -0.10863939664881622, 0.14619676179087782
0.911373568689827, -0.13495130318947568, 0.16833522120915273
0.9114108561702119, -0.09674227627713697, 0.252251357073258
0.9113522167304311, -0.10131578516171913, 0.20343967010827507
0.9113596035392422, -0.05829812388509921, 0.2731625865853982
0.9112260823296404, -0.12351962962798632, 0.07992139757304614
0.911314201206518, -0.11451431256338207, 0.1564663407856079
0.911363851140746, -0.06939492999335231, 0.25957991524616836
0.911420239301696, -0.13670849962205833, 0.19909940949720956
0.9110617218908322, 0.13457626148956361, 0.07452552602337795
0.9110496341541403, 0.1361398200436592, 0.06530720025823955
0.9110753573867425, 0.1905283773224277, 0.011167283182852544
0.9110234950920953, 0.11233710874599988, 0.08011213074280078
0.9111115798890976, 0.037937191839316015, 0.22780461097106652
0.9111185534134338, 0.040500407091541527, 0.22869440015162418
0.9111346903586921, 0.030405234033733713, 0.2512342011311966
0.9109658808673369, 0.11556760196758156, 0.04156985084913657
0.911120965090999, 0.06638606090159377, 0.19705485229396005
0.9111688763121089, 0.16193198160514097, 0.10357191274541472
0.9111849427654761, 0.06046072779131756, 0.2428419460369537
0.911117329859346, 0.16631176631797923, 0.06718529832857922
0.9108743471832486, 0.07914587285733202, 0.03343972466887782
0.9111875433926555, 0.06264681166386585, 0.2416016791479262
0.9111478799833967, 0.061504635306247744, 0.21936968966747367
0.9110718709702548, 0.14179138530456464, 0.07136730815252515
0.9109808798486555, 0.039698007908605934, 0.14748510735800846
0.9110394956288346, 0.10587018417649788, 0.09793380095473535
0.9110990697213719, 0.10929746393129043, 0.1291385670249722
0.9111912389441088, 0.1847675003141279, 0.08774726347858132
0.9108398937713452, 0.05810607981527874, 0.03974753682850108
0.9111839938616888, 0.18619304487404276, 0.0815979078098141
0.910852535538733, 0.03822276167536156, 0.07270818541683556
0.910758058831579, 0.03920355954773302, 0.01502228911242035
0.9111198151361024, 0.03183212948435532, 0.24052550984064752
0.9109999581481473, 0.12343649065232837, 0.05186887805957435
0.9110167621822053, 0.10547896317333498, 0.08485468972649209
0.9111573473506551, 0.04703820554329789, 0.2435118061143364
0.9111325969517611, 0.08589804785838412, 0.17906778007989477
0.9111056234427762, 0.15600436816448232, 0.07336500653606422
0.9109265930366955, 0.11420875524925976, 0.01983909050544432
0.911069732478935, 0.14289233444493413, 0.06868301463751528
0.9111357388767032, 0.1471374814667417, 0.10268472526587108
0.9107922385180816, 0.0401410100708328, 0.03424038555522064
0.9108856663399909, 0.035213150469801946, 0.09634383836799347
0.9112074383049851, 0.218401457056516, 0.05629992983123372
0.9113236413909163, 0.21436177619179958, 0.14497266607003023
0.9113601761689059, 0.19957161035048282, 0.19013212052597123
0.9113215781772461, 0.18295657551744218, 0.18362971045157203
0.9112219279134446, 0.15944823784721773, 0.14206249871686707
0.911466592696942, 0.20636752839151326, 0.2579224813715715
0.9113958609060173, 0.15703442266439008, 0.27014485751475026
0.911220030125815, 0.23572635501636544, 0.0432056730876587
0.9113697505825684, 0.2437659118068543, 0.14052694008028946
0.9113125293252371, 0.18764077638182125, 0.17113974484612954
0.911209118480192, 0.16370362320082482, 0.12741806574559011
0.9115384291006305, 0.2285761150655579, 0.2811624660204009
0.9115582628266505, 0.2383487718123659, 0.282925324311092
0.9114567691434188, 0.18878617446000162, 0.27333394030715696
0.9112148540635105, 0.25003049285150336, 0.021203410393099087
0.9112793202642715, 0.13654011801726668, 0.21258703950088478
0.9113873415628205, 0.15249898053636685, 0.2698192815139872
0.9112124982627443, 0.0738757832089188, 0.24465817033222764
0.9113578032855124, 0.1855875020474364, 0.20630028450537927
0.9111982027866459, 0.06867669528953702, 0.24102979028236232
0.9114423526227453, 0.24884592165287167, 0.18620961485322127
0.9112965070268954, 0.15661783870329632, 0.19927649255615515
0.911469852953089, 0.19202427043792394, 0.27859794755893197
0.9113452544039045, 0.1191418109453195, 0.2822079192760255
0.9113550964641514, 0.22559772185855587, 0.153216956304113
0.9114125317533643, 0.16233259436467573, 0.2753536601371252
0.9113294479436732, 0.19169087784794833, 0.17812179844565007
0.9112515570472552, 0.15801204267218977, 0.16519115644782484
0.9112879418502718, 0.1434826087240025, 0.20990958318623973
0.9114832623527762, 0.24187261765049115, 0.22452220754360785
0.911260431915812, 0.20473578747525414, 0.11185030179849789
0.9112240948345184, 0.1063864316983136, 0.21143938715331637
0.9112990477855711, 0.1313262927589346, 0.23342817274337638
0.9112301552741255, 0.23904025097389697, 0.04624655214292105
0.9112651063583437, 0.08496980588595368, -0.26825519650764496
0.9113351662719235, 0.21343598248371476, -0.15440648808238897
0.9112186746201318, 0.24328761788349654, -0.03256107427722266
0.9113638304608818, 0.17416407377640686, -0.22519113491200035
0.9114874844134191, 0.2405122540644154, -0.22923606471175237
0.9114629024762495, 0.22543853400191316, -0.23083969737865223
0.9112024204412561, 0.16260749661144447, -0.12399480442000987
0.9114084455943949, 0.19942825553698626, -0.22495675199888887
0.9113736523787205, 0.1993170939963313, -0.20010142752677074
0.9114197963535802, 0.20849233385991092, -0.22152760535625354
0.9114176109086096, 0.169479745062518, -0.2698167308953909
0.9114295581633819, 0.21449936474525844, -0.2208638679220052
0.9114555595984654, 0.22699067269905546, -0.22358048293618346
0.9112936404124613, 0.11351042566553285, -0.25227987952636494
0.9113964311310523, 0.25377230342878987, -0.14687154844532177
0.911341879080904, 0.16538657164788684, -0.22063794956747723
0.911201384722756, 0.22751243690199857, -0.04030020453533244
0.9113767039189885, 0.16201527115913256, -0.24996668541886463
0.9114525734438522, 0.25002458443968123, -0.19199702477833308
0.9114638332793833, 0.22081639934133593, -0.2374156666657662
0.9113965045834, 0.24618112428723415, -0.1566260778481842
0.9113054849055524, 0.1734264502607468, -0.18421512963656
0.9112150553826346, 0.2152166782619474, -0.06583632363955916
0.9113142715473654, 0.23762212181837186, -0.10848392976008985
0.91147727406854, 0.22521359182348688, -0.24145253607700465
0.9112528122323592, 0.22966936446704272, -0.0744919851894409
0.9111969468230675, 0.1334110671629328, -0.15737617309614407
0.9112165175263618, 0.18836406607523, -0.10120526209517429
0.911197271730934, 0.10067154361385666, -0.19945170892608932
0.9114017591616784, 0.2300056209806833, -0.18107404450708975
0.9112153891834462, 0.054255855504541914, -0.27178895705746436
0.9112257578289308, 0.14193668531601447, -0.16717961272688656
0.9111937732247208, 0.06703509735521113, -0.23992658463931965
0.9113156535184354, 0.2025292823144692, -0.1543265280710762
0.9112331546977962, 0.10140201132483918, -0.22429847954182577
0.9111396682607966, 0.18363351659254984, -0.058396902804583324
0.9109566629634777, 0.08807180222554464, -0.07120714631869393
0.9111509863239331, 0.12027165747413862, -0.1461362679837295
0.9109832083349576, 0.11179302383269998, -0.05674791865202394
0.9110957569637003, 0.12212403819617978, -0.11077691354450286
0.9110016408055908, 0.03043105253770127, -0.17174185415453574
0.9110108383409756, 0.05583778441077231, -0.14476554431914876
0.9109646031776103, 0.1249523745438342, -0.028815843750914737
0.9109320761196158, 0.08482452881414634, -0.060669998569368194
0.9110509783761115, 0.042985934675982135, -0.1851687548126653
0.9111497492787372, 0.2103986757697442, -0.030212241143562
0.9111887341121385, 0.17302980153171357, -0.10125887803074081
0.9109020354994788, 0.05571499138127443, -0.07992772633014271
0.9111866980535107, 0.24921493428025399, -0.0026757029123059823
0.9111547368538456, 0.11238687448451906, -0.15845368613253014
0.9109817705631553, 0.10390268058288007, -0.06597314544074354
0.9109216633886443, 0.0529901401630584, -0.09513513624298982
0.9111541149326243, 0.04860440629936307, -0.23959810203261703
0.9107813252538942, 0.03480127225479138, -0.03454830414459449
0.9111232963152855, 0.10324020238419963, -0.15136200772461184
0.9110472914477821, 0.09668415901174529, -0.11433836264688185
0.9109604935918323, 0.14502369186756586, -0.0007091786399927745
0.9109740858133079, 0.0893894458933287, -0.07993091709834739
0.9111330266416604, 0.05505302874844366, -0.21875921011756322
0.9110818019982204, 0.1552383446016901, -0.06011965100804482
0.9111172818714324, 0.17455114003828406, -0.05663166308669478
0.9111136998930058, 0.11172238998262667, -0.13478897075013094
0.9111697721367864, 0.18784522107755344, -0.07099714720187682
0.9111835650614037, 0.2176525358909166, -0.04114187271468121
0.9110860541145018, 0.12457342267030311, -0.1018504064296387
0.9111042327549304, 0.2019915290858857, -0.013766959306664722
0.9111902799596182, 0.09638081020262607, -0.200142044661512
0.9110763086212704, 0.14521273925389633, -0.06965114056041886
0.9111576287423129, 0.13801762041432605, -0.12742432173327048
0.9109817657839687, -0.07337689674893853, -0.005087751979346927
0.910900979368663, 0.005895194690179956, -0.07554940772914716
0.9111550148833361, -0.015977202123724166, -0.19454392313597035
0.9109876919180699, -0.07327453794890858, -0.00878109885347084
0.9111332904402724, -0.01904431282681989, -0.17697314884419574
0.9111398180167604, 0.026988255136406087, -0.24981233761464267
0.9110983004186313, -0.09374449756801681, -0.04419801152854327
0.9111449193653354, -0.08821334700396846, -0.08033005748069856
0.9110999342959825, -0.009214355547133419, -0.17176909595089127
0.9111766953643539, 0.01867644726013478, -0.2593934552763637
0.9109195177374858, 0.019755606710730556, -0.107381336527071
0.9110620002055658, -0.04918564576640891, -0.08924639457227801
0.9111380940118721, 0.00899163706974783, -0.22183016583981963
0.9108801010245533, 0.01762536022910474, -0.08064493950762987
0.9109574744297424, -0.004347841357403704, -0.093957144651432
0.9110606399296517, -0.008198725960811917, -0.14981714968654833
0.9110922160331898, -0.060954055049483556, -0.08967145140889393
0.9110954494659229, 0.02235565195239984, -0.216370287587287
0.9110649726091428, -0.06106673867329711, -0.0732284894265873
0.9111852223916813, -0.0579673647162033, -0.14970293780707689
0.9111415493434889, -0.1186623442586285, -0.03271553197642172
0.9109336745696353, -0.015836645769753126, -0.06253399364757968
0.9108842359125287, -0.009236515875120085, -0.0428857549840488
0.9110144754302827, -0.04220880605113435, -0.07130561016016261
0.9110414574223095, -0.02289443892523737, -0.11634946297497357
0.9108346644134859, -0.0031794809523449097, -0.022344804965659076
0.9111806512676989, -0.12136740205687628, -0.05202237832834722
0.9108253601133268, 0.009426930877375887, -0.03566653274972665
0.9109884390274475, -0.009462679566729216, -0.10479409139751354
0.9112713083387551, -0.14722673286946658, -0.07675566485213235
0.9113881418736527, -0.09924664240323185, -0.2322012688338177
0.9115375092561033, -0.1550217818562511, -0.2555146144091345
0.9114879018561786, -0.15987345897477223, -0.21275960899425098
0.9114266152481272, -0.13475140532459662, -0.20654469062267314
0.9113112088542726, -0.047098613561262694, -0.25527318767913326
0.911242553611942, -0.012907751993472737, -0.25737031348416844
0.9114680390959182, -0.10154730560715185, -0.28591207943161456
0.9113508976302704, -0.05502676202706585, -0.27179078720951777
0.9114734114536549, -0.14035183527126294, -0.23163328975723466
0.9115590361513263, -0.1469151587202862, -0.2830567326334481
0.9114185214437727, -0.14803947390042482, -0.18085146735030164
0.9112061795475165, -0.15389353802635608, -0.020178256092525004
0.9112342904416922, -0.14099777384404424, -0.059603681778759264
0.9112091655801136, 0.006829874984837387, -0.263048563485997
0.9115474537169144, -0.14976311825405225, -0.2705051837366046
0.9112910523134393, -0.12223934910875117, -0.12830659946507506
0.9112287287262992, -0.08322532770345677, -0.14215746524878461
0.9112720551189267, -0.031997340745082856, -0.24988236815304712
0.9114748996666917, -0.11116399451376208, -0.2764159522500129
0.9112678151508525, -0.12934644103762558, -0.10103810639726943
0.911400439371917, -0.14735967039274372, -0.16893415671792236
0.911385517834814, -0.13218704681501225, -0.18098540924369813
0.9114059626049673, -0.14346290377550636, -0.1787220016564975
0.9113360411338565, -0.04439684639357974, -0.2770844260361053
0.9113161965712415, -0.1079217765575699, -0.16773936416664667
0.9112052354949147, -0.06319326127669014, -0.1553552622824741
0.9111989271737035, -0.046381701769712985, -0.17602305224830592
0.9115468683477641, -0.1503155243782301, -0.2692590200878291
0.9952520038924237, -0.20625260338067336, -0.08065443316773471
0.9934298143204059, -0.20826397297040344, -0.034112709575116154
0.9939947561484925, -0.2076914620494384, 0.2040003798185717
0.9939061343516887, -0.09546501843947715, 0.33972803763679316
0.994774757704799, 0.3004657295882087, 0.06129250495569221
0.9943021688642302, 0.3011631038042809, 0.28376323832366357
0.994943881674519, 0.3002901943761314, -0.09398895383791381
0.9941863139204858, 0.03477507999932971, -0.339795752197048
0.9904994394808581, -0.2099757095823171, 0.16669898324868396
0.9912768674133439, -0.20964666030841453, 0.29923822592877525
0.9920398120100692, -0.20927679598485216, -0.15072604443115556
0.9926600070335625, -0.08152340789555161, -0.3407986853639168
0.9893952998527505, 0.16863971303321362, -0.3418003403718656
0.9901097954789897, 0.3042428815809177, -0.3222626539789286
0.9898828023482938, 0.3043416944884944, -0.07543741173134727
0.9918862431307286, 0.3032260667493537, 0.056557115545628034
0.9928150472724084, 0.25676855684789557, 0.34057600825318096
0.9899247997079355, 0.004076318306283279, 0.34161844429712374
0.9174416951250544, -0.2085501762282409, 0.09354773159020517
0.9161240137977514, -0.20716650217006488, 0.2403748544365009
0.9157820603581311, -0.20667821605814463, -0.08023187616912734
0.9168064405932956, 0.253116973292604, -0.34015186621689847
0.9158471307976978, 0.3004517315009233, -0.07321421272452984
0.9167242260721027, 0.3015097562598438, 0.1494607056305963
0.9163010343375004, 0.3010629075481527, 0.21290694666926457
0.9170471087873601, 0.2729188582210919, 0.34001257130107476
0.9214749525725856, -0.210620343351772, -0.11580723067208172
0.9181288127385497, -0.20904541967795856, -0.15862712955850955
0.9189016025152492, -0.2094308455820933, 0.1894347446833017
0.9206341469609542, 0.01723005202055354, 0.3415851889879991
0.9189209838937232, 0.20513873756211715, 0.340971734965249
0.9193134033248762, 0.303577720997442, 0.27730525524234106
0.9179638764316738, 0.3028286275182591, 0.2588395629127829
0.920675167826964, 0.30432414414655506, -0.24076691126321187
0.921409031591107, 0.1529570100590796, -0.3418523618433159
0.920693438621036, -0.1071053183702189, -0.3416410682324103
0.9260213480352245, -0.21096051998050896, -0.24351190634887757
0.9340434030568311, -0.21152699702566846, -0.03933114002610876
0.9296418022626464, -0.21121616865736437, -0.29974008467603336
0.9235061542708161, -0.21078010969372651, -0.19179967428590955
0.9243440063152422, -0.21083779147748902, -0.12702553181024862
0.9447644204674478, -0.21195162825296526, -0.20229894459419956
0.9518607712440929, -0.21221778650910278, -0.25844933530273806
0.9507227561509863, -0.21217510371027096, -0.2763251441862368
0.95480300780359, -0.21232813907994763, -0.12541171627039954
0.9353727872318691, -0.21159938768581413, -0.15994129807652216
0.9497018047213353, -0.21213681268444862, -0.0563261199594722
0.9354975393567084, -0.21160406482364982, -0.2124673364947538
0.9717835870906926, 0.30616774099040683, -0.33307643172529267
0.9295134655224369, 0.3067488355678064, 0.1766233140171599
0.9304090587251956, 0.306968905617088, 0.17443213412939945
0.9305364404662072, 0.3069969947746695, 0.0034207235458808996
0.9327455595075129, 0.30754164509949844, 0.005807997116078601
0.9391911551742222, 0.301225901935794, 0.3407963087818652
0.9369100043959964, 0.30814697049525086, 0.11058079334085352
0.9376238535488799, 0.3081854291781768, 0.09949186936395636
0.939167370919213, 0.3082686091409499, 0.20104904418415376
0.9480143418755704, 0.3087452722222426, 0.2970178734316535
0.9485927881302259, 0.3087764287072518, 0.22819665331289662
0.9511094671841703, 0.3089120261085142, 0.28001961316647317
0.9542981705790795, 0.3090837996787352, 0.0836027027641542
0.9963705762493376, -0.04852914912680152, -0.33752709116598767
0.9971917889533535, 0.08847838301153772, -0.3357408193896109
0.9981885312282076, -0.16478249531712238, -0.3106076904953358
0.9978005484538885, -0.03282377168133685, -0.3321050905951727
0.9980681305469146, -0.06739245976262641, -0.3220888781133361
0.9980356716430429, -0.14349220478944208, -0.31646103311088
0.998559327540123, -0.09357839769456563, -0.3068786411324876
0.9990111452266042, -0.13287851109299503, -0.2912691321598307
0.9991233925413707, -0.12221807266003795, -0.28823509104161454
0.9988976209536952, -0.12033561641480349, -0.2955264472013876
0.9984259738472729, 0.010144137006808343, -0.3172080039380383
0.9985179855070947, -0.016541983153409042, -0.31291548194587915
0.9962601482135902, 0.23212937291048882, 0.33716110041789044
0.9976629703743394, -0.008292824547319288, 0.33400865105820227
0.9974681494628287, 0.23144201446902582, 0.3300847838889593
0.9991710299591431, 0.04259529063370729, 0.2930842427306106
0.9982981277425796, 0.08374586334780683, 0.3169767319288378
0.9978881213621579, 0.14972680436907523, 0.32406990945824793
0.9984156718305783, 0.07626607388859766, 0.31393097279281557
0.9989732132397499, 0.0696408416018822, 0.2969303323056176
0.9987508140183354, 0.16684643485275752, 0.29881307663281614
0.9992657512674948, 0.089086184533551, 0.28820394878789374
0.9982743654081785, 0.2033508295022307, 0.3097969549460402
0.9986498042035264, 0.2102650926219672, 0.299966230046901
0.9991253334225165, 0.21085382074290718, 0.28778380419862754
0.998861944549565, 0.17596555500627448, 0.2956701561873337
0.9144107455459577, -0.023301008184882732, 0.3372203857949743
0.9145980759983997, 0.08225791662469821, 0.3376602212396289
0.9124294553409291, -0.1494761871281631, 0.3099359708606251
0.9131977931452545, -0.16124897259478838, 0.3298307533961074
0.912592094598452, -0.1061655264042987, 0.3176771327467035
0.9119775345184379, -0.15945612432557071, 0.29693147645063594
0.9127430700780925, -0.006326570203571028, 0.32945900268284384
0.9127551343771503, -0.08488557781787835, 0.32373128635712234
0.9114419166415018, -0.03381374982398169, 0.2893761394108468
0.9120366633978273, 0.02509171533304196, 0.3106704842856636
0.9121361407384426, -0.06361390943686622, 0.30843666036035344
0.9119761883773856, -0.051865240673169166, 0.30433214068159103
0.9117223107554995, -0.07548259455550942, 0.2953321101986183
0.9142149438895705, 0.04799265991455043, -0.33734730964053117
0.9118140396755847, -0.16253798554827373, -0.2924412418227683
0.9118497626734814, 0.16957341490343716, -0.29731770811651304
0.9124089359179305, 0.18995661349929027, -0.31160317408746874
0.911519130653393, 0.09118734939780185, -0.2919509641966212
0.911688461051837, 0.23623863071097562, -0.2898283791926634
0.9119182199164233, 0.165707250947578, -0.29936200547104785
0.9129459640664206, 0.12109214267794624, -0.3321797629665333
0.9127827587231598, 0.040908795936113226, -0.33322586423426853
0.911504152615989, 0.046697639238086036, -0.2940883390447246
0.9126422496064593, 0.09758342904744688, -0.324741055753954
0.9129659412955349, 0.13381517595087475, -0.33183458880285893
0.9130053975236884, 0.11794670511407157, -0.33421374446647817
0.9129115935359478, 0.12099785198445256, -0.3311463553109014
0.9226710047055575, -0.10361111726232002, 0.3422021869706406
0.9256624087321058, -0.010525114450988002, 0.34291427643952205
0.9292662193189386, -0.1729499476525353, 0.3437763613560737
0.9503951173194036, -0.19434870178716168, 0.34486875392869387
0.9521120647176446, -0.14949715202211927, 0.3459845952402328
0.9475115198303954, -0.13649743696329925, 0.34574466192505277
0.9359483517707679, -0.04712075594589241, 0.34514160526230403
0.9387241695605937, -0.061068049095573236, 0.34528637314979804
0.9982361454478554, 0.27330111600792983, -0.28679861205300283
0.9981873086743719, 0.2836988751066488, -0.06737296858852053
0.9980130665324765, 0.28944856116705364, -0.02154335633406308
0.9989577950469841, 0.25775031999843073, -0.282344979321608
0.9977683352802882, 0.292469337512702, -0.07602416461486185
0.9980087486216898, 0.282645466020192, -0.18371099387435258
0.9980453351494405, 0.28291141979239054, -0.15869536722127098
0.9991315382590349, 0.2585125114313983, -0.11540402628928617
0.9989281352565705, 0.26207328002179103, -0.17270506322275367
0.9984624398316886, 0.27781719141304095, -0.030846406505682322
0.9993376718575828, 0.2557434980299729, -0.02713644857439565
0.9987852718008908, 0.2691591646943166, -0.04804035689873886
0.9985891502586598, 0.27384205581163734, -0.05834463743053564
0.9975465245570108, 0.2934861668041576, -0.07656830812951176
0.9964780678872038, 0.297048602234641, -0.21365328026508262
0.9975953322426465, 0.29332302558201756, 0.07017891769195556
0.9959526903765598, 0.29879079424770055, 0.2677091107918126
0.9980347578308024, -0.1897630490814796, 0.12863148598662766
0.9986917860780217, -0.17806425329320463, 0.032392458083444126
0.9982194260355304, -0.18526146137122493, 0.1257526768657827
0.9983106685823606, -0.18657921856907445, 0.053778709166960724
0.9983477242890553, -0.1860610100211109, 0.045530586207492174
0.9982284831089778, -0.19044920633767687, 0.01787963204458676
0.9979965188032668, -0.19161771398594624, 0.11085189117447541
0.9985931311153042, -0.17408708087856162, 0.1946177508428931
0.9990632630864084, -0.1654801479127747, 0.13263589385275526
0.9980242522679161, -0.1844823176842797, 0.2703289223639281
0.9992415839568793, -0.162340017199681, 0.10459086850895073
0.9989683287112346, -0.16738305021471053, 0.1391440155240481
0.9984119377383271, -0.17891388486270432, 0.16350275139651851
0.9967732130453881, -0.2025897517421374, 0.15281574405460863
0.9972769745620695, -0.20097662795169904, 0.13362895709742562
0.9964594931293524, -0.20352398069254776, -0.3124445327872726
0.9965892406185636, -0.2031671251584008, -0.021708546122291884
0.984816906748972, -0.15389083808803405, -0.3428067116807038
0.9791890727520419, -0.12301027079486948, -0.34401295237753937
0.9779108262153159, 0.0017140898067410813, -0.34428758402593446
0.9746677261028022, 0.006101438485441231, -0.344984791813855
0.9695385757169477, -0.00015202319434692857, -0.3453127666480786
0.9711748133857317, -0.14619438598477938, -0.3452156356854144
0.9601500841168467, -0.06599804302856593, -0.3458694897161175
0.9576068830981463, -0.10137050408156922, -0.34602032176667835
0.9121789458696115, 0.27101117713687045, 0.16551294414810855
0.9114243118250978, 0.25715276203697446, 0.0630835267196584
0.9124786435531294, 0.27711407447204883, 0.1868985263930779
0.9116267689573802, 0.260233037388262, 0.11110067401133003
0.9124562841843484, 0.2745556260719908, 0.2530301103328183
0.9128562022945339, 0.2835509330776008, 0.25414408164049557
0.9129574815347833, 0.2919616101023897, 0.10583341006680616
0.9119409931177874, 0.2702369022489085, 0.03986188540177674
0.9124494470792608, 0.28400841909270264, 0.002894683268388027
0.9129255050925564, 0.28792500896113477, 0.18452818656105088
0.9128024871411591, 0.2835724008690853, 0.2180573276585557
0.9126203833943369, 0.2859658557119111, 0.054837959986430505
0.9120119929151247, 0.2723328108778797, 0.03053574451372241
0.9134631862241194, 0.2945456919590514, 0.26412589360441596
0.9143384970830399, 0.29755981731014164, 0.02358599648371777
0.9134025441369351, 0.2943530792020128, -0.047653925191333865
0.9142985553725914, 0.2974187418749437, -0.2787857818828978
0.9126196874124766, -0.19221005515213843, -0.06639033748190348
0.912486831777502, -0.18631652397212153, -0.1320560035383278
0.9118314096544975, -0.1745295624122945, -0.03802651040873031
0.9116191498298705, -0.16886545679133091, -0.05222806721923621
0.9127041884447613, -0.1890248353148216, -0.19226619193050914
0.9123104211644391, -0.1849628002169788, -0.06277287041595303
0.9130777172125253, -0.19686629459364258, -0.21867828359781558
0.9115904570772311, -0.16017910916987044, -0.2795746104273243
0.9115167905592622, -0.16317955331774842, -0.14565211503802394
0.911359285787738, -0.16289568516529346, -0.050342574848254946
0.9117887083889146, -0.16767580736152543, -0.19595697153083838
0.9127758499159262, -0.1884590664850246, -0.25138364811007524
0.9124935918431696, -0.18386216334687297, -0.19716033513118822
0.9141379714226763, -0.2033463891735296, -0.059586391756827235
0.9140372952390825, -0.203030193410072, -0.21787543706282078
0.9142242941349069, -0.20363199502110463, 0.1535643954130989
0.9135522644039963, -0.20144805136246913, 0.13882004152054492
0.9489944050256887, -0.21211028028864493, 0.2520502243128623
0.9467357979952611, -0.21202557024785773, 0.29697181245802917
0.9548061852784667, -0.2123282550866888, 0.10099255923348499
0.9514648208697226, -0.2122029356948847, 0.1690117748432651
0.9365384665503175, -0.21164311700325436, 0.12044939352799873
0.9486286763698243, -0.2120965691157708, 0.08975585695371281
0.946625218506222, -0.21202142863011575, 0.11415005937240147
0.937916305535244, -0.21169479012763348, 0.00763997240037437
0.924266915816277, -0.21083375692366504, 0.16996391791256169
0.925126991306766, -0.2108911584533825, 0.05018636390801624
0.9331712201223682, -0.21146542029404203, 0.09081954733230438
0.9294357295041606, -0.2112016564677825, 0.1719587316371512
0.9459482932534664, 0.30863417206999355, -0.20174522706938403
0.9484448996738237, 0.30876873860009624, -0.28382684264883085
0.9383236042538653, 0.30822350814677235, -0.28762261079364876
0.9499374729955847, 0.3088490426605176, -0.17261606651249578
0.9456536917669311, 0.30861818608711844, -0.10245935150084064
0.9443970584776873, 0.30855051440264825, -0.1259857505981276
0.944691794704051, 0.3085663661212771, -0.10604058290215064
0.9395566609054395, 0.30828987743054775, -0.23514248923435582
0.9275204828325412, 0.30625757555164906, -0.27048444165516167
0.921769141236925, 0.3048449458950912, -0.290339733197954
0.9289362967435978, 0.3066024466187262, -0.012953514830258573
0.9340368283779411, 0.30785977645991214, -0.004500246899216578
0.9529052543294425, 0.26268222191254215, 0.3460259626473094
0.9477842916246504, 0.22652012137226937, 0.345758887857521
0.9459961083365456, 0.167709984350309, 0.34566562830784164
0.9435349735533552, 0.12233896445277313, 0.345537272158275
0.9393077799530449, 0.21376242669622025, 0.3453168103218432
0.9376669009934098, 0.04618114258007455, 0.3452312331699528
0.92860421282948, 0.16625021133094098, 0.343618567400365
0.9326457344454809, 0.15425044892970763, 0.34458221181571236
0.923214995041244, 0.07985105312939211, 0.34232974305489444
0.9639267355105324, 0.2182433711755703, -0.34564547546398916
0.9715665147642162, 0.24910535136578127, -0.34519243187823245
0.9632359561325712, 0.1771962089879078, -0.34568646197027675
0.970090385000556, 0.12047103349230376, -0.34528002525882673
0.9737891144720939, 0.16186507760146462, -0.3450606715428391
0.9729207501848941, 0.038142235341388164, -0.34511222070840436
0.9869798279617602, 0.0871313528760759, -0.34233952635458637
0.9849191231837489, 0.162780645237355, -0.34278464424386373
0.9854272428788752, 0.22722627300498582, -0.34267682942844724
0.9477630270282369, -0.20970192739010945, 0.3345201161036336
0.9672181839481824, -0.19460643618721638, 0.34424168920310405
0.9136117220680366, 0.2950365032956564, 0.3179725715050864
0.9115797403081656, -0.12842321760174624, -0.28793276901315523
0.9120442731742374, 0.021729948487729574, -0.3111556832093795
0.9116419915261191, -0.04331817314756723, -0.29500944610638863
0.9117269062728621, 0.024908538032104764, -0.3017424386650256
0.9120579084069571, 0.0069668639263194675, -0.3106677495373833
0.9130481628467029, -0.16200970118027314, -0.3262841044068273
0.9122235916220994, -0.10787984107334875, -0.3078355040936791
0.9127536919346435, -0.07418052844168405, -0.3250616943362915
0.9127257659869046, -0.15297879820238214, -0.31812045871868544
0.9126049368888423, -0.02028419353707693, -0.3251906167232548
0.9990547845110961, -0.1660608004895629, -0.1445609607957179
0.9985002168245379, -0.18231150211675218, -0.07068141060833512
0.9988199445371013, -0.17001609281847097, -0.20734704620941163
0.9992074566912966, -0.16271101649770975, -0.12876615332535005
0.9988629347587827, -0.16848392544428953, -0.22183128381462883
0.9989969611861624, -0.1694956508570138, -0.08090842182272212
0.9981355190466679, -0.18362172022654616, -0.24570490178021073
0.9982246280683172, -0.18066775131087137, -0.26815286032768393
0.9979578586700233, -0.18598418480241524, -0.28206293328456916
0.9989401222607285, -0.16452526679350102, -0.2741602833538796
0.9985327074254777, -0.17868177241735664, -0.15656175872952155
0.9987947810462723, -0.16768075521754255, -0.2757825045652166
0.9989432401258509, -0.1644762654104292, -0.2736956454576675
0.9978640938723746, 0.25644050004321794, -0.31929682069060994
0.9983282834973112, 0.20039805105942288, -0.3111653863437144
0.9982102265093256, 0.22266185863235544, -0.3126495310939865
0.9983988579847589, 0.15702947624338462, -0.31246928131537777
0.9979217184543785, 0.14516405723284237, -0.32589155507966033
0.9985073207800472, 0.16466177009617902, -0.30905841336842976
0.9981494198387004, 0.22982225982225907, -0.3137278971867435
0.9980889194955778, 0.045692396083640445, -0.32830124076270484
0.9980392614274262, 0.0455058211740412, -0.32989192323417443
0.9985758830141656, 0.0637147317645424, -0.31200270274160147
0.9992674968615955, 0.035279381388573096, -0.29118958291671526
0.9988380772678576, 0.13626231039229303, -0.30051130006316995
0.99847083708599, 0.2680826400466084, -0.3035958068573113
0.9117804670529412, 0.26653566313211235, -0.04505591028985999
0.911423964081566, 0.25488832306983156, -0.13764050482457146
0.9115589447523988, 0.25422121705109063, -0.2558247520955623
0.9121427974322661, 0.27332947427737886, -0.10319624982682815
0.9125187366825483, 0.2838271740813306, -0.05942915795238076
0.9114624565843646, 0.2601899495772979, -0.0055845975135261645
0.9124048705928655, 0.2720770006103358, -0.29618762083174044
0.912442231821869, 0.2799235405180937, -0.1159299306357115
0.9126471441522206, 0.278960348152276, -0.260568077466806
0.9123477702220021, 0.27072069650816416, -0.29773115176639176
0.9130463964607307, 0.2887830885299145, -0.2410358855509031
0.9124954335115132, 0.28234220680305216, -0.08474292152632316
0.9989610419864169, 0.2570961751554311, 0.29097649297999334
0.9115725229335906, 0.15480095645329756, 0.2908292600937561
0.9116163188331707, 0.1673976972222971, 0.2915129394374214
0.9118284287473741, 0.14120190602246568, 0.2991807238753209
0.9124061953056012, 0.07018492342491563, 0.32005013990618725
0.9119427509878366, 0.07581855870297646, 0.305874609990258
0.9125677736631486, 0.20690731411069813, 0.3158869415317618
0.912243944469799, 0.16880494855402833, 0.3096642487350182
0.9127884462969588, 0.1963949461139645, 0.32253421442211333
0.9128449885986551, 0.12257807610847922, 0.3289302831717079
0.9123349140147032, 0.22450082433158147, 0.30844364079163267
0.9124973796135721, 0.20306559166233673, 0.314241226971142
0.9977440863193582, 0.287604519707579, 0.1836709052767644
0.9980305617538179, 0.2884614083600036, 0.022907451443311206
0.997785471187509, 0.28543764791713844, 0.20582237549479804
0.9977958138244509, 0.2850180590642719, 0.20894278312320508
0.9982852225214613, 0.27601272367215063, 0.14168287107430003
0.997831922278515, 0.28885544108742495, 0.11480427636805594
0.9984005566343457, 0.2767848382666837, 0.06849890670473159
0.9977147066679145, 0.28503831557821674, 0.25361752493775885
0.9991659976310862, 0.2587349055700296, 0.04495977155165034
0.9993174499816755, 0.25439347334680384, 0.09101621629118557
0.9990815898866097, 0.25827583266266596, 0.14159912870578456
0.998918785143, 0.2605377640296819, 0.19427037758364374
0.9985359994866495, 0.2682570386111093, 0.2160959737251548
0.9991292868222168, -0.11037948066907638, 0.28864199099823806
0.9986804558185083, 0.020835578630776223, 0.3092012749110218
0.9991608349632446, -0.038805194866704064, 0.2911386194132616
0.9989438442752107, -0.11791720761646148, 0.29412385018615633
0.9983566467540328, 0.01947811531570049, 0.31934926727931806
0.9978438348933041, -0.05527148483662557, 0.3284326958737676
0.9978226143708067, -0.13864082215244844, 0.3220038972576759
0.9980172760295931, -0.04890349264205388, 0.3244581582973687
0.9982409665886274, -0.028245723195216094, 0.32037409345868395
0.9987359519264372, -0.14904776497806446, 0.29739501409729086
0.9982080682962036, -0.08632106406902523, 0.3163666052041236
0.9120351947117132, -0.1724543943898754, 0.22148021047967195
0.9125109900942977, -0.18066081871695008, 0.2997919931215017
0.9130942846151219, -0.1939501715869939, 0.3036776112054838
0.9119864501720412, -0.16908511917701674, 0.28559790341991215
0.9115583560898761, -0.16364045973368724, 0.15981595905100057
0.9119484332152394, -0.17410150403825814, 0.11751266502238425
0.9130310962818606, -0.1954452428023431, 0.22593030860619548
0.9127153592206293, -0.18951997011218502, 0.18663387814870866
0.9131447782028043, -0.1972592804022983, 0.24779576916270005
0.9120935265391228, -0.178505442242217, 0.09341285494159199
0.913063373622139, -0.19755356177999872, 0.1936419095577418
0.9122592996775538, -0.18434817488196845, 0.048040017779107595
0.9131827711435286, -0.19704721712017642, 0.2748756400959471
0.9390382854999224, 0.296068195032692, 0.3434040312153034
0.9663046672562225, 0.28749562697490405, 0.34526553163409096
0.9711991406974972, 0.2990755460099874, 0.34192591132825256
0.9128401639707439, 0.27830854164675994, 0.3220579205830882
0.9310106675894967, 0.29772238519174493, -0.3401173510350811
0.923059051740491, 0.2984445187460526, -0.33648057958105904
0.9976150707316647, 0.2774705147466753, -0.3275574368362767
0.9984834751363245, 0.26771488592535775, -0.2980098413243334
0.9395769469804127, -0.1999437299141151, 0.3422309320225598
0.9750045868029895, -0.1985959004937593, 0.3423175992328223
0.9979458854995908, -0.1853701142238514, 0.3060719513606506
0.9407413882060447, -0.21148653975691334, -0.329173032081452
0.972560323710101, -0.21163791173716684, -0.3277838286714565
0.9123956299308158, -0.172209821564538, -0.3087850774140009
0.9130302301734554, -0.19106259275161916, -0.32638849563966643
-0.9155274904428348, -0.12291550058708821, -0.3384662078447032
-0.9154315263530164, 0.2616399474056975, -0.3385579167621338
-0.9953107434764055, 0.2991800025860019, 0.22271356143415919
0.9952869158810226, -0.20536813666968445, -0.057292391587200016
0.9153569205685589, 0.028253152472153546, -0.3382973943121152
0.9152841193973391, 0.19680163895422806, 0.33798983509540703
0.9152784844579926, -0.20524098403860314, -0.002187155993267673
-0.9153314746617514, 0.2998310573007539, 0.244128319733959
-0.9148502087655556, -0.12279216172930076, -0.33845860631346153
-0.9958625615796416, 0.2991300332763424, -0.2872605527585691
0.9953840095144009, 0.18708680132718394, 0.33844423675473656
0.9152681590619833, 0.006980250547304924, 0.3384705438710785
0.9147759941708831, 0.2990086747862516, 0.23798300505624614
-0.9152777686252278, -0.023459312724820422, 0.33831889093475
-0.9954081817516666, 0.24941596001505134, 0.338408554886601
-0.91501955254784, -0.20520904657092728, 0.017184839687850433
0.9954378960729551, -0.20550559478369956, -0.00519744564370322
0.9152866498985446, 0.29930494061163926, -0.13399355924956843
0.9955475849809534, 0.29907107925963095, 0.16035209653908458
0.9953749912150986, -0.19554888038837082, 0.3348286907545578
0.8939767218995858, -0.01484972255665717, 0.3207338291668613
0.8934767409045692, -0.16324554755289802, 0.3376698096847586
0.8978033555102466, -0.1910463408363216, 0.3376697949675426
0.9051458738297873, -0.12438619019762778, 0.33766984158433067
0.9148618803246741, -0.16729092946371343, 0.32736261400165356
0.9148623228082612, -0.06994415441736813, 0.32637917454756205
