0.22159647963266, -0.2608027668691779, 0.008277740329504013
0.22152609483944397, 0.018965475012457437, 0.008277740329504013
0.23515853039453027, -0.058089932177401896, 0.008277740329504013
0.21505693693253186, -0.2397200677679624, 0.008277740329504013
0.22491084804436162, -0.13213326087729538, 0.008277740329504013
0.22734033455363212, -0.039633637794118215, 0.008277740329504013
0.2401107071366476, -0.17113278860869435, 0.008277740329504013
0.2364414004432423, -0.17442627249122475, 0.008277740329504013
0.21552796848120936, -0.17445513179815675, 0.008277740329504013
0.24084269894122015, -0.1879871548127516, 0.008277740329504013
0.2400339555537675, -0.2649849507523235, 0.008277740329504013
0.23700118517855404, -0.12264159437650969, 0.008277740329504013
0.2236456351713206, -0.026104157019076348, 0.008277740329504013
0.23969732991828518, 0.24680237695691593, 0.008277740329504013
0.23443792545960587, -0.24005486093901962, 0.008277740329504013
0.2339397863303572, -0.06380780775506516, 0.008277740329504013
0.2251472777063339, -0.1031622591897305, 0.008277740329504013
0.2410566153898419, -0.18313035908163933, 0.008349024590119132
0.24116966974618237, -0.02276231830038851, 0.008413658282514785
0.24139307316099326, -0.2822595267816009, 0.00857815044980602
0.2415548217667584, 0.06800823240217256, 0.0091171351558389
0.2415440385134032, -0.10326395138112218, 0.009081202798881416
0.0020886512415554115, -0.24988241126474478, 0.024593761428083796
0.1508762875345004, -0.24990073030330887, 0.024659022423104332
0.08732432235396984, -0.25028012214722667, 0.02499083859625859
0.0024290496495211855, -0.2501726555607929, 0.024926250572326655
0.030728381120679812, -0.24997870688574067, 0.008524682991616647
0.2280202263420963, -0.2788923968172541, 0.00909652339843093
0.01880296558459429, -0.24984166564843913, 0.00888430119536082
-0.0026398725393243644, -0.24979061650997497, 0.009061633103207616
-0.13933382297649388, -0.24975187852132744, 0.023636589150959814
-0.08074262735350883, -0.24975187633127696, 0.019731063967381973
0.0038194136585887432, -0.24975187317047548, 0.01807332322738186
0.19157441059828167, -0.24975186615247705, 0.02262476648420537
-0.09709699844347253, -0.24975187694257867, 0.022264480701336256
0.08528402329985635, -0.2497518701254513, 0.022295045278862925
0.12444647288989123, -0.24975186866161805, 0.013648449004790151
0.11173522743062154, -0.2497518691367452, 0.020936877225437054
0.12638689086918553, -0.24975186858908816, 0.01825935140914204
0.17527811357901155, -0.24975186676160804, 0.021401802253353565
-0.06571242238583398, -0.24975187576947058, 0.01984785927621422
0.14569883373240858, -0.24975186786723685, 0.017878131291020873
0.09386863829723713, -0.24975186980457134, 0.015311636622282031
0.03340844621163723, -0.24975187206448207, 0.022471330855492577
0.10957871408563553, -0.2497518692173524, 0.014363163233065674
-0.07400980365649901, -0.24975187607961416, 0.022546090244303398
0.002204642164373251, -0.24975187323083323, 0.019522033314322697
0.15125100180583245, -0.2497518676597052, 0.016724702300660418
0.09726284561064213, -0.249751869677701, 0.01341361833578183
0.19025871432995542, -0.24975186620165574, 0.020903950278535453
-0.013088789679342315, -0.2497518738024786, 0.020257821151696748
0.16100375343345022, -0.24975186729516202, 0.017956407305954186
0.08207934272598022, -0.24975187024523743, 0.014528133118332016
0.1559798328520398, -0.24975186748294864, 0.017800777381511805
-0.05429941399762577, -0.24975187534286955, 0.019747859739443555
0.0632414239391747, -0.2497518709493704, 0.020962083194356305
0.14016421067349283, -0.2497518680741127, 0.01987887307741891
0.011605034514908616, -0.2497518728794607, 0.023950535766363294
0.12938076468287857, -0.24975186847718164, 0.023156868476903656
0.05511670978875779, -0.24975187125305998, 0.021982983809326388
0.04388414398417061, -0.24975187167291632, 0.017171659377085258
0.06913904920221213, -0.24975187072892607, 0.0193296265695707
-0.02073153917993726, -0.24975187408815303, 0.017624429220630584
0.17319644028117395, -0.2497518668394178, 0.018787132261990636
0.15820777869809038, -0.24975186739967137, 0.021345450943339186
-0.06307093907268492, -0.2497518756707359, 0.0200677417917891
0.13564292690292457, -0.2497518682431115, 0.015302878064180608
-0.07404170358886795, -0.24975187608080654, 0.020865445399368375
0.13438655022054646, -0.24975186829007295, 0.018250160463492066
0.07437984267041028, -0.24975187053303313, 0.014055043021807805
-0.02286078119960888, -0.24975187416774092, 0.021136813023932575
0.06129572053215468, -0.24975187102209787, 0.016244142831302887
0.07647894518600526, -0.24975187045457184, 0.021782726924650227
0.08400847664030486, -0.24975187017312933, 0.016897517921385805
-0.020683258778748097, -0.24975187408634839, 0.017674361889805226
0.01136321951469102, -0.2497518728884994, 0.023986542028928512
0.2400540991539772, -0.29114586466490255, 0.010004172961030499
-0.2010732736230674, 0.2514542306467028, 0.008520457932879914
-0.19993504897551978, 0.17791286493056002, 0.024971892523425486
-0.2000256556366629, 0.20349692691229393, 0.025026979313023657
-0.19944623112678528, 0.024984549363087236, 0.017400723403291456
-0.19944623112678528, 0.028788777729013074, 0.011963651072702202
-0.19944623112678525, 0.19117780970763296, 0.011529604058512622
-0.19944623112678528, 0.027472858704762994, 0.015118477059598548
-0.19944623112678528, 0.13506762675807726, 0.016381049482029102
-0.19944623112678528, 0.05736590418137148, 0.013514858615695312
-0.19944623112678528, -0.1396913374897197, 0.010103353166688842
-0.19944623112678528, 0.15282107328928096, 0.019007955089389114
-0.19944623112678528, 0.10992197374207645, 0.014725882202169058
-0.19944623112678528, 0.14428240980619994, 0.009518271910182674
-0.19944623112678528, 0.06972068426795729, 0.014420013318198744
-0.19944623112678528, -0.23131409650969373, 0.009403927388702495
-0.19944623112678528, 0.23657357005646212, 0.012898605398673327
-0.19944623112678528, 0.11078913733145204, 0.011990244335359506
-0.19944623112678528, 0.13618117278808983, 0.010458763782091977
-0.19944623112678528, 0.04460376293732157, 0.010819253630666496
-0.19944623112678528, -0.015284432921945349, 0.016180769018735792
-0.19944623112678528, 0.0035682099345704377, 0.010547114842938162
-0.19944623112678528, -0.09090304597015525, 0.01119062499581388
-0.1994462311267853, -0.029550443251777515, 0.01554344184144765
-0.19944623112678528, 0.13472312622886787, 0.011037522401937755
-0.19944623112678528, 0.1365071705824089, 0.014598075237753812
-0.19944623112678528, 0.05176313567644798, 0.011228721255502458
-0.19944623112678528, 0.049100199224705696, 0.015396370392785602
-0.19944623112678528, -0.17213307229796843, 0.00951441627733741
-0.19944623112678528, -0.010604683584736957, 0.01128147566800852
-0.19944623112678528, 0.10734678978230625, 0.017628070154859007
-0.19944623112678528, 0.21914958203022633, 0.01439363628620076
-0.19944623112678528, 0.08965649318639905, 0.009634999568558227
-0.19944623112678528, 0.11522977435794624, 0.011704042025159744
-0.19944623112678528, 0.09806162836959698, 0.01647214045013261
-0.19944623112678528, -0.12245913564372887, 0.011410424864270737
-0.19944623112678528, 0.19222156934499499, 0.014750042245713704
-0.19944623112678528, 0.01539961088374392, 0.012006590883254342
-0.19944623112678528, -0.12753371350966788, 0.011823368766083744
-0.19944623112678528, 0.013553834250540894, 0.01679209122281033
-0.19944623112678528, 0.12664984350284578, 0.012216374270514328
-0.19944623112678528, 0.10473888131613562, 0.012988701095665172
-0.19944623112678528, 0.2387699593064152, 0.022782053085770346
-0.1994462311267853, 0.23829033124846644, 0.022358396843746596
-0.19944623112678528, 0.16422477121105786, 0.02071908672885973
-0.19944623112678528, 0.02211781002088689, 0.01376906882541052
-0.19944623112678528, 0.17973297839388738, 0.014432509169793585
-0.1994462311267853, 0.1596754746739471, 0.017422253224604726
-0.1994462311267853, 0.16946180451135076, 0.010012358567563474
-0.19944623112678528, 0.13725147399119086, 0.014929386293468171
-0.19944623112678528, 0.21947704691123537, 0.021812105067739222
-0.19944623112678528, 0.22947134366375915, 0.015612998508453012
-0.1994462311267853, 0.03441616701193683, 0.01721558795163677
-0.19944623112678528, -0.09827790635380389, 0.012068785904812696
-0.1994462311267853, -0.09297119073784148, 0.010929227056487729
-0.19944623112678528, 0.2215280874499917, 0.018112283201273515
-0.19944623112678528, 0.1385084619878104, 0.016924068891109225
-0.19944623112678528, 0.06473373954885045, 0.012589856025000736
-0.19944623112678525, -0.05157933194573498, 0.011393137647695093
-0.19944623112678528, 0.23147792994609337, 0.010815498963152821
-0.19944623112678528, 0.19835745801980464, 0.010575370747973293
-0.19944623112678528, 0.04678244197738268, 0.013489648701384846
-0.19953162075981984, 0.24424249914623153, 0.024426399511028
-0.1995179002221084, 0.16245335181538728, 0.024382190708658828
-0.19955797674407794, 0.15233306853071024, 0.024525918569951424
-0.2414171487369844, -0.10875234432439926, 0.02667716405044217
-0.2414522155274238, 0.13833260415689558, 0.026560313366205422
-0.24142481136977495, 0.19796572213165703, 0.02665163037959826
-0.24156524240970612, 0.08020576211961135, 0.02072415069725052
-0.24156524240970612, -0.25115376591728716, 0.024472964510126777
-0.24156524240970612, -0.2865659306243788, 0.015533524421135623
-0.24156524240970612, 0.25104250558442526, 0.025412992534336116
-0.24156524240970612, -0.28168031431711527, 0.019604300958325892
-0.24156524240970612, -0.08360982572958164, 0.019589926542276547
-0.24156524240970612, 0.010157488605182993, 0.022007025501285665
-0.24156524240970612, -0.13790500153662538, 0.014037853299089275
-0.24156524240970614, -0.07806444546151513, 0.019568362063871737
-0.2415652424097061, 0.0022469238975002526, 0.019677562849096053
-0.24156524240970614, -0.2817199476712195, 0.009582461208549846
-0.24156524240970614, 0.20890365742017625, 0.025668083654237357
-0.24156524240970612, 0.14279166210885072, 0.024995571820844567
-0.24156524240970612, 0.1291853317648517, 0.026174904132206175
-0.24156524240970614, -0.017538366513925624, 0.019309814194154448
-0.24156524240970612, 0.2359086454039559, 0.02606786510721487
-0.24156524240970612, -0.1849768985633174, 0.020341835658967827
-0.24156524240970612, -0.250754479772166, 0.01041083363290104
-0.24156524240970612, -0.03590075457673528, 0.023090479310075095
-0.24156524240970612, -0.27648756078783543, 0.017080431314206564
-0.24156524240970612, -0.015060677408211195, 0.021588809129760314
-0.24156524240970612, -0.07864264817502013, 0.021570780360791766
-0.24156524240970612, 0.043421861510765034, 0.020296609297504195
-0.24156524240970612, 0.19058949062654368, 0.02570008944910871
-0.2415652424097061, -0.09944951520246816, 0.01559696332318717
-0.24156524240970612, 0.13438435987833403, 0.024024731219347166
-0.2415652424097061, 0.05204096581667056, 0.025279799348488383
-0.24156524240970612, 0.005905861311300567, 0.023455140529082256
-0.24156524240970612, 0.07071932857939152, 0.02597917139223791
-0.24156524240970612, -0.0652663363961107, 0.0210894272449567
-0.24156524240970612, -0.2065221065317171, 0.013578172727016941
-0.24156524240970612, -0.201856042783032, 0.020440284310742567
-0.24156524240970614, -0.06482766021183964, 0.016962666137470994
-0.24156524240970612, -0.145664960708705, 0.02223648768931777
-0.24156524240970614, -0.2858997872122641, 0.013855400284130091
-0.24156524240970612, -0.1218970811946966, 0.0227769185776631
-0.24156524240970612, -0.052283494945761344, 0.021263420727976247
-0.24156524240970612, -0.2829823390792828, 0.02587961077957099
-0.24156524240970614, 0.045537547558857784, 0.01953596516357323
-0.24156524240970612, -0.26256729101216275, 0.01066530824421452
-0.2415652424097061, -0.19733355533243915, 0.015329838155071145
-0.24156524240970612, -0.1352252818966726, 0.015997536282626547
-0.24156524240970612, -0.07995322682672949, 0.020031383831048688
-0.24156524240970612, 0.2175086322366201, 0.025472566730014003
-0.24156524240970612, -0.24670826539247193, 0.02143301532636621
-0.24156524240970612, -0.1822043462198496, 0.023298575612858256
-0.24156524240970612, -0.264856483410861, 0.02458345250648063
-0.24156524240970612, -0.17472264775733143, 0.022686436652155736
-0.24156524240970612, -0.00857908615195347, 0.021020069582045817
-0.24156524240970614, 0.11224561798330612, 0.022532867127710066
-0.2415652424097061, -0.2640470637944037, 0.01728359845660731
-0.24156524240970612, -0.03752275173392275, 0.018182251766802864
-0.24156524240970612, -0.11304923378835743, 0.022046221631078333
-0.24156524240970612, -0.11135327018251595, 0.02527900774828626
-0.24156524240970614, -0.28702008703482573, 0.01153887177745569
-0.24156524240970612, -0.06908861812331378, 0.0212061743449653
-0.24156524240970612, -0.14691678591198826, 0.0258157913623087
-0.24156524240970612, 0.22961088262197152, 0.024894652811428546
-0.24156524240970612, -0.05855932220605238, 0.01846812772134199
-0.24156524240970612, -0.15626448811551386, 0.020916161212462262
-0.24156524240970612, -0.15298403806564853, 0.021568947872003044
-0.24156524240970612, 0.12375881770295823, 0.02440634711597113
-0.24156524240970612, -0.24608985799200062, 0.01136612761774411
-0.24156524240970612, 0.14579669937677134, 0.02249583370815789
-0.24156524240970614, -0.22446281671365803, 0.021781486932928036
-0.2415652424097061, 0.2037994600578498, 0.023885257447863507
-0.24156524240970612, 0.11635603709205918, 0.0250237081882084
-0.24156524240970612, 0.0659767804904376, 0.024475641073467676
-0.24156524240970612, 0.06628389529212902, 0.022027651955864692
-0.24156524240970612, -0.15973053601641493, 0.017059465955503762
-0.24156524240970612, -0.056460065297507925, 0.024786211947796732
-0.2415652424097061, 0.21758755152572157, 0.024461916396645637
-0.24156524240970612, -0.09935322073090858, 0.02541603712086679
-0.24156524240970614, -0.2767625306855833, 0.011097976140239836
-0.24156524240970612, -0.0648595283261633, 0.023162044817588365
-0.2415652424097061, -0.10115317694888008, 0.015024470878500127
-0.24156524240970612, -0.007223576903988567, 0.02065445827666337
-0.2411137319054586, 0.18520611718492946, 0.026953862030165025
-0.241071315314445, 0.2835487765894449, 0.02697811187738494
-0.24095058034014893, 0.25319294708100526, 0.02704713686526861
-0.20353984375599066, 0.03129789126505657, 0.02522918070385299
-0.21706502045427936, 0.0063409648749698025, 0.025890614947699266
-0.2089761942110493, 0.06026875574115337, 0.025495039585606456
-0.2093951770501399, 0.19258838259159167, 0.025515529491471678
-0.2101421794179141, -0.06252202777035669, 0.025552060840178026
-0.21685510828826193, 0.06002065973686844, 0.025880349418612208
-0.22430970181130927, 0.26921999634763977, 0.02624490831052835
-0.23614086193008266, 0.2389909845557054, 0.02682349849249434
-0.20996324342170625, 0.13165233954200659, 0.025543310167415012
-0.21530684479911338, 0.13563551022468984, 0.025804633255114742
-0.22454209384500984, 0.11985102652458335, 0.026256273193406815
-0.20514033732637846, -0.13791081329843463, 0.0253074511233917
-0.20915548927243066, 0.2210124519582324, 0.02550380781806623
-0.22019015556337765, 0.24517093376166418, 0.02604344632461321
-0.22584475072143986, 0.12530844397791177, 0.026319978229228026
-0.20688841281184916, 0.0277857915037224, 0.025392938878022284
-0.20769173577486955, 0.06303913026853344, 0.025432224524965213
-0.22985461898891668, 0.23033301144131663, 0.02651607653127515
-0.20078845978380783, -0.15652245145839586, 0.025094627224976684
-0.2127350075610635, 0.03393986783161265, 0.025678860316483896
-0.23126989212359628, 0.18111253175049535, 0.026585288944284968
-0.20899658061189275, 0.20816704609444983, 0.02549603656064992
-0.22574669328427888, 0.11071435419714505, 0.026315182835552293
-0.21724678582997325, 0.1827846391732489, 0.02589950398822801
-0.22617170230201286, 0.23581643347704984, 0.0263359674452135
-0.2005232834957087, 0.051657974479419014, 0.025081659063338764
-0.20911706439537983, -0.08864783799625246, 0.02550192869071256
-0.22114747312784716, 0.14946145270195701, 0.02609026291218916
-0.2326376155438184, 0.18493105864542525, 0.02665217598956549
-0.20490137564400046, 0.058340859147718374, 0.02529576495889879
-0.23228368182910847, 0.17888846307456707, 0.026634867241281963
-0.22158826940313808, 0.261169706079453, 0.026111819580729705
-0.2186423564958894, 0.14444924381920377, 0.02596775287315837
-0.21037770861251381, 0.25823873469947295, 0.025563579142541752
-0.20367277812050696, -0.1678980043334137, 0.02523568171621212
-0.2060517857422971, 0.21393437354283798, 0.025352024529509517
-0.23075706911810095, 0.2545935975079462, 0.02656020988584208
-0.2147817699566747, 0.14093732728313915, 0.02577895503374148
-0.2141746719497301, 0.0839773760451652, 0.025749265557579976
-0.22486281535625954, 0.08589278957420148, 0.02627195773454154
-0.2142437483599826, 0.16382333761488993, 0.025752643665252963
-0.20570122092335255, 0.2108918421401483, 0.025334880533456065
-0.21097895964744817, 0.04652386670922673, 0.02559298267881525
-0.20313963173441874, 0.24259282078536762, 0.025209608764663455
-0.23180979891138137, 0.22525260007591885, 0.026611692506019677
-0.2167684702823239, 0.12623890480217492, 0.02587611247995889
-0.2050690728259705, 0.1839748061612972, 0.025303966009519115
-0.2124995027800341, -0.07646438064834796, 0.025667343208039605
-0.21117916940601014, 0.24585558488574677, 0.025602773722083607
-0.21425162623268146, 0.17859896229394162, 0.025753028924158476
-0.2084896334294106, -0.11429842937970017, 0.025471244853022358
-0.21344434593238865, 0.12431837309947531, 0.025713549747885405
-0.22496737254724164, 0.21145518615999137, 0.026277070991698816
-0.22907984323435915, 0.18698362425947823, 0.026478186954909683
-0.20625567993375998, -0.0903631741484669, 0.02536199575601275
-0.213868004710475, 0.24556491165950434, 0.02573426832552645
-0.20331500776487527, -0.17514387330929784, 0.02521818534112389
-0.2119609143223276, -0.016128515035191436, 0.02564100411782184
-0.20307582962420628, 0.104943933916017, 0.025206488590970678
-0.2090488983915681, 0.17731216809756828, 0.02549859510548902
-0.2149309508710386, 0.1369260772868388, 0.02578625056617627
-0.20509638260088717, 0.011765826175012636, 0.025305301564737693
-0.20872175764525536, 0.21977523804313104, 0.025482596638556156
-0.22277817190375726, 0.18959925675912703, 0.026170010484871272
-0.21995597590367866, 0.2128323137602987, 0.026031994019804744
-0.21385690598746232, 0.1961841829064355, 0.025733725554394713
-0.20334469886681716, 0.08498554756296242, 0.025219637352583705
-0.20617547769593794, -0.1416881585306017, 0.02535807355168877
-0.2193078574340962, 0.20502009964142748, 0.026000298481963426
-0.2085506696695698, 0.04299170541126695, 0.025474229764810022
-0.20950010016011672, 0.0452515878344809, 0.025520660643504486
-0.20529239561805973, 0.08434181462962359, 0.025314887370874627
-0.20315322289468032, -0.19596370678252048, 0.025210273425762614
-0.21074839359020134, 0.14254214895896972, 0.025581707093354625
-0.21597140002557186, 0.17704417130881883, 0.0258371326149022
-0.22187067529495783, 0.21548891711446405, 0.02612563033763739
-0.2001301189179333, -0.07536968912915593, 0.025062431771820947
-0.20758084304912744, 0.07589858104249803, 0.025426801435283246
-0.2075330790547615, -0.008780790997837004, 0.025424465588425104
-0.22771065862772927, 0.1778176268621137, 0.026411228451876833
-0.20715261178293914, -0.1456476565450455, 0.025405859245021256
-0.20834190953202758, 0.182111465422163, 0.025464020574438556
-0.23939971763951726, 0.2759600453900773, 0.026982869331785984
-0.21007118363219737, -0.08336035199045905, 0.025548588867508878
-0.21892780100400133, 0.18554195617960734, 0.025981712230333128
-0.22113703260397813, 0.16495716645184755, 0.0260897523295798
-0.2304964447206923, 0.1852725400595731, 0.026547464329530812
-0.2051688205885302, 0.1539634811092273, 0.02530884406674349
-0.21717417109785647, 0.2277729027592378, 0.02589595284272351
-0.23371445762919435, 0.22138911598368685, 0.02670483779549758
-0.21963192550325747, 0.13141220884237523, 0.026016146682919468
-0.23668195683213783, 0.25863441032786544, 0.0268499601576817
-0.21792104851326344, 0.0784161630660557, 0.025932478080768498
-0.20132069573114714, 0.060191325198615114, 0.02512065565249591
-0.21781359261121377, 0.11273598008835524, 0.025927223065258936
-0.2033877512707144, -0.18768952456646437, 0.025221742784169016
-0.21478140752543826, 0.016491642889305, 0.02577893730943102
-0.2013176643634613, 0.1109569254860806, 0.02512050740671415
-0.22484651792620677, 0.08810167117910621, 0.026271160726224083
-0.21343598782931583, 0.18784156133612578, 0.0257131410038291
-0.21837401340363147, 0.0311169122310784, 0.025954629842363405
-0.23001241656468455, 0.21057352518500014, 0.026523793452283805
-0.21300779678288884, 0.01846121227221982, 0.025692200780471346
-0.2259717774187347, 0.13315931534486194, 0.026326190333465022
-0.23517226247171238, 0.2289903339367725, 0.026776130176011048
-0.20460562818096245, 0.2350093486867828, 0.025281301746776116
-0.21082172329108667, 0.10717181453065357, 0.02558529320363906
-0.229034089755312, 0.23223019048655655, 0.02647594943014443
-0.21662901232693374, 0.09920521070700822, 0.025869292438392737
-0.2155389492207213, -5.625637749581344e-05, 0.02581598407263264
-0.2162510099915314, 0.2534639129874784, 0.0258508066400578
-0.21921496694995124, 0.25739121168318085, 0.025995755772576963
-0.21364346473014845, 0.0027018425650308445, 0.025723287438887143
-0.23071111995119276, 0.22322047294682998, 0.026557962791172098
-0.21889770006172002, 0.07732033222131081, 0.02598024017607158
-0.21214299442061635, 0.25600932838532553, 0.025649908549521157
-0.22068451253182522, 0.1665657167905016, 0.026067622321342084
-0.20357772908103972, -0.0016729486686788142, 0.025231033444995353
-0.21245051159336187, 0.19327433406315003, 0.025664947346659417
-0.22257725524768174, 0.1852203120256326, 0.026160184871539045
-0.20068939023340737, 0.07808143761934351, 0.02508978233498973
-0.2127208580217839, 0.13381751601457456, 0.025678168348458413
-0.20147374865537512, -0.1546252829604772, 0.025128140541415555
-0.2120828531673474, -0.04342035351979609, 0.025646967406106374
-0.20240165359014153, -0.03311212399721396, 0.02517351873591752
-0.20979489621649305, 0.10853518238664979, 0.02553507732810594
-0.21292422102904965, 0.19956570433300924, 0.025688113597968847
-0.21371634934329786, 0.1464654042648061, 0.025726851782633765
-0.20286760900818795, 0.004729390929629068, 0.025196305785320033
-0.20674588367434907, -0.09896326187537033, 0.025385968643592712
-0.2063206874900565, 0.05531535973227168, 0.025365174880751927
-0.20041525275456754, -0.03236199895479777, 0.025076375935940663
-0.21471358342453123, 0.057661799304046565, 0.025775620444601917
-0.23037041685689577, 0.2539001520478761, 0.026541301072173562
-0.2149937413560158, 0.1450138041929825, 0.025789321267423136
-0.20788101332088874, 0.24450961365318147, 0.025441480940117566
-0.21190597981396936, -0.001953416079185602, 0.025638317604676206
-0.2076309181742519, 0.06884265755871033, 0.02542925030550957
-0.2185207532061396, 0.06727117276308195, 0.025961805994844014
-0.21111163591945303, 0.17374072631131676, 0.02559947106943724
-0.20530407303992942, -0.07191420268273961, 0.025315458442652594
-0.21336257482453752, 0.07749597780576077, 0.02570955081965722
-0.21099246856568815, 0.07722412807793519, 0.025593643317956653
-0.20024217936132013, 0.24518672270563238, 0.0250679119674805
-0.22130376288217984, 0.2540774677440112, 0.026097906094809546
-0.20655396413139698, 0.002968511051414144, 0.025376583024417185
-0.21058837087902504, 0.12929273744861558, 0.025573881354488046
-0.2051221184370809, -0.09571289323319997, 0.02530656014817304
-0.20662962361326156, 0.061294057520438316, 0.025380283070138822
-0.2271806397899318, 0.15889377081623796, 0.02638530844971914
-0.21533565509938668, 0.026471928763850024, 0.025806042191914708
-0.20117412577330748, -0.20605127793431907, 0.025113487806086444
-0.2027993254984728, 0.1742256282831964, 0.025192966453596456
-0.20342440327482825, 0.002858681190415935, 0.02522353521107532
-0.2023772665118931, -0.010139854071500073, 0.025172326112041274
-0.20943330695497916, -0.07803512570270413, 0.02551739419352607
-0.20496250420080375, -0.16375703568692748, 0.025298754385332804
-0.207893992299048, -0.01483766704744291, 0.02544211566310834
-0.20007484638392398, 0.09658455550311361, 0.008281326425348472
-0.1998425642350254, 0.22049127245010325, 0.008419235756284768
-0.19978740329678144, 0.13041105021129168, 0.008451985617275457
-0.199566334283507, 0.004550399486542692, 0.008783347327305176
-0.19959646178608056, -0.09874741844977408, 0.00867751826867321
-0.23948672096428342, 0.08039285797813615, 0.008277740329504013
-0.2034231227258464, 0.21327941155219524, 0.008277740329504013
-0.203774010496085, 0.2500019590608494, 0.008277740329504013
-0.22623729400672138, 0.15516049514060998, 0.008277740329504013
-0.2141073700367912, 0.12466870047010731, 0.008277740329504013
-0.23555880159989026, 0.08146297281164831, 0.008277740329504013
-0.23807363705488707, -0.17245605216581644, 0.008277740329504013
-0.2353096327967307, -0.1439929256633548, 0.008277740329504013
-0.22335994810846926, 0.1439891305292733, 0.008277740329504013
-0.23923986644510642, -0.1372929501454947, 0.008277740329504013
-0.23638208273865216, 0.21120610452067157, 0.008277740329504013
-0.22050079200750838, 0.19547555205345168, 0.008277740329504013
-0.23842244956532238, -0.24281403486180114, 0.008277740329504013
-0.23627584154265585, 0.12050553870188155, 0.008277740329504013
-0.2320044727233602, -0.11485940220709576, 0.008277740329504013
-0.2084950249757498, 0.2238675135552956, 0.008277740329504013
-0.22450041152155684, -0.025586373924111196, 0.008277740329504013
-0.22245162549763478, 0.10312286919456332, 0.008277740329504013
-0.22777489863179, 0.2341082524238293, 0.008277740329504013
-0.2165698553503932, 0.1962912762801326, 0.008277740329504013
-0.23627750640954, 0.0061861837324336255, 0.008277740329504013
-0.23773835099510568, 0.1830776081316708, 0.008277740329504013
-0.22791295849490026, 0.055602364101421387, 0.008277740329504013
-0.23578760177154723, 0.0439929103075474, 0.008277740329504013
-0.22821501469148814, 0.2470230398680494, 0.008277740329504013
-0.23657274271410683, 0.08605307696361104, 0.008277740329504013
-0.24042614152988812, 0.1344307159147355, 0.008277740329504013
-0.2387323566939357, -0.1297540762911647, 0.008277740329504013
-0.21518617568252726, 0.2605890117860403, 0.008277740329504013
-0.23543092335970967, -0.12065636781793593, 0.008277740329504013
-0.21065673789833592, 0.18792533073680726, 0.008277740329504013
-0.20606748913611916, 0.20207979116627856, 0.008277740329504013
-0.2268885591666244, 0.12395480712126535, 0.008277740329504013
-0.22969229673175678, 0.0029448674219302445, 0.008277740329504013
-0.24042956100982057, -0.13865143835403942, 0.008277740329504013
-0.2342671066535278, 0.16952119418495729, 0.008277740329504013
-0.22180684346696544, 0.11068221717228141, 0.008277740329504013
-0.2154490608658205, 0.15853659345512713, 0.008277740329504013
-0.23807794290547987, 0.20742416378566586, 0.008277740329504013
-0.2325136177048755, 0.08836915378152022, 0.008277740329504013
-0.23242452300387914, 0.011943393686295559, 0.008277740329504013
-0.23486844163535137, 0.09372826169495097, 0.008277740329504013
-0.2332873282908532, 0.10658156886644787, 0.008277740329504013
-0.21573744649549248, 0.08685903464724451, 0.008277740329504013
-0.22449115243115295, 0.17187197192157755, 0.008277740329504013
-0.22984881100498183, -0.001588733118394428, 0.008277740329504013
-0.22239108130068044, -0.025703752754620203, 0.008277740329504013
-0.20966969489112022, 0.12601250233168196, 0.008277740329504013
-0.22055909571382304, 0.016651565037823446, 0.008277740329504013
-0.2183873348803342, 0.05042250720772154, 0.008277740329504013
-0.2262872830542979, -0.029134756950180314, 0.008277740329504013
-0.23776757659983833, 0.1551036752683863, 0.008277740329504013
-0.23829213055886067, -0.1962342882702397, 0.008277740329504013
-0.2179464690911738, 0.16897793989357845, 0.008277740329504013
-0.22887129300633463, -0.08485972219013312, 0.008277740329504013
-0.22733188966290804, 0.08008830848083742, 0.008277740329504013
-0.2294088058954997, 0.00024601333160641226, 0.008277740329504013
-0.23497308839344822, 0.19291928265925137, 0.008277740329504013
-0.2200017057553243, 0.057255945064566646, 0.008277740329504013
-0.22630774183633634, 0.09244080869386005, 0.008277740329504013
-0.2403522026188242, -0.07904772950128566, 0.008277740329504013
-0.22325259248081783, 0.1350675679284584, 0.008277740329504013
-0.23790133422062118, -0.02268108413445445, 0.008277740329504013
-0.21062227144970483, 0.25784790047840356, 0.008277740329504013
-0.22714867381599238, -0.05428906293356457, 0.008277740329504013
-0.23474720688649597, -0.17939930375393887, 0.008277740329504013
-0.2403569623371938, -0.1003441610644918, 0.008277740329504013
-0.23203510562689866, 0.10128522693239699, 0.008277740329504013
-0.22982586071859418, -0.12908167772347515, 0.008277740329504013
-0.24072150749586946, 0.1396598709347029, 0.008277740329504013
-0.23563476121776378, -0.02393182272107218, 0.008277740329504013
-0.233093053872173, 0.09291675340987646, 0.008277740329504013
-0.21754708644997267, 0.05336875073983547, 0.008277740329504013
-0.23529878856021152, 0.2442403809224364, 0.008277740329504013
-0.2289282563642826, -0.09891554547436553, 0.008277740329504013
-0.2259255492548733, 0.2550098343563701, 0.008277740329504013
-0.21860067143085732, 0.1125941662381697, 0.008277740329504013
-0.23893808829592608, 0.13475991744542748, 0.008277740329504013
-0.23599611147430496, -0.060574273197114364, 0.008277740329504013
-0.2405999989540918, -0.22648163612020727, 0.008277740329504013
-0.23904799239889923, -0.06123605407260993, 0.008277740329504013
-0.23050061501418218, 0.09963424684945241, 0.008277740329504013
-0.2374129829202193, 0.08766261702648666, 0.008277740329504013
-0.23752441719641632, -0.14597357851096207, 0.008277740329504013
-0.21856069665338013, 0.25850984311150565, 0.008277740329504013
-0.2151412048792433, 0.10622848726660312, 0.008277740329504013
-0.23216633504561413, 0.07800282275537368, 0.008277740329504013
-0.23397246410573305, 0.046644811077968626, 0.008277740329504013
-0.21905258598283686, 0.2471097727360994, 0.008277740329504013
-0.21357396655395505, 0.2333304632702015, 0.008277740329504013
-0.22547530422849996, -0.05228218621469781, 0.008277740329504013
-0.22121980765142846, 0.260232404370209, 0.008277740329504013
-0.21746108063395952, 0.20571123064431143, 0.008277740329504013
-0.21854089041648472, 0.13547505640504615, 0.008277740329504013
-0.23546023373559594, 0.24188639567162923, 0.008277740329504013
-0.2285383609974666, 0.031499654989092185, 0.008277740329504013
-0.23896542094499032, -0.2167790058051435, 0.008277740329504013
-0.2400679599454027, -0.00883513944324199, 0.008277740329504013
-0.21797084848334788, 0.07755059948986806, 0.008277740329504013
-0.23721125621367442, -0.15479157578344832, 0.008277740329504013
-0.22243548054831502, 0.10647624724897206, 0.008277740329504013
-0.22005274756090532, 0.15270792423669466, 0.008277740329504013
-0.2325656800447752, 0.26257947168980134, 0.008277740329504013
-0.2093780244557999, 0.16835576046996942, 0.008277740329504013
-0.22881719574309986, 0.20088654791926736, 0.008277740329504013
-0.2182377383467931, 0.16717415040396083, 0.008277740329504013
-0.22299281440737392, 0.05757718909713281, 0.008277740329504013
-0.21800946308447677, 0.06534082583355703, 0.008277740329504013
-0.24072956227038078, -0.017543414551345754, 0.008277740329504013
-0.23159394989457832, 0.16281330986639264, 0.008277740329504013
-0.23119599559873139, -0.05025810379980325, 0.008277740329504013
-0.2398521089925511, 0.04016601547782778, 0.008277740329504013
-0.24083482859637084, -0.10393766709469014, 0.008277740329504013
-0.22578985593303874, 0.06755547687247072, 0.008277740329504013
-0.22552108373436805, -0.008408746974711577, 0.008277740329504013
-0.2286354421921142, -0.1082246759965696, 0.008277740329504011
-0.23644392634517422, -0.12099173918373549, 0.008277740329504013
-0.22201271332363337, 0.24600954462385483, 0.008277740329504013
-0.22727827756149396, -0.10784077293784051, 0.008277740329504013
-0.23211305323660214, 0.18184708443866193, 0.008277740329504013
-0.23908140296305863, -0.2331841715844628, 0.008277740329504013
-0.22838646122514217, 0.1426795430059209, 0.008277740329504013
-0.23226801632350713, 0.05097392598863647, 0.008277740329504013
-0.22087734868168896, -0.010885719905762457, 0.008277740329504013
-0.2226983414684602, 0.26912089641695125, 0.008277740329504013
-0.24037596649376886, 0.05019376298794734, 0.008277740329504013
-0.21265271164141847, 0.09041667084401192, 0.008277740329504011
-0.2170623357284712, 0.09037544615039238, 0.008277740329504013
-0.21292898929643397, 0.17013872742080555, 0.008277740329504013
-0.22795967003508327, 0.14794822792472506, 0.008277740329504013
-0.22887494979327658, 0.002808543738852587, 0.008277740329504013
-0.232032817935437, 0.20018314134503273, 0.008277740329504013
-0.23117046567772, 0.2393866282923477, 0.008277740329504013
-0.21486326124186497, 0.12451834542326641, 0.008277740329504013
-0.2281468694971212, 0.1135633050732935, 0.008277740329504013
-0.2177292634769591, 0.10734343748769648, 0.008277740329504013
-0.232713824847265, 0.05822610073935487, 0.008277740329504013
-0.23204764846515424, 0.26596868554889264, 0.008277740329504013
-0.23990570857551377, -0.008228931973090658, 0.008277740329504013
-0.2163469057554216, 0.06829527980758685, 0.008277740329504013
-0.21547359156144402, 0.04956588409281303, 0.008277740329504013
-0.2372501189591764, 0.27725397675837204, 0.008277740329504013
-0.2115663893662761, 0.11396293945521094, 0.008277740329504013
-0.2136399670915752, 0.08932729665782158, 0.008277740329504013
-0.22645780386535438, -0.03543293333352537, 0.008277740329504013
-0.23462999531708756, 0.0705456956235204, 0.008277740329504013
-0.21770474690309888, 0.1851175802616329, 0.008277740329504013
-0.23542503287568645, -0.0865789502844773, 0.008277740329504013
-0.22558341462831327, -0.057596163100903056, 0.008277740329504013
-0.21592164277556375, 0.21130165133894296, 0.008277740329504013
-0.208871889420264, 0.14039856855482252, 0.008277740329504013
-0.2337528287023185, 0.16733262120848585, 0.008277740329504013
-0.2301100129538868, -0.07870151948422563, 0.008277740329504013
-0.23516228485191637, 0.15040517744207998, 0.008277740329504013
-0.2344346178233475, 0.07996764698034683, 0.008277740329504013
-0.22651092064087164, -0.09794540404837358, 0.008277740329504013
-0.23106583528540342, 0.05471845354735419, 0.008277740329504013
-0.22599677409995633, -0.005219936963233279, 0.008277740329504013
-0.2078602679411184, 0.23107283474667237, 0.008277740329504013
-0.23697044684625865, 0.15396988291351055, 0.008277740329504013
-0.2227912190682737, 0.08787183897319563, 0.008277740329504013
-0.23721149034669875, 0.10656594123373218, 0.008277740329504013
-0.24087539094728627, -0.04079108698064454, 0.008277740329504013
-0.24056614939090593, 0.049734449715003376, 0.008277740329504013
-0.23872125537729305, 0.18011573115411636, 0.008277740329504013
-0.2342430769236495, -0.015373720177264974, 0.008277740329504013
-0.22885503567940502, 0.03517371418263861, 0.008277740329504013
-0.2119411903500755, 0.2584706127201731, 0.008277740329504013
-0.23818762069266997, -0.11452179969629865, 0.008277740329504013
-0.21633147648742151, 0.04355696243922597, 0.008277740329504015
-0.23446252347620697, 0.24728338093219085, 0.008277740329504013
-0.23449955951855833, 0.14448640434881246, 0.008277740329504013
-0.23050419721006712, 0.07141214069074733, 0.008277740329504013
-0.2115789462778893, 0.20763039052548166, 0.008277740329504013
-0.2365223615393589, -0.2171960398981185, 0.008277740329504015
-0.22443582750398253, 0.10964725573595933, 0.008277740329504013
-0.22750894314161452, -0.09258572180053884, 0.008277740329504015
-0.22981422536909868, 0.175788789825491, 0.008277740329504013
-0.2054176786541616, 0.1839640164906861, 0.008277740329504013
-0.22790593167769527, 0.17152769920828173, 0.008277740329504013
-0.2203220419101945, 0.22521543107199288, 0.008277740329504013
-0.23740242053258884, -0.20475019721462379, 0.008277740329504013
-0.20425978089499158, 0.22039914526982193, 0.008277740329504013
-0.21388035021936908, 0.19830692414775503, 0.008277740329504013
-0.23091547840253476, 0.13357687407059154, 0.008277740329504013
-0.24118446762913381, 0.031900447381798265, 0.008422118299852904
-0.24126919800863936, 0.2574869393973211, 0.008470559045196974
-0.2414990499156208, 0.2924708854665892, 0.014321529968509451
-0.24152293413930553, 0.0032895661322898673, 0.009010878020406605
-0.24155001971013085, -0.13527369753173574, 0.009101133564557662
-0.11242104682029026, 0.24982444028783704, 0.024398712102648733
-0.13492139803840716, 0.24987145234891617, 0.024559016371003287
-0.02022356696800759, 0.24990081596322103, 0.02465655763747306
0.03620935840676194, 0.27690988133294187, 0.02633446752020348
0.07712060971375732, 0.2877797886460807, 0.026856937210765316
-0.08169029060776802, 0.26858650697971553, 0.02593439871579849
0.028262916540358774, 0.2764234195643932, 0.026311085395373714
-0.1023077522568117, 0.2899204130322419, 0.02695982781768842
-0.15182409271685626, 0.26429460947548084, 0.02572810566321191
-0.15219929218389588, 0.28182241429790367, 0.02657059184989082
-0.1130873346268169, 0.2851359528892844, 0.026729859397684054
-0.15822530982519564, 0.2637639716067043, 0.025702600183255802
-0.1786509458050111, 0.2663511268957194, 0.02582695361004659
-0.006294155628203249, 0.2795696809512972, 0.026462312647445627
-0.03177022177440024, 0.2702745207688319, 0.026015534278104317
-0.19277991783527393, 0.268757971146237, 0.025942640260776213
-0.09873818965714873, 0.28516098533056866, 0.02673106259946628
-0.17786650855910024, 0.255505705615538, 0.02530566085776894
0.010214227310223048, 0.2875446848725934, 0.026845636783609385
-0.15551323931932734, 0.2887656582491107, 0.02690432372213021
0.1750860227219588, 0.2892498839156724, 0.026927598367155452
-0.13226255836972906, 0.2690401414717414, 0.025956202974643502
-0.06033577334093813, 0.2741485814846658, 0.026201743713484965
0.18466739104527688, 0.28716612293605276, 0.02682744093960216
-0.20409056119981597, 0.2607269364826112, 0.025556622967829835
0.026103670065002076, 0.27904139760647567, 0.02643692033932868
-0.18371411930986106, 0.2536627044965306, 0.02521707572115154
0.013406939983385505, 0.2867446932231306, 0.026807184625968476
-0.08495027817427976, 0.26300986815974414, 0.02566635367413344
-0.16304557296163402, 0.25696586088473067, 0.02537584424109413
-0.1664788123048658, 0.29187495470470304, 0.027053774228948675
-0.1996503559166974, 0.285200249797913, 0.026732949873525983
-0.04470730207499066, 0.29134911268797403, 0.027028499264972417
-0.18755115195271066, 0.27181917206713146, 0.02608977902211175
-0.18854731755832763, 0.2749967670837775, 0.026242512346992188
-0.0388536356531756, 0.27252692449444854, 0.026123797637086305
-0.138395874501491, 0.27620940346705125, 0.026300798562107125
-0.1066275747748087, 0.26386848618406866, 0.025707623749448377
-0.12295582456603815, 0.28917797961634517, 0.02692414223676378
0.06806575096762855, 0.27661578437206563, 0.02632033154427308
0.1082849464452431, 0.29091423555765267, 0.0270075965918248
-0.07532390908141286, 0.27140306419801735, 0.026069778506619443
-0.09873993019549146, 0.27209289848300466, 0.02610293587356227
0.10615007231749925, 0.28148186819891147, 0.026554223263679653
-0.16724486060071558, 0.2911016947846121, 0.02701660695055933
-0.010007572087005097, 0.2803974706896162, 0.026502100939651854
0.04029784978459889, 0.2811460324419205, 0.026538081083348215
0.12516791284936385, 0.2902484475551102, 0.026975595026250486
-0.19480397724911153, 0.25570790532970067, 0.02531537972832109
-0.1350330675401832, 0.2629846733168261, 0.025665142666403205
-0.15793045772567127, 0.28576769311651695, 0.026760224433146563
-0.007314100986481499, 0.2686993406802451, 0.025939822146459155
0.16578213928855784, 0.29143360348961717, 0.027032560374392965
0.2083603564458638, 0.28925289874149407, 0.026927743276865236
0.16504759149523449, 0.29111489418689285, 0.027017241389053294
-0.08838596014930976, 0.27337964868368714, 0.02616478442109941
0.06050814217246049, 0.2889397066501261, 0.02691268948014467
-0.07121972914687345, 0.291721100754443, 0.027046379131321033
-0.03804672479435057, 0.2701625673847168, 0.026010153160467255
-0.10593817533514371, 0.2880121328277157, 0.026868104996210545
-0.11307241694605168, 0.26878297928884365, 0.025943842294625524
0.15013449901516507, 0.28865350430894077, 0.026898932964626223
-0.1912265172427432, 0.2852408055638419, 0.026734899214754478
-0.1399942727188985, 0.2577366784263318, 0.0254128941248547
-0.19245632594792214, 0.28437185336242266, 0.026693132419996275
0.028640050485835844, 0.28730502306903427, 0.026834117271553045
-0.07213017971254496, 0.2641427329228032, 0.02572080561058081
0.06720335849549007, 0.290820801757048, 0.027003105630910088
-0.024299108008154963, 0.28640762601738534, 0.02679098325519217
-0.0338082910959642, 0.2821921954934378, 0.026588365641445857
-0.09954297982717593, 0.2896348215171703, 0.026946100661953964
0.051549610855681924, 0.2879169815908322, 0.026863531485520988
-0.08998486134376685, 0.28901050763783287, 0.02691609257909234
-0.05956851638251971, 0.26721296317935883, 0.025868378373244322
-0.02285143504539089, 0.2909750532216251, 0.027010519835341147
-0.09776490000535003, 0.2663305050316678, 0.02582596240574103
-0.039407958786585456, 0.28897810859506, 0.026914535296462004
0.0011495472763446979, 0.2866333553452896, 0.026801833093070576
0.04529163889258174, 0.27875371628279755, 0.02642309273548326
-0.2150730217003244, 0.28724386853681433, 0.026831177836228993
-0.2122142220885166, 0.26672173790352693, 0.025844767287108397
-0.035534607900949006, 0.28990421428293545, 0.02695904921348382
-0.03580380963487846, 0.29151624616067473, 0.027036532652125488
-0.09955086081532827, 0.27545254782704154, 0.02626441976690269
-0.13701486578488678, 0.2582375756193413, 0.025436970098448204
0.038977089138592894, 0.2849263081087153, 0.026719782674812693
-0.00855869037435298, 0.2746838557627395, 0.026227472045693725
-0.014856899256469172, 0.28136273888567165, 0.026548497229994895
-0.21527171635492953, 0.2701824742862089, 0.0260111099995978
-0.12133963015568523, 0.2639441885784428, 0.02571126243793247
-0.15395652569292062, 0.2768648081405567, 0.02633230104571573
0.11152685540165888, 0.2894093868522938, 0.02693526498725989
-0.08743634175314448, 0.2870219503756575, 0.026820511184743427
0.14904127304730763, 0.2874330268668236, 0.02684026986353889
-0.012377275635658614, 0.26931878438415113, 0.025969596140935546
-0.13614517749797336, 0.2729890361575648, 0.02614600935708336
-0.08104298250329829, 0.28156860034246944, 0.026558392104765512
-0.18038242384194483, 0.2647696157570526, 0.025750937172055385
-0.20747353508331154, 0.27340188016842937, 0.02616585299294822
-0.03281238976983771, 0.28329163980574346, 0.02664121120057459
-0.07721165166992586, 0.2878415442039013, 0.026859905534804836
-0.06512500934221191, 0.28720232072231944, 0.026829180811492964
-0.05871634742159026, 0.2797331852895116, 0.026470171597713685
-0.0760463444303704, 0.2637911038834872, 0.025703904315098565
-0.029821809560410313, 0.2728665670005945, 0.026140122791475914
-0.020166136682508565, 0.2736685518785986, 0.026178670755039466
-0.1091875805592683, 0.2856198812604904, 0.026753119753000286
-0.14546660590711694, 0.2589305100932051, 0.0254702764781357
0.1538739701473594, 0.2856893361800302, 0.026756458152240915
-0.1396984011887433, 0.28586350019548934, 0.026764829467344403
-0.0949951910470998, 0.268201723155984, 0.025915903812435772
0.030961931280603656, 0.2787951804545462, 0.02642508573987224
-0.13634289534111382, 0.26597488333093133, 0.025808869200197662
-0.2155379749978777, 0.2722438223549918, 0.026110190134930277
-0.20879202439490005, 0.2616732386824412, 0.025602107644311436
-0.05315849779522437, 0.29096211518487225, 0.02700989795956392
-0.016720485460283332, 0.2786000577416916, 0.026415707030333156
0.017984761676452507, 0.2881652575374842, 0.02687546504238439
-0.11946909839152609, 0.2850799398105204, 0.02672716708991305
-0.13597178186024245, 0.2727440989905647, 0.026134236280996963
-0.17279501019587348, 0.2589712301768662, 0.025472233717410805
-0.06990018539435378, 0.28579482738770057, 0.026761528660851595
-0.2156347896324351, 0.2814838802197948, 0.026554319972869347
0.16141521691397867, 0.28835833291261287, 0.026884745345205064
-0.18301716139743832, 0.260624084313384, 0.025551679306446005
-7.434666501651699e-05, 0.27799555702458, 0.02638665128095874
-0.158305242518664, 0.2749451914533837, 0.026240033328277852
0.10279384850700132, 0.28101063374093666, 0.026531573050172993
0.01903656923372209, 0.27553567932334083, 0.026268415540362043
-0.11322743771377416, 0.26880656953139975, 0.025944976176118115
-0.17001142286626117, 0.2824107539542704, 0.026598870806587682
-0.1942249966959544, 0.28673750638204315, 0.026806839185429664
-0.2244187454355323, 0.2863344893341928, 0.02678746788940886
-0.15261632712019602, 0.26617680251062764, 0.025818574586664658
-0.13964692092573155, 0.26900064304289684, 0.025954304455060802
-0.1773948529238438, 0.2605533898068195, 0.02554828132558884
0.005813084089568349, 0.2870442042325755, 0.02682158083192649
-0.06132186955193945, 0.2861587031488737, 0.026779018603577537
0.028651741140630724, 0.27375179643057534, 0.026182671962598953
-0.11394196438954489, 0.28900136926196296, 0.026915653336670536
-0.1494257904950684, 0.2748481967772527, 0.02623537121139273
-0.01799212180979208, 0.2747690470973521, 0.026231566826720953
-0.0845182535302351, 0.2766054901821418, 0.02631983674684113
-0.15779950679787208, 0.28423424579673273, 0.026686518216195467
-0.11781806156965384, 0.2864213905096127, 0.026791644855129276
-0.051419744235172773, 0.27202224001007197, 0.026099539624686797
-0.15947838763073624, 0.280027277939331, 0.026484307366430128
-0.18046443390684241, 0.2661058601892508, 0.025815164694415374
-0.15914012881284223, 0.2765394825035653, 0.02631666404164622
0.08279750643018843, 0.2786563247950251, 0.026418411545569308
-0.05139392990783642, 0.26947230822029694, 0.02597697537139761
-0.15408296407399036, 0.28111004992473365, 0.02653635155851616
-0.19540466740170317, 0.25922372005680305, 0.02548436981992211
-0.13421553234724934, 0.2620353017616124, 0.025619510459210307
-0.14034359408547434, 0.2622904466399465, 0.025631774176074804
-0.15274041907851652, 0.2815003559437276, 0.026555111890052902
-0.09213783003182914, 0.26909547412887475, 0.02595886257747337
-0.015669114601127826, 0.2837353898720953, 0.02666254035759264
-0.14133686647713864, 0.2500756978461004, 0.024873587135408853
-0.02288803955966319, 0.25036579814815324, 0.025042831317129286
0.2006774762865169, 0.2571001649138114, 0.008277740329504013
0.1795698675213434, 0.2559115806854143, 0.008277740329504013
0.16961122057870243, 0.2641957227930499, 0.008277740329504013
0.18255825467518746, 0.25649896369231506, 0.008277740329504013
0.04509733299033624, 0.26202724160356566, 0.008277740329504013
0.19454089531373547, 0.26565244550183664, 0.008277740329504013
0.035556262585729234, 0.2504643323504379, 0.008277740329504013
0.11963054460483942, 0.2612393510473383, 0.008277740329504013
0.11398533598618979, 0.2620181219140672, 0.008277740329504013
0.14034502755254186, 0.26335884110498686, 0.008277740329504013
-0.02507992548908531, 0.26036268321590966, 0.008277740329504013
0.013075389785315972, 0.255666158655858, 0.008277740329504013
0.13905337234582632, 0.26589939553973824, 0.008277740329504013
0.19659677466341868, 0.27808407266880303, 0.008277740329504013
0.1286339859407397, 0.25316464985335024, 0.008277740329504013
0.14496849825006528, 0.2568909595202141, 0.008277740329504013
0.008321791702074768, 0.2548459643256888, 0.008277740329504013
0.09195221117241409, 0.26981630251459743, 0.008277740329504013
-0.11762646038898848, 0.2544331681239443, 0.008277740329504013
