0.03321982125360307, 0.15920815136428262, -0.043814116703049605
0.03156974195820582, 0.16331330100610902, -0.042438788886723394
0.034277662580902216, 0.16256186606342699, -0.04063370031615143
0.034718532106980476, 0.1446924340618092, -0.05062424201056062
0.03324659385111422, 0.14477085019787767, -0.051487166803803844
0.03577421705434146, 0.14428362776312817, -0.05017664093340461
0.03446195137493436, 0.13069773666665807, -0.05570302652785349
0.03348529756778193, 0.13281789426254825, -0.05560151071257684
0.037512557105576605, 0.13263840570138136, -0.0531955163608125
0.03287636179571058, 0.13042212895223104, -0.05676452281638843
0.03594961877370643, 0.14101432411775042, -0.05138936190252248
0.037296796622126156, 0.14526930948815206, -0.04845207464236641
0.036825988451557705, 0.15190810817466732, -0.045235287028113115
0.040118631145956186, 0.1546417070489161, -0.040930052603782366
0.04044431905437053, 0.15954439566393072, -0.03689455961948748
0.03954130237744128, 0.1598138697841577, -0.03773689376789104
0.0410255070083623, 0.16296527819380924, -0.033499151969396124
0.043291783074159984, 0.14439889797956804, -0.043801347551136585
0.03869990709099369, 0.1428187389677893, -0.04858850647724232
0.041318403378754295, 0.14516945519835633, -0.04506834870170644
0.04135490738716883, 0.13099586210706438, -0.050709517628661535
0.045442896528202076, 0.1304616205188074, -0.047412340096902233
0.04091487045576641, 0.1318081290604869, -0.050785067864541386
0.043820023762916493, 0.13263120556238275, -0.04799673487411629
0.04566679527386654, 0.1545195577242908, -0.03465594361798184
0.04526387029224837, 0.15268311933856085, -0.036298320436747473
0.04443224436951578, 0.1499435873447053, -0.0390180417521195
0.04387569548377179, 0.14983657335002679, -0.03973728014419739
0.046039146223683804, 0.14282159102751027, -0.04168007290828085
0.045810070242488926, 0.15131312868425442, -0.03653305787582568
0.04807070503198957, 0.1450726955590067, -0.037868266795812844
0.051347990281751445, 0.1297436760103908, -0.04115021092726817
0.05002609397182863, 0.13823470426817303, -0.03902030002504856
0.05263999523396734, 0.13073952620199752, -0.039207809929275986
0.05183164731191295, 0.1346318921662792, -0.03846816055765476
0.04979926105531837, 0.13893278034022766, -0.03898339888523601
0.04741573148883496, 0.1522216215675719, -0.03398410307798082
0.04870957728340376, 0.15425913003319897, -0.03025325345076341
0.0503366347438858, 0.1503186087822143, -0.03072286627501957
0.04752428805975331, 0.16316390681531812, -0.023362887314022793
0.04970237769855219, 0.1597619668413739, -0.02269207699977801
0.049598416912648435, 0.16050510775388685, -0.021942162478497017
0.042120162462842684, 0.16503346115723488, -0.030570809289676627
0.04476849065837829, 0.1598715626147027, -0.03134459497465139
0.04836448703114235, 0.15596090725260178, -0.029333961928602062
0.05125940372257114, 0.14372187652091042, -0.03445126504926647
0.05109659643447554, 0.1521078444115152, -0.028061235012323063
0.05127681302949739, 0.14583250939622275, -0.032747600744624884
0.05549577595877377, 0.14737812022111427, -0.023305578930382657
0.05670761310130876, 0.14715031926369995, -0.020630363957115143
0.05768773817111206, 0.144491401832112, -0.021143159445405804
0.05608105734245164, 0.14870959994648478, -0.020454470410515395
0.05063728075995974, 0.165654254407671, -0.009960036424495756
0.05098217790806338, 0.1627698144952171, -0.014907062246262058
0.05210768275027897, 0.16006885549377303, -0.016189361149939692
0.05658633438591491, 0.1530604935259607, -0.012045526575163378
0.057283644940124445, 0.14886081769530995, -0.016604656919538233
0.05659095311012921, 0.1539827995773603, -0.01038575484466743
0.060469876072786234, 0.13619565893988472, -0.021137471534609254
0.06128953143598887, 0.13279787943701063, -0.021656365938473573
0.06090741193495749, 0.13370116936386414, -0.02191432553734906
0.05797454942397218, 0.13812613338787674, -0.025735859361853467
0.054739853650887384, 0.13592811470227312, -0.033216936930625704
0.057929804351186706, 0.1299333724442367, -0.031236123757468634
0.058642642982044385, 0.13026100114971764, -0.029895056355817528
0.05620194347454256, 0.13056622997191106, -0.03371778689718137
0.055058054555485514, 0.14476095227561758, -0.027191481539672723
0.052525501020053086, 0.15410064342933483, -0.023195820666203924
0.05310176828999884, 0.15175802502721275, -0.024340169393447096
0.05484687670207775, 0.14499901565442613, -0.027443130745108308
0.009124095690868916, 0.12774578585133517, 0.06570760574259495
0.0003579404836532226, 0.11772383615808024, 0.06768129820701682
0.007069680766627129, 0.12666727835046088, 0.06600798945858055
0.0012079420612570407, 0.11831639839534973, 0.06753833374532577
0.012861570527342114, 0.13059571719225677, 0.06430252609511894
0.01608239943155659, 0.13014921470059038, 0.06366010919208537
0.01622364814466842, 0.13015120547846298, 0.06362569544247607
0.017663944627493128, 0.13440148840198587, 0.062051065650411213
0.015601870256276879, 0.11941102879826468, 0.0654497587840558
0.019856084745002858, 0.11278690096193773, 0.06529750179367493
0.01719739430230644, 0.11376636929855276, 0.06580624605317364
0.01702223196128512, 0.11785976636274875, 0.06531250481598148
0.01726493099771824, 0.11776008751733902, 0.06526740776738092
0.0017837230403880537, 0.10292037143713884, 0.0683562897711297
0.0006721007459000809, 0.0986684279195298, 0.06850808079045506
0.0028881959498009376, 0.10881225152956012, 0.0681804729362267
0.000429623787379482, 0.10174703659504278, 0.0684811168585475
0.006120628857026313, 0.1068965402372501, 0.0679532215955253
0.014208112801134525, 0.12322185583337325, 0.06528492234834876
0.017900892668402786, 0.12636858688252162, 0.06398845445961263
0.01193447357296717, 0.1152368986505532, 0.06687460504987364
0.015341629943705998, 0.12300752539166857, 0.0650414244971189
0.0113791301564515, 0.11880844035643293, 0.0665402304131383
0.029138735606533482, 0.12868222017604047, 0.05943947381618308
0.028842499143659838, 0.138264351185723, 0.05664385986813539
0.028059651110375693, 0.13229751960530556, 0.05878593022018779
0.02470045324941133, 0.13332202174514704, 0.059867243959667776
0.026734185407576373, 0.12340650800253625, 0.0612025012291914
0.021467879698228377, 0.12509927865769152, 0.06315366296295921
0.02365961518529636, 0.11733760775733841, 0.0633139857521548
0.028358911058054524, 0.12673262671283658, 0.06007030274438782
0.03475618133089312, 0.13510073307492054, 0.05407056639564294
0.0348757809044148, 0.13563125900171083, 0.05382235798107318
0.03762729566253916, 0.13226703178169513, 0.05324779599646804
0.03261982969367382, 0.13007160591014788, 0.05703718427153523
0.03545456298944174, 0.1386893844235879, 0.05245932242850245
0.011897592051597518, 0.1040485324059856, 0.06734827801050484
0.012111366137456397, 0.10591337941466641, 0.0672684026073283
0.012379783827691528, 0.1069046639982476, 0.06718886322020182
0.011169387859287293, 0.10950296449071786, 0.06743889503260407
0.02302548471866965, 0.11448235061195494, 0.06397042408897366
0.026326295670240207, 0.11940539280329475, 0.06192297924804951
0.026939284275810695, 0.11668663297799023, 0.06204332561243688
0.024980376067997866, 0.11542978394201676, 0.06302902433186985
0.02410060206952196, 0.11764992636994444, 0.06308803826707834
0.024930181793344358, 0.11207968975378976, 0.06343585689843433
0.023394317478564342, 0.10325871880601331, 0.06421565494532248
0.024942214584759786, 0.10761758661839302, 0.06350307423515303
0.0245542634423807, 0.11087426534392955, 0.06361128870007635
0.02545853938582947, 0.11251975876838341, 0.06320958116183663
0.03638526140888079, 0.1139731636672786, 0.05742742476885794
0.03573309655953691, 0.12054159905362097, 0.056846489016118315
0.03986446212366843, 0.11398017699040788, 0.055296650726842145
0.03821077989873252, 0.12027273874566308, 0.05536994110924365
0.03586558457190766, 0.12041288685392343, 0.056784595481446806
0.0449975086321033, 0.1302513932834844, 0.04787092114387341
0.04191908954632671, 0.13335173966267314, 0.04935519524066496
0.041040157107483044, 0.1297429308064893, 0.05144235757815115
0.04109638665605036, 0.1289598689409761, 0.051684123038085686
0.031239517744800594, 0.11415749720535646, 0.060549787178432575
0.03217304054088916, 0.12489873785663241, 0.05837551863886187
0.035954798708718844, 0.12551495051907743, 0.055968646221339645
0.03130458779303557, 0.12213798471655134, 0.05931908887677913
0.03468482556121671, 0.12345451973145931, 0.05705349455350638
0.04237495161957611, 0.1212058629152584, 0.051992743435690256
0.04085649497253728, 0.12314489498754208, 0.05296623731227998
0.04147106372385481, 0.11785019666128506, 0.0533273733224663
0.04063311214070262, 0.12257559659019811, 0.05325253631013391
0.050910244614656486, 0.12060602182130307, 0.043758621688923235
0.048532995441733576, 0.11645150507641655, 0.04735296989880368
0.051215176721307, 0.11357367634983079, 0.044779269431950486
0.051155892900275945, 0.11967541513231406, 0.04365355232851985
0.04934066240567287, 0.11768127406084722, 0.04616738662845646
0.03507688292960241, 0.10737394412103385, 0.05851148898263353
0.03815219307598477, 0.11231059552362013, 0.056542476646259686
0.03271287588552962, 0.09994600839180337, 0.060088752259468685
0.03860060694314586, 0.11113159334184282, 0.05628865148294054
0.03268997802854473, 0.10370295161991801, 0.0600369252390688
0.04561180071671089, 0.12143529541587511, 0.04918707013599453
0.043958999943662924, 0.11729424593373483, 0.051293469276094156
0.04546803218426722, 0.12305663846655489, 0.049038500712519244
0.04317594173853017, 0.11337253614219306, 0.05261958004527979
0.04371336008083182, 0.10786584272983288, 0.05236762589663695
0.0425622249069679, 0.11038558603670602, 0.053302204084776914
0.042495292392921484, 0.11005173774289913, 0.053365991466176155
0.04513179701399216, 0.10885623372661324, 0.05113549677678764
0.04020091301579147, 0.11043824707131329, 0.055319905222038404
0.050078807184526335, 0.09857166833919309, 0.046604371704410646
0.05389903390219515, 0.09869022886195152, 0.042133150131978256
0.05011041187189988, 0.10539587698209547, 0.04641043143503228
0.054504756619074696, 0.09655547543654303, 0.04147374443120316
0.0500812899472626, 0.10281885054429657, 0.04650377268794522
0.054606410533531456, 0.13929719884279612, 0.03161944060633819
0.05528903988671312, 0.14088553693592953, 0.029648356886093963
0.05151541356488769, 0.14242927294907054, 0.034981239929617255
0.055857396315912765, 0.13508343321201133, 0.031846456369763174
0.06218494587678769, 0.118097509587284, 0.026129151754869094
0.06321475599852341, 0.11553971796809044, 0.024496043299140097
0.06108603013794148, 0.11559433254200885, 0.029610027743653587
0.06163253303318418, 0.11470734676430916, 0.028587109216607468
0.06198220509998893, 0.11410836923632398, 0.027943057315053352
0.04850359364381959, 0.14263059575504364, 0.03889798464922669
0.04984822732561312, 0.13934286319991732, 0.038748574106374216
0.05016928415833789, 0.13795313336109033, 0.03897470873894503
0.04716814023574443, 0.14079044106823763, 0.041256734971721505
0.05694781428625559, 0.11593811024039524, 0.03668974859230873
0.055273883641646614, 0.12038136448355477, 0.03834119854359379
0.05585214320081905, 0.12084909179818731, 0.037282513728950376
0.056031311824602116, 0.11538635532508124, 0.03832148286150808
0.06190337480285564, 0.10527230878282734, 0.028890381089224412
0.06246962416346616, 0.10324054531824897, 0.027604483125511475
0.061596671477846116, 0.10702414843211963, 0.029561460954592726
0.06158648205705834, 0.09842941052083026, 0.02992136792712442
0.061966283723755775, 0.10304311688158688, 0.028825690366990474
0.05905069807876773, 0.11747315867695175, 0.032880198275216474
0.05787377533708659, 0.1265036629129804, 0.03260146696836791
0.055868606161200624, 0.12455964653947524, 0.036351086924082836
0.05679118342630261, 0.12442872587217475, 0.034875844687322965
0.05747728382248528, 0.1253804011117987, 0.033523011922385985
0.05710578848733616, 0.0989281098647909, 0.037615099513377506
0.05658112979445895, 0.10175393044789958, 0.0383912905156831
0.055988316377328616, 0.10447921901410406, 0.03928169998045851
0.05670007869005898, 0.10175344365371092, 0.038196985299977504
0.055658437159569654, 0.09944152282810523, 0.03996484394464939
0.05164451790669025, 0.12341288225137967, 0.042350009756213704
0.05315267761523962, 0.12533376185145695, 0.04020971082805998
0.05362587449202233, 0.11686636237199707, 0.04131459255573058
0.05258152563268691, 0.12731819061292268, 0.040489125061942716
0.06267118317091867, 0.13944281420826513, 0.007155933711901527
0.06475809289125659, 0.13354050532255854, 0.001837396374331077
0.06305940314587649, 0.13859720805030953, 0.005267147181006728
0.06209771659149065, 0.14146991162617079, 0.007173457011692225
0.06792892486818311, 0.11537759098163095, 0.001013087553926622
0.066396573057184, 0.1274630730351628, 0.0008795920263643413
0.0666546932747923, 0.12478330943448893, 0.001940286133985886
0.06607289144136802, 0.12732203975405468, 0.0051942531088127325
0.0658374206170331, 0.12725401557327368, 0.008277330393636198
0.06166054175372598, 0.13982750823835466, 0.012741537610759992
0.06302328205160357, 0.13552363841390502, 0.012250437241116822
0.06313725090492661, 0.13568799049529573, 0.011576238351062286
0.06157637191793453, 0.13862486602642593, 0.014545168186248826
0.06705560219484093, 0.11985500615350901, 0.0048228389746412794
0.06779379203919508, 0.114091755475724, 0.0047924019933689496
0.0668347557622055, 0.12101811472832048, 0.005736506338989048
0.06718580555033177, 0.11813039739682833, 0.0059589738991396544
0.06542890237147225, 0.11764063695164366, 0.016655919383125217
0.06449576123436275, 0.12195003626759114, 0.01819692642055707
0.06478246663119958, 0.11990066520410705, 0.01811969118698395
0.0664650356547406, 0.11600781762635633, 0.013222799948825026
0.06586446423080414, 0.11794655329511927, 0.014670640559936951
0.05941762809137502, 0.13841942092807674, 0.022041341390048645
0.0597327023593604, 0.14089163931552046, 0.019466362448444154
0.05718627161243898, 0.14084327637755073, 0.025641067839596854
0.058453126825524664, 0.1378198187944035, 0.0248069501187266
0.0676633179166827, 0.1095955455608416, 0.009269760091746748
0.0677092552282726, 0.10802668543299641, 0.008986765551531503
0.06787568613040806, 0.09721900812225141, 0.008931705183950311
0.06771023045159642, 0.1006429271956186, 0.010372647769133502
0.06819956307395178, 0.10030077207898964, 0.00425836662454299
0.064756230913547, 0.12357408027431258, 0.016222455918843977
0.06522306221171517, 0.12333070009740453, 0.014406733974917447
0.06570283878096264, 0.12696790507184957, 0.010417065345426357
0.06662375258714093, 0.11624458572599278, 0.012430928102659436
0.06676738936606669, 0.11726505954125065, 0.011273879591826783
0.06191638799931974, 0.12292147206355815, 0.02517418413989356
0.061894547561355595, 0.12383044248959024, 0.024924896040153726
0.0641339414086316, 0.11911430161901462, 0.021092577609322996
0.0634236210526048, 0.11976425440471597, 0.02258917970753255
0.06565803022176657, 0.10421322341027447, 0.018942459268578724
0.06577056387733479, 0.10505632485499079, 0.018418622622401338
0.06568085782622225, 0.10065558537865846, 0.01907543151142742
0.06626862871905088, 0.09673994218509353, 0.016873163383695173
0.06641149743321359, 0.09691841255608441, 0.016265343980843717
0.0657002131899914, 0.12505185874439328, -0.011474736523101887
0.06587029078681231, 0.11367671414666883, -0.01697895406441778
0.06568944112143518, 0.12699765562068624, -0.010456725989617235
0.06550397658388316, 0.1174758235460761, -0.016432618147071358
0.06607528702328404, 0.11341741722507982, -0.01626489768396544
0.06241168840058913, 0.1414108459534996, -0.003419255121063995
0.06373259906957954, 0.13507148117509993, -0.00933098582546842
0.06473733942596184, 0.13155583018206632, -0.009172257747269146
0.0635333024637297, 0.13672231797086074, -0.005964501883726676
0.06702177565255571, 0.12038072529542983, -0.004402562388401767
0.06709110811757202, 0.12005381465853114, -0.004054073364241265
0.06777376243536767, 0.11656439650651072, -0.001059110495948829
0.06712990488487582, 0.12110750267531795, -0.0018654119152894774
0.06619930782596681, 0.10152437899249933, -0.016855616461486863
0.0659241460207554, 0.09923778692900917, -0.018150933952181657
0.06649845487587286, 0.09672670522686616, -0.015914727420676785
0.06692097221552763, 0.10515802530000362, -0.013610040975323898
0.06595123182056004, 0.09826594993432611, -0.018100226478361247
0.06601317080258548, 0.12581575344529528, -0.008376768025911556
0.06697966929075892, 0.11955965489830789, -0.006257989470225131
0.06643761428657188, 0.12167533317529822, -0.009692058048149753
0.06581780756256836, 0.1265652745511489, -0.009635398517969483
0.066631754503653, 0.12073989139333334, -0.008748604840716222
0.0682422523714397, 0.10625347265657545, -0.002592112779731722
0.06822359178619163, 0.10640980570769168, -0.002798151021158269
0.0682791783627207, 0.10866530799855267, -0.0016691085944456113
0.06817446489509907, 0.10582445172007998, -0.0035293587649112283
0.06828936382232723, 0.10170292569764114, -0.0028589017457405783
0.05794057469913897, 0.1173576352902268, -0.034721922532079924
0.05839764921575203, 0.12537960889918512, -0.032019688628740745
0.05922098175957413, 0.12083950016355607, -0.03178141903026425
0.05885019430506186, 0.12698396087070862, -0.03088929705999227
0.060682891740123354, 0.14052949311014135, -0.015974895141105633
0.061922005895238524, 0.13685680665810196, -0.015237618725793082
0.06169359613757633, 0.13688820447014813, -0.016153154916896922
0.06126730669179851, 0.13803829374933824, -0.016543760626930495
0.06082300291447847, 0.12963908583822953, -0.025100623895496887
0.06107187908556276, 0.12895044577917283, -0.025006281963182848
0.05993811521528994, 0.133426353883767, -0.024452985040469985
0.05905091043479711, 0.13164605168335902, -0.027899220354977432
0.061114143232749704, 0.128998238960553, -0.024869293061691083
0.06182725387202398, 0.11548558772672625, -0.02785919178673664
0.06371790385438424, 0.11615030642475302, -0.023080209528203582
0.06318494832320073, 0.12198508043513218, -0.022426923303423652
0.061898657995724735, 0.11937790712080333, -0.02639409537152326
0.060289009876612454, 0.12508329483966438, -0.028379560054657686
0.06032628342555529, 0.12639427563876404, -0.027854214452964907
0.06026740380314501, 0.12531620390710665, -0.02835428193485674
0.060788919863461494, 0.1237652397366639, -0.027612164672842644
0.06222298088632769, 0.12635653724413637, -0.023294019661798084
0.059986808890606896, 0.10591120455285896, -0.032708638255877
0.059481656898872144, 0.0983138825676507, -0.03375139360477236
0.06026382534051412, 0.11068893106065499, -0.03211930212537195
0.05791963462291373, 0.09830720650653552, -0.03630336920565323
0.058508379428342604, 0.10133144750230019, -0.035254984535514775
0.06387843647286308, 0.12323798440989853, -0.02007031435805576
0.06498570975114051, 0.12832060870973833, -0.012671599540818285
0.0654217622310698, 0.12781931905451918, -0.011125224005014651
0.063887114647744, 0.1240574043458759, -0.01958644677554596
0.06193235545241991, 0.09695822934456146, -0.029144926237331528
0.06454407888634499, 0.10386598437900636, -0.022578815919861155
0.06179450440967168, 0.09919843303114954, -0.029389864187676865
0.06300729602380853, 0.09966091099183903, -0.026447907097058302
0.06492953797652443, 0.10760253732849387, -0.021503725117519287
0.04927384060154921, 0.13830609859461315, -0.039869298966729375
0.045367908807931796, 0.13984696828348347, -0.04377093093312902
0.04822653830299998, 0.14101428307030345, -0.03992182963531454
0.04792963872766568, 0.13285331399020683, -0.043802352214277564
0.042023152880581977, 0.11368336644981447, -0.05355306309901435
0.04406659382015357, 0.11304184335944936, -0.051913496047431354
0.043626980302002356, 0.11324743978784693, -0.05225490648925473
0.04366117861333559, 0.12047924426474485, -0.05101477741619288
0.04628141991964152, 0.11953587985556041, -0.04893263103228929
0.054737480522729504, 0.11598296694311896, -0.04018737049377616
0.051145424514251955, 0.11557311217815307, -0.04446925213848054
0.0507300531376513, 0.11452591690049067, -0.04516020807389322
0.05413579698313646, 0.12093021348472216, -0.03992221503695492
0.053285271389662534, 0.14067795059379812, -0.03303366355528551
0.05255950703277951, 0.1339494988993595, -0.03784506948110475
0.05400739998336152, 0.13341360258454035, -0.03576850231335197
0.0534726605112288, 0.13777834085201143, -0.03429004966971355
0.04667362333931741, 0.10413638707981099, -0.04991016014398952
0.04541675892749954, 0.09737112264070832, -0.051117729457807085
0.04250497671513841, 0.09967257646349696, -0.05356182163184386
0.042085646046694535, 0.09857813245891317, -0.05394184083788317
0.044996668241608036, 0.10138374693921665, -0.051397962787304054
0.04992103959414274, 0.12641931892814023, -0.04377713564672428
0.049984235933637586, 0.12261461217090144, -0.044448381668396916
0.05028651549748453, 0.126609195018895, -0.04331245146434616
0.04709887404473884, 0.1269872788131454, -0.046966978181807895
0.04799484022685025, 0.12446419205879355, -0.04641312522720854
0.054817804133556615, 0.09812853281170342, -0.04107139955040057
0.053855788660450314, 0.09803985921484566, -0.042198701348221325
0.05446425532335138, 0.10031353197040942, -0.04143467770368588
0.05454760786955984, 0.10164758358627195, -0.04130649152653823
0.053035366223417806, 0.10347047810027848, -0.04303341361416218
0.05552926416014063, 0.12416901151001558, -0.0370006916604088
0.05475125982380655, 0.12490481316065305, -0.03809229713879929
0.05814123373901994, 0.12553206946627365, -0.032401411908109516
0.055741689416901316, 0.12435835334507281, -0.0366075100192789
0.02911667393402277, 0.14059779317117, -0.055709434762911625
0.03577472042825655, 0.142291555061431, -0.05107511939618613
0.03365683104761872, 0.1411403373502769, -0.05275128835205391
0.03497699782751819, 0.1401261320125416, -0.05227771174411354
0.029255418552657304, 0.12490598793955988, -0.05995011264454182
0.02306552073122036, 0.11552193293502477, -0.06381055637701606
0.027199911120101568, 0.12143288813849865, -0.061281241907449796
0.026165341405552208, 0.1200829673594402, -0.06189636249705005
0.02930793659702388, 0.12430109605227833, -0.0600116732514266
0.037787460120187216, 0.1220682153096897, -0.05536113087980857
0.039798058224248645, 0.11586762964773425, -0.05505563162674343
0.03324952100072859, 0.11359316956183264, -0.05940358814914626
0.037698275664556566, 0.1128565063280755, -0.056790292600218006
0.035164441894957245, 0.12054033540425774, -0.057194751329927185
0.039444426292757705, 0.13567931736615724, -0.050609324830878884
0.04339351172361148, 0.141499864760656, -0.045078776258651025
0.03789868496184924, 0.1366544847002386, -0.05156987156068967
0.03982530706140737, 0.14119762531528748, -0.04824118547711378
0.03424580099471405, 0.12225669500624138, -0.05750096110925608
0.03301785800671733, 0.11894637738045713, -0.05874658891706499
0.03257967243001074, 0.11739629243960052, -0.05924612002411406
0.031082746394719626, 0.1270289798527112, -0.05872503180857566
0.02710384534876157, 0.09967915122873405, -0.06273491051606075
0.030389618649541685, 0.10906244222950845, -0.0612201705398023
0.026205197446847427, 0.09800715377034919, -0.0631347137354044
0.030133523773663108, 0.10281978063299807, -0.06142742345475426
0.022256568813401753, 0.09646716823999221, -0.06479746180974584
0.04012586343872657, 0.12002861484239125, -0.054112654863241155
0.041608685496712684, 0.12283398570984277, -0.05237522579036266
0.03981098445752619, 0.1204962285568385, -0.05430355542180447
0.04019685449495111, 0.12704519159822375, -0.05287711199268606
0.040170589737513626, 0.11724418611584149, -0.05454064018377612
0.03257593138306765, 0.09655748966961897, -0.060231960322731995
0.03938643018883412, 0.10649095604998837, -0.05588893957530726
0.039955172327795885, 0.10776759103562322, -0.055518419367160406
0.03579262448529643, 0.10346934878122058, -0.05814177897036822
0.03949172815451857, 0.09962055235512118, -0.0559449006776198
0.003247896938590702, 0.1303651362515535, -0.06554253016417425
0.00021877162725007077, 0.13710639607843342, -0.06387992555036062
0.002717153989428822, 0.13497408631749225, -0.06428384312148563
0.0016228604949043602, 0.14020327538046395, -0.06289474400389693
0.014719002356011224, 0.14003375130007276, -0.06112715559368627
0.011183080828094355, 0.1405991266836496, -0.06181065901569763
0.016504553387208805, 0.13962062059486996, -0.060818926581328064
0.0116266946307551, 0.1348444901280481, -0.06336917928070943
0.022374726853843403, 0.1369837710243181, -0.05971662629254833
0.021649058018155712, 0.1402127130557771, -0.059034170062815236
0.022215284655819546, 0.13981537069262695, -0.058920329074144816
0.025759007778727583, 0.142310459913978, -0.05669051487157069
0.01852452321315712, 0.11571365787790712, -0.06523343967658254
0.019052659278416175, 0.12527761362693907, -0.06385526654983882
0.012015268743551844, 0.11378693995629813, -0.06704497763477825
0.019950621687904915, 0.11807471876239971, -0.06458280143513578
0.0037811986610099438, 0.11502473111811386, -0.0677547674283648
0.005567815082435807, 0.11443840394128214, -0.06768814005410129
0.0016316894648830047, 0.11839470097236912, -0.06749475247760683
0.007829150050297343, 0.1165876408807747, -0.06723467799006405
0.0026253631440761728, 0.11923531381343183, -0.06730874481877643
0.017167109492927376, 0.12549362830198513, -0.06427870659689065
0.011027668265492802, 0.12723662646146222, -0.06552138756569223
0.011967081836778456, 0.12584135765818802, -0.06547893898414434
0.011136720565342283, 0.12467452856781329, -0.06583056874931079
0.016524708452790183, 0.12632945514704147, -0.06432321675874728
0.021458002947660305, 0.12228702417772276, -0.06354520521990122
0.023216669643339183, 0.12643303676791495, -0.06224448385205499
0.026036871033492434, 0.12817319386297615, -0.060834944507363736
0.021932023997966336, 0.1274357559565143, -0.0626391747204259
0.017570034292611038, 0.10087126114986592, -0.06603818203283965
0.018037912517081343, 0.0967835716601907, -0.06598892725323971
0.01781303630446021, 0.10330560785894087, -0.06594254897815358
0.020469249248094862, 0.10764541941253762, -0.06523950797980538
0.017039552573701534, 0.10318760399273348, -0.0661296618317567
-0.004588676429662775, 0.12878952643337993, -0.06588101214408947
-0.007936772009513395, 0.13577531064372123, -0.06364436416163533
-0.002730654542068449, 0.12893265769054663, -0.06598776011332728
-0.0034488731062511943, 0.12936027681556317, -0.06581020124056516
0.003733134264830817, 0.12560254521392414, -0.06640812906690588
0.0087985891128262, 0.118205788738073, -0.06695131870544657
0.010317341446302548, 0.12402204953191187, -0.0660884881469061
0.007984526420826532, 0.12835990588630955, -0.06571942016394203
0.006964421367569865, 0.1254887220483314, -0.06616676634161342
-0.0182120798029304, 0.13031662839840277, -0.06310143595496459
-0.0164528833032141, 0.13469279209763171, -0.06225688627741123
-0.01753991037760398, 0.13156767930898727, -0.06290054462692332
-0.017010135133300377, 0.1340981084298292, -0.062295425574931874
-0.0014960852147873408, 0.12440768483688029, -0.06673782684188595
-0.0013992737096144635, 0.12404186070211451, -0.0667921973497001
-0.003976147815754284, 0.12821927211019854, -0.06605480916083051
-0.0030396812053068117, 0.12822519868610632, -0.0661282139458848
-0.002089252733907043, 0.11678876071623658, -0.06766353875682059
0.0035944272129548056, 0.10968138446965497, -0.06811147572541916
0.0057969318696098945, 0.1101917955113389, -0.06792940589321868
0.008085038899332455, 0.10847295225718728, -0.06777398458260157
0.004978722795295264, 0.10610423346525498, -0.06805549229710078
0.006161168471255723, 0.10685956535897215, -0.06795052835355156
-0.007374630396320192, 0.11471591817614954, -0.06750962551290668
-0.009632956282315636, 0.11568930759014057, -0.0672065169411806
-0.010065845412771855, 0.12536811841943582, -0.06593655242326536
-0.006298274647729895, 0.11353197473720736, -0.06774601503645694
-0.016673396684190447, 0.12099957188311103, -0.06498511786316061
-0.014830225740853988, 0.11893135757731063, -0.0656973493491822
-0.01880491407030141, 0.11937202915158797, -0.0646874786382558
-0.020691318460341557, 0.11829585601653354, -0.06437640139084229
-0.015245982805094559, 0.11455690157290191, -0.06617024090998913
-9.216041879383332e-05, 0.10233128833066066, -0.0684990336819064
-0.004162520630328508, 0.10613831850674418, -0.06811961610268807
-0.004748580801647704, 0.11142756464295, -0.06799389490014085
-0.008758258777973047, 0.11033254863101181, -0.06769278784398292
-0.0001531059813178705, 0.10085563237399603, -0.06851633453350331
-0.02797159227400212, 0.13264609543813316, -0.05871626269509148
-0.0282388370598907, 0.1375491932188601, -0.057112050034287425
-0.02257841977555683, 0.1292295053729025, -0.0619938667845919
-0.02612427237250242, 0.13773349639210092, -0.05793300035489073
-0.013691174359193259, 0.12045880505800781, -0.06577032724149245
-0.013214274721303779, 0.12525434782260844, -0.06525697480496306
-0.012114938908348366, 0.12655596134543823, -0.06534999348825093
-0.011253821968472077, 0.12711424218396591, -0.06548322437214706
-0.010955842463564718, 0.11975973148320364, -0.0665171079824074
-0.033696827244188876, 0.13111469876131263, -0.05603383206476759
-0.0369260722695868, 0.13639856912080922, -0.052314184053615015
-0.031023563468172113, 0.12895385306269047, -0.05838298962828732
-0.037150729365542444, 0.13305661116329198, -0.053279040064880046
-0.02402362973839756, 0.12803940015270618, -0.06168842533996355
-0.0215397496329514, 0.1238372972039943, -0.06329767957331882
-0.02470679226244132, 0.12741903271040414, -0.061490538360941455
-0.025697316728888368, 0.1242395511577428, -0.061517768898883315
-0.02415365674436922, 0.11456298917764043, -0.06349133028509812
-0.026688934162970572, 0.11759006986024201, -0.06202265672350912
-0.028580413248340448, 0.12543529564773306, -0.060157155752885466
-0.024012307975063426, 0.1145506071809555, -0.06355166538764508
-0.02773018957542541, 0.11579989862525687, -0.06183741893484727
-0.0188700032341088, 0.10923459539705041, -0.06559819156782189
-0.01999588802795082, 0.1125761526667046, -0.06527710468727044
-0.013012575126464103, 0.1036129329384133, -0.06708784197870525
-0.010728219615830127, 0.09893998857897765, -0.06770692367385446
-0.012402143496189413, 0.11086790970003498, -0.06712256348738839
-0.036249471992735385, 0.11915934966894695, -0.056736631403252115
-0.036543491305079855, 0.12140906919426235, -0.056220950123369584
-0.035009892442056045, 0.1168810121839143, -0.05783539162644317
-0.03739885120298377, 0.11585724706317645, -0.05652579712212892
-0.03720679700382874, 0.1183729801312163, -0.056267963007491595
-0.023741313895135632, 0.11244967847940884, -0.06392295626653298
-0.023875691809163727, 0.10876407342205244, -0.06392687028532835
-0.024836643751053194, 0.10285160030763862, -0.06362397745039432
-0.027722480916353178, 0.10771843796951608, -0.06234821140190879
-0.02204159729988675, 0.10437749693299975, -0.06475861836126331
-0.042448789561903594, 0.12981458973245621, -0.050211539993493606
-0.0452397228375289, 0.1292426367908022, -0.04803720332632281
-0.04561313266279446, 0.12973296105457446, -0.04753647977667049
-0.0409706416533275, 0.13039617670592696, -0.051259978621044776
-0.03454973153492138, 0.1205256208598884, -0.057573222424612665
-0.034304828090841136, 0.12409123813930636, -0.057191068151471
-0.0319171928132556, 0.1196792604424923, -0.05931097159580942
-0.032297300674866775, 0.11672909371829131, -0.05951852482023222
-0.04815452426071663, 0.12031209991162867, -0.047039531545601476
-0.05494506193896882, 0.11316936011315261, -0.04049559234910372
-0.05320436758193995, 0.11560312969593789, -0.04205501372296229
-0.04707272020485907, 0.12788295762378338, -0.04682212617058758
-0.04809043164234687, 0.11638438927131053, -0.04788376198212359
-0.040891946468944444, 0.12413143654030072, -0.05277072011882815
-0.045238486347245734, 0.12716660680222855, -0.04854655072301932
-0.03939793878308288, 0.12520301667097516, -0.05386855902262751
-0.043825338252236994, 0.12182892251578459, -0.05064842342527173
-0.04175295219406675, 0.1277618102451542, -0.05142675821619011
-0.0355257209477714, 0.10720645068895418, -0.05823964324826732
-0.03843430353389932, 0.109601595149595, -0.05641722709914266
-0.03235800632864422, 0.09994179328152375, -0.0603060249223513
-0.032469789867168926, 0.10594172664127238, -0.060132444707665135
-0.045310454677126064, 0.11457292630390989, -0.05059371404609597
-0.04375962389013176, 0.11445303629116425, -0.051939626468645625
-0.046716571249721006, 0.12147493791527764, -0.04823591794070438
-0.04603584894192719, 0.11877393794326553, -0.04927013902219128
-0.04527697932185379, 0.11736093189697791, -0.05015550733647768
-0.05098756506950812, 0.10481161723017196, -0.04539784795559352
-0.04967583990559237, 0.10476752987005175, -0.046933181785851354
-0.05340903818091798, 0.0985745326502924, -0.042708932957510826
-0.049154013569030666, 0.09857883375987302, -0.047685919306273764
-0.050667778939855294, 0.10224276065192803, -0.04583099223827884
-0.044604469671106206, 0.1084445874803987, -0.05159439199411353
-0.04025743444219451, 0.10927032929855045, -0.0552945238971881
-0.04385504809242127, 0.10821871590163336, -0.05223953062935266
-0.04263645570345651, 0.10332724681559058, -0.05337753365611472
-0.043993217575889525, 0.10657990579013818, -0.05215363782517386
-0.053972236257793155, 0.13965552939884077, -0.032462345039232565
-0.05518187835033688, 0.1404979885557287, -0.030032240808927902
-0.05436197398989546, 0.13966527714159901, -0.03182039957698875
-0.05190336805578499, 0.14256504665561637, -0.03427427385364711
-0.06339640282149886, 0.11649420010219542, -0.023741050830919853
-0.062345995537327406, 0.1128162940323633, -0.02749517706872939
-0.0597670387764767, 0.12433209652724914, -0.029887463747164375
-0.06263063560969964, 0.11779370923740812, -0.025155560910361727
-0.061736164889532194, 0.11770763448049264, -0.027340619129491622
-0.048078030044748234, 0.1385184394212516, -0.04117606099053986
-0.049281914576974915, 0.14226909412833347, -0.038144066547475965
-0.051532795426222036, 0.13282904697843068, -0.03959823594637064
-0.050562782876118116, 0.139335258377489, -0.037916030466953174
-0.05725583481553594, 0.11998636362139631, -0.03519968231796573
-0.056561300559584846, 0.11292149470633105, -0.03805651756674521
-0.05751701952031625, 0.11410063454599387, -0.036207775519511314
-0.05834471000559895, 0.117640016332568, -0.03399282540376583
-0.061046373093064224, 0.10435903409395514, -0.03099213535247417
-0.06176329880558473, 0.10421970438549888, -0.029269143923330965
-0.06139316843924333, 0.10153311645105945, -0.030266311718616302
-0.062227823322638154, 0.10121446584696278, -0.028266485128531967
-0.06337399534745182, 0.10070239118731125, -0.025523172512090492
-0.057724222931069796, 0.12021382949839382, -0.03437905574075735
-0.05826484097103085, 0.1244572524430601, -0.03246146120737639
-0.055943583333609825, 0.12459175589004193, -0.03622076576138317
-0.05580581285981645, 0.12798472145315337, -0.03561872817541267
-0.05570465651798354, 0.12581869475498636, -0.036311994097476985
-0.049492855316396876, 0.1263194654147532, -0.04429752028576903
-0.04912862017633372, 0.12616574120198332, -0.04475367182408859
-0.047771114590002335, 0.12836619619322315, -0.045910573242740955
-0.05115448247503854, 0.1208266987650796, -0.0434296995838761
-0.05757392759640785, 0.09869991883325338, -0.036856841006277195
-0.056989308385401685, 0.09638697538108497, -0.03787812247084208
-0.056011326906153784, 0.10890145407220159, -0.039117470784231424
-0.0598521047102851, 0.0972299832914005, -0.03317721145937111
-0.055995541952270064, 0.1100232582285865, -0.03911113773407756
-0.06713974410483273, 0.1187673444601772, -0.005513959745330971
-0.06711660799080463, 0.11732097639241552, -0.008137916215111802
-0.06812210462166883, 0.1135747877514324, -0.0014802824983762264
-0.06617747195454535, 0.12369009681431006, -0.009728938416427088
-0.06737679135477004, 0.11541478235419983, -0.007925508713184098
-0.060807176102217114, 0.14107208863802864, -0.014800802964111745
-0.061812021175742735, 0.1409146214540437, -0.010796470650576866
-0.06218729368755012, 0.137501249016718, -0.013351943036930165
-0.06013030508818129, 0.14239790170538283, -0.01602520076004822
-0.05742271479065204, 0.14217275914872002, -0.02409479382943689
-0.06058640649836116, 0.13384840487892974, -0.02258005825942792
-0.05934491027873039, 0.14178678071870532, -0.01974402135240819
-0.061176154852353615, 0.13499014243731058, -0.020319864477495064
-0.06470024816320041, 0.11699253895129157, -0.02005161399547747
-0.06410872317363106, 0.1212434277879884, -0.020198576117656675
-0.06643605525337695, 0.11432880210366707, -0.014261086933782315
-0.06482678013464271, 0.12148254817763236, -0.017070596659692037
-0.06786810907076812, 0.10022309061588124, -0.008458763942940055
-0.06838903617875786, 0.09754322765009853, -0.0023880541341464957
-0.0676447001761365, 0.10898067129161244, -0.009621652432796347
-0.0680586347101702, 0.10402712429513841, -0.005332547509518133
-0.06804939863626173, 0.0971099596968796, -0.006758959321028495
-0.06428387629526183, 0.12695286929616323, -0.016348414455036746
-0.06607293915116123, 0.11857892910744469, -0.013455021901782147
-0.06545678929134498, 0.12697909959919126, -0.011438011846809242
-0.0666579604402191, 0.11882608883998164, -0.010877953516003585
-0.06510648312664147, 0.12558828689444224, -0.013660087592053598
-0.06290189766273015, 0.11904912206559103, -0.02408455585952684
-0.06328433464904563, 0.1254493232603292, -0.02103650126800403
-0.061999893007544035, 0.12162478248833483, -0.025403609959021776
-0.0647618203132202, 0.11430828569526748, -0.02117529023319051
-0.06574502078534505, 0.09794678382675018, -0.018981479544802435
-0.06621321745409109, 0.10115273136789193, -0.016821390879322464
-0.06531402462850502, 0.10484608964597872, -0.020337876389900762
-0.06629255361186812, 0.10231414296388223, -0.01641569820041143
-0.0674830170402917, 0.09651918441309032, -0.011818221261525522
-0.06567801435251704, 0.1159092644921319, 0.016561967940944243
-0.06615221244260308, 0.1128463321432593, 0.016255809004181342
-0.0660113702700661, 0.11904610387155137, 0.013456841678839183
-0.06644801994077454, 0.11705847577150494, 0.012719990144732452
-0.06539595225506727, 0.11783523426292704, 0.01668721980523765
-0.06265824014543374, 0.13874664326449454, 0.009800551292586493
-0.06497754749677237, 0.13081062754364317, 0.008794766701121694
-0.06209451923192794, 0.14087324353349825, 0.009340440383285683
-0.06207639409422032, 0.1417036574241089, 0.0066099456872174955
-0.06778749815664052, 0.11292318608887743, 0.006756172000108482
-0.06695690182499844, 0.12287477832004168, 0.0012011746051288738
-0.06766798094419733, 0.11363850382015551, 0.007112199495580009
-0.06800412459381082, 0.11329078366586587, 0.003428038280978544
-0.06673025849616607, 0.12468549277187174, 0.0011440091926665005
-0.06350530390161399, 0.1373945123815046, -0.00392269063736084
-0.06255716541857594, 0.1398188926052374, -0.007255626331713074
-0.06317413523540508, 0.13840018316895286, -0.004520638561287352
-0.061890971847217535, 0.14169110353035422, -0.008996040481716422
-0.0661186203606262, 0.09719790156504342, 0.017470080849995472
-0.06648375683233043, 0.10449077341644783, 0.01547798600738421
-0.0668270850581447, 0.10611536129331714, 0.013940602931394045
-0.06616737722209352, 0.10003490246903551, 0.017084533485114246
-0.06621625789827972, 0.10281586045810386, 0.01670206500455622
-0.06648640736705141, 0.1263662366764144, 0.0015136705944220766
-0.06650470982308197, 0.12518736108731038, 0.0031830655582377613
-0.06591861670291585, 0.12839272423229037, 0.005416429451119982
-0.067101874671106, 0.11691435715303804, 0.008979620550420925
-0.06566445143285879, 0.12782557346377615, -0.009540123303977502
-0.06778774093933512, 0.11602683227716208, -0.0017494245822902012
-0.06668286514133387, 0.12209558867256919, -0.0059176002363120475
-0.06675753461539996, 0.12386738527191962, -0.0021183795963107153
-0.06645496376613129, 0.12753539801619249, -2.580495374755429e-05
-0.06855681955934557, 0.09772230477543378, 0.00023546903238726258
-0.06843005255443131, 0.10212896400706009, 0.001001843364594525
-0.06815616557377199, 0.10319723491048756, 0.00425811917189829
-0.06831272818054354, 0.11095455453782657, 0.0008122592912814662
-0.060054531305716585, 0.11690553609591384, 0.03137868611010859
-0.05903865318746407, 0.12248092085335309, 0.03167913784104989
-0.05935811002077665, 0.12139046190101702, 0.03142308430962603
-0.05890473650287294, 0.1255114873970087, 0.03115913845570513
-0.05760709804933492, 0.11907161812789038, 0.03484888495091861
-0.05852931578937041, 0.14123342234570496, 0.022116720684719374
-0.058512944572562516, 0.14010743985249746, 0.022982997383267652
-0.05848918844734005, 0.13526800078693946, 0.026593864803878934
-0.05715173634169796, 0.14215529136130614, 0.024760981841803996
-0.06313272713014868, 0.11697465531896198, 0.02421717139715255
-0.06384119018822149, 0.11608818874307558, 0.02280361052561946
-0.0619834792349334, 0.11539921297210416, 0.027511213457076363
-0.06327182804846593, 0.12022504294544296, 0.022802100451471026
-0.061444323969744495, 0.11537470412563397, 0.02881919948104966
-0.062442316771722635, 0.13252855675795008, 0.01829248872859824
-0.061093318637554676, 0.13802875237900908, 0.017281560939048365
-0.06211496203362821, 0.13501845869595766, 0.0166521684378487
-0.060641404187112946, 0.1417038933892997, 0.014729901203983466
-0.05735499509225568, 0.09693854940001885, 0.037264981713612436
-0.05916986813346935, 0.1024561063992615, 0.03414215255692304
-0.059344202147988676, 0.1020582080766746, 0.033868747642128605
-0.059617861207190134, 0.09966598615703674, 0.03349018672923816
-0.06027070091674957, 0.10307666268985058, 0.03232602425730809
-0.06021372552749723, 0.1263902268431185, 0.028126893254964466
-0.06154941006561483, 0.12112945875304675, 0.026654232160590725
-0.061026316967074806, 0.11862395178946172, 0.02874763141856527
-0.06074750646959151, 0.12536778636304477, 0.027179642065472288
-0.06483511898871894, 0.12091522122514156, 0.017345719941590492
-0.06366033179240503, 0.1240372581678383, 0.020544074053481017
-0.06374661986183679, 0.12490982151525218, 0.01970721258933569
-0.06416126961313419, 0.12124107226621587, 0.01998054491297064
-0.0648303306198615, 0.11848691460059205, 0.018692263573950926
-0.06382897597608518, 0.09733742315820307, 0.02455762077751793
-0.06437903456899167, 0.09928195048337538, 0.023155616967130283
-0.0633354651523351, 0.10316621001208999, 0.025519985279093105
-0.06448756564321682, 0.10041660079246609, 0.022849687462134463
-0.06383677831148178, 0.10627243172058884, 0.024190172808280987
-0.04509192444487558, 0.11557227454990934, 0.0506132515107692
-0.042404072927379036, 0.11424391902320073, 0.05313357333419646
-0.047204882857195624, 0.12297231501277348, 0.04756776293258062
-0.04307442460007953, 0.11327104974097135, 0.05272337504996643
-0.04928758465741032, 0.1402088542036748, 0.03902945960892949
-0.04606501787849315, 0.13727622444068716, 0.04406853157789119
-0.04715349712207467, 0.1413711571791558, 0.04102247604431789
-0.04783852264750293, 0.13980278431077253, 0.04090022159450542
-0.05157558542102207, 0.11689282779006754, 0.04370766118101786
-0.05244481295511309, 0.11442310628693182, 0.04317463641788014
-0.05444361607707667, 0.11997722911437327, 0.039748843672341785
-0.05269088690129975, 0.11530543202970982, 0.042713997084173075
-0.051144830754931446, 0.11361604323861535, 0.04485328698708711
-0.05257899632247692, 0.14152021170174353, 0.03373362951052683
-0.05126987331957338, 0.1400278422087145, 0.036676463688432116
-0.053605191826525296, 0.1309081811867479, 0.03777570595058656
-0.05288544789464507, 0.13598493670103154, 0.03621579522924565
-0.04782829415232423, 0.10110643173526351, 0.0489826327544059
-0.04801308174441108, 0.102292015029991, 0.04880133818460512
-0.0426951822004061, 0.09767927768916511, 0.05343843321088862
-0.04393300410149875, 0.10265564093630028, 0.05228232805721316
-0.04558979170005242, 0.10474994282252055, 0.050824719830281015
-0.04852583890399173, 0.12588679954697432, 0.04551340824616313
-0.0527252175283846, 0.1278864222049786, 0.04020979066197076
-0.050648944546891644, 0.12125587272814484, 0.043937023505862594
-0.0489889105354022, 0.11563373871801436, 0.04697988073234416
-0.054901173419310445, 0.12735190661119317, 0.037250883741571574
-0.05463431537070495, 0.12367122146296496, 0.03858408783299245
-0.05727648803074309, 0.12308833896862616, 0.034409813815857185
-0.05449614378989876, 0.12592517540867443, 0.038260356567229745
-0.05799673706407964, 0.12419538398401585, 0.03296331622050256
-0.05428273253672218, 0.09680289905274406, 0.04172777995670006
-0.05214598668232609, 0.10068163473723002, 0.04413789979901717
-0.05207808701560862, 0.0990457310649972, 0.0442549525756095
-0.050060801291625504, 0.09987369157337828, 0.04659551762203131
-0.05493374378499141, 0.11095514311697176, 0.040640749642344196
-0.029369053017394994, 0.12424540548003582, 0.05999404381623451
-0.029498807682711285, 0.11797527546742974, 0.06080414300082413
-0.02337771386208009, 0.1148873475351705, 0.06376853326663219
-0.028202581246919073, 0.11467865855133345, 0.06179601438733272
-0.030391882499643873, 0.11726307275879257, 0.060531840431834745
-0.029912645028044353, 0.13728514121506544, 0.056314921854432376
-0.02994891508669758, 0.13600834602199963, 0.05671388282975122
-0.03154857074363172, 0.13328804725217935, 0.056632000378074546
-0.03052645278693558, 0.13606183140824948, 0.05634271144503969
-0.03482301865705422, 0.11713736907449734, 0.057911576885935234
-0.03628828772861456, 0.12211495084665853, 0.05627188604061003
-0.039233454432950926, 0.12141696264559293, 0.05457320697694136
-0.03721406663984122, 0.11325140429803088, 0.05702779999162082
-0.04026776558784337, 0.13804276224367654, 0.0490306718659797
-0.040567811214480186, 0.13590457666382788, 0.049565572648540855
-0.03893250258250862, 0.134508970018848, 0.051480198729098536
-0.04042498302795273, 0.1332551889920733, 0.05066831026253974
-0.02993088929183697, 0.11057705035498183, 0.06138597393883742
-0.02592107577513127, 0.1037975046051246, 0.06315888645873444
-0.023128645299026133, 0.09746356917069851, 0.06441963865418868
-0.02676512660237288, 0.10079964750833578, 0.06285730289307981
-0.02855895147796593, 0.1017568645512322, 0.06209776537593012
-0.031987337919976835, 0.12604694544485384, 0.05831789279921085
-0.03123786893563231, 0.11981466203179006, 0.059706651064210824
-0.037646383252252176, 0.12614264596912517, 0.0548395407022314
-0.031235901538659662, 0.12170876598581143, 0.05942521581909982
-0.031735559515341266, 0.12354730932781739, 0.05884501141262171
-0.03606529485976864, 0.10096264103917416, 0.058018830472810895
-0.03758587469040973, 0.09987982333860093, 0.05710701241000654
-0.040023159923579445, 0.10422759186878092, 0.055538871504332066
-0.03568619109692467, 0.09711377387327516, 0.05831834840631642
-0.0332992343663001, 0.0989593922043971, 0.05974713458210544
-0.04241750492780721, 0.11975969665572606, 0.052198522603041406
-0.04073345212261781, 0.125659563417642, 0.05265039611964844
-0.04196705539911299, 0.11834734252689127, 0.05282010745756813
-0.04110450758401789, 0.1254334102975021, 0.05237103767036494
-0.0004494339696232294, 0.13500676353039123, 0.06445423314154682
-0.0009712883402836284, 0.14011549921603264, 0.06297114494203986
-0.0010819404406937601, 0.14271493193129572, 0.06222878343755783
-0.001717764017758113, 0.13910996015428015, 0.06319580823143149
0.00374120231855698, 0.1314486129251397, 0.06519771423783
0.004048161239162752, 0.13343252530427674, 0.06461351556821998
0.007152286439269124, 0.13659667111932436, 0.06347472462578337
0.0042109440134697, 0.12909676925802227, 0.06582424037463964
-0.0013169185856609534, 0.11915743040337012, 0.06742233155983775
-0.0025952623241869478, 0.1223014109506032, 0.06691971067929797
-0.0038383285900046695, 0.12816156902589898, 0.06607311323087335
-0.0091113193626236, 0.12660987816583366, 0.0658536403062437
-0.0015757456895660817, 0.12301364753812674, 0.06690951735665121
