-0.44479191769188825, 0.34009821925830996, -0.37808997299092384
-0.49820602791848045, 0.3435938164621998, -0.38262677706561465
-0.7593418140797872, 0.3666619755873153, -0.3948893204485567
-0.6349483039152671, 0.38853019414794226, -0.3978362924818346
-0.7907160658578818, 0.3537510890963777, -0.3903273648289453
-0.6790765384303675, 0.35702430364615345, -0.3923324300173043
-0.6474819061537953, 0.33496120318301636, -0.3629861190019845
-0.7016831521822703, 0.33322273440024264, -0.35625627325706477
-0.967341273850456, 0.39100119258060195, -0.32782922499414685
-0.9683073033614394, 0.39035988252904574, -0.2876772183856439
-0.9593068474854378, 0.354523989806013, -0.3168192255406717
-0.9528976793500483, 0.34544730849328, -0.30693566889050283
-0.9675318255279095, 0.3795522796273398, -0.2610297838799327
-0.964685504302204, 0.3647897735430132, -0.26465334630732046
-0.9671468065383402, 0.3732370727202799, -0.20368040743805949
-0.956994214813547, 0.3475341399612602, -0.24108188249483095
-0.9539980979629474, 0.3443491619524021, -0.24355601140367153
-0.930678915863357, 0.33391919237993034, -0.23488416893634248
-0.9597946995811052, 0.35163437334191994, -0.0550738774509683
-0.9643108324589174, 0.3620011530772471, -0.17935640080445614
-0.9661178948114454, 0.3684541395022696, -0.1364456066435833
-0.964193900444793, 0.36143803935142405, -0.08980770736912883
-0.9282879446831177, 0.33298439257141416, -0.12156405542988838
-0.9554490424227295, 0.34506022992905533, -0.09619873092367567
-0.5249895830538901, 0.3806835092408467, 0.37991324247645003
-0.5331014635129051, 0.36405050536666117, 0.37708103142871174
-0.49650535963013587, 0.3375999279937735, 0.3558586324601947
-0.16334341481396428, 0.3420325812122277, 0.363421018676712
-0.18182408440030565, 0.3532133718468214, 0.37295122617259235
-0.169585986148789, 0.3816541780229314, 0.3801555937534602
-0.46831268925935954, 0.35532994464337386, 0.3741252114005179
-0.5167734064864216, 0.3654233648988925, 0.37744072636162873
-0.40864189054861977, 0.38183579185083594, 0.3801120411565005
-0.5024122496663679, 0.34710152023640883, 0.3691904464358188
-0.44761632863392997, 0.33825081103493326, 0.358375029964203
-0.4872452215500339, 0.3387141141024912, 0.3590195606531563
-0.3003512343756733, 0.38557285342509307, 0.38043333589373207
-0.25443007233151466, 0.3688490718662883, 0.378417599197809
-0.30447736221004607, 0.36806384011934945, 0.37822801660860894
-0.21600059849520034, 0.3682521969791781, 0.37827973373817275
-0.18615701271752355, 0.3393156047745457, 0.3598639700168847
-0.27159733791093466, 0.34587459420944755, 0.3683964172772536
-0.28565012993963557, 0.3331696151369397, 0.3386553436598506
-0.3469492469309285, 0.3378819726892831, -0.37418377501543704
-0.27776240645939415, 0.38006906244091593, -0.3971900986578824
-0.25250462355402914, 0.35931703231849793, -0.3931364422886546
0.04520158378061863, 0.34335736611676415, -0.3823757699798116
0.021070516356732284, 0.3571555881152242, -0.39252825079661036
-0.033905955055699225, 0.3507681210694074, -0.3887092822473787
-0.08381381214526244, 0.3668726178911203, -0.39520131294464866
-0.005242845342149275, 0.36700207869403234, -0.39519032749637456
0.012529493414369704, 0.37680459851562237, -0.3969391196389065
0.04518398307846988, 0.33308911433575533, -0.35555693311790043
-0.030680210157954788, 0.34200987146284956, -0.380604030507887
0.03259165033919609, 0.34038181548761387, -0.37848644577841845
-0.2932240218953309, 0.36439919934042403, -0.3944970039302052
-0.14521854531302716, 0.35562245771962675, -0.3916648392751664
-0.1878926723452427, 0.34615753734758564, -0.38596192047835837
-0.1825225615042161, 0.33855786232033, -0.3761172352380609
-0.20174684421213118, 0.3446946424972287, -0.3841144980419221
-0.24482823864949754, 0.33365333330344815, -0.35774834567361674
-0.061417254825204784, 0.376395238579793, 0.37969747356342853
-0.05199472171371722, 0.3655947735925817, 0.37760519475114895
-0.07313453550232416, 0.333572541692421, 0.3401931041172874
0.24320308559701828, 0.3394120518473058, 0.35996012423305784
0.25376311747124136, 0.349724327842205, 0.3708198780568781
0.3193027481944192, 0.35678931792272056, 0.3750813107031994
0.09281933646878784, 0.3516547769545081, 0.37204235731463886
0.019258056890400194, 0.3886264591498553, 0.3806968133758548
0.06916843195458695, 0.3691133796289262, 0.37854927626033275
0.09776014768427307, 0.3407380500793882, 0.36174333173974293
0.048619003631754615, 0.33639136071675657, 0.3510912535983593
0.09585670703256108, 0.33472960840470123, 0.34468304606137323
0.2838397780290462, 0.3655841247387964, 0.3775695873038126
0.15538915952358506, 0.37882205569991095, 0.37992216300446846
0.2008362261826282, 0.3638614480408578, 0.37712521607201616
0.23151077419851243, 0.3526957705771941, 0.3725967287202129
0.2381792371891574, 0.3395318566813785, 0.36011513257040534
0.18338369313933744, 0.34324709952718035, 0.36499188487641565
0.2863036745965025, 0.33548078773815804, 0.3476014868989256
0.16551762617427598, 0.3369645067223337, -0.37057066351151463
0.16849114863389053, 0.3631557362146949, -0.39420454372993374
0.17675624567977505, 0.37492211191673325, -0.3968087330794805
0.5123619194490581, 0.3374249032001533, -0.3724469085031191
0.5031330205878201, 0.3890849276522008, -0.3978556932794123
0.5287495609641248, 0.35404543190647275, -0.39059339353730793
0.4881552038433439, 0.3602019340615842, -0.393295112427527
0.4501949922722355, 0.3505464592687794, -0.38851884859674
0.4660096610652785, 0.3694252228470549, -0.3957495188230745
0.5091853023838304, 0.3393094152403382, -0.3770453166126248
0.39177649801804204, 0.34342729919397585, -0.3824666257471502
0.4486078828027547, 0.34316430126407516, -0.3820832285046633
0.2567890806578618, 0.3618897185819393, -0.3938224596932949
0.3040305907449711, 0.3551133083924843, -0.3913079688332182
0.27525994318944547, 0.35687380139151736, -0.3923461965171924
0.23441410637579985, 0.36325480193800963, -0.3941795766792325
0.31649506673091066, 0.33441227892186315, -0.36072520283140685
0.19146220596948405, 0.3364393391683923, -0.368531278501419
0.9501540586193555, 0.34507835543395, -0.14094145622249077
0.9346098653739836, 0.3361738312445994, -0.10327994277160064
0.9596443759005934, 0.36424422660773603, -0.13445310062223742
0.9564963123112429, 0.3550480927915135, -0.07547217752257995
0.95863025340555, 0.36054190810464715, -0.10514293328265095
0.9619611590165391, 0.37445492644351125, -0.1952079379472709
0.960248621873717, 0.36783059809809737, -0.25949958806530615
0.9572559897641071, 0.356470529291574, -0.21075578611739318
0.947340739162608, 0.3428276617109815, -0.18014386648025796
0.9413863119511651, 0.33805054234186127, -0.19656776897384098
0.7240156814851183, 0.340189543807843, -0.3781418288746342
0.7129763137196317, 0.3474279679164507, -0.38654802733189475
0.6678273341474841, 0.3660809361812525, -0.3948021668302587
0.9292665709853011, 0.36146863066522233, -0.3879851221234487
0.8975103469963175, 0.3595204682581785, -0.3907065561070643
0.8626557574182632, 0.3384169819495091, -0.37111991375013675
0.7904042301899593, 0.3575581824760664, -0.39246679486169017
0.7095434417283291, 0.38505811056664585, -0.3974107217899219
0.7097746342770178, 0.3552863815366276, -0.3912496494314266
0.7816918476981005, 0.3466435743384097, -0.3860662264798525
0.7835983836870397, 0.34066245549086865, -0.37877487353572803
0.7473724674644668, 0.3353465215690224, -0.36452368326081025
0.7858772455683554, 0.3354565390492742, 0.3477463786585592
0.7295101740216892, 0.34642497143980716, 0.36869340773034065
0.8138797164093755, 0.34944016750213813, 0.37022586248205447
0.414345609120107, 0.37388332188046697, 0.3794193422991623
0.4049955349006973, 0.357369808741998, 0.3753835512751257
0.40836107588708026, 0.3333344577502512, 0.3393376331037566
0.5795129945445354, 0.36368570123293786, 0.37699580033993557
0.44123555643916584, 0.35919000908899373, 0.37582730247495444
0.42273833150248546, 0.38002448234877306, 0.3799270202828455
0.551975711127673, 0.35582929183433504, 0.37443064993770797
0.5403924286563424, 0.3341900205847621, 0.34269914398291446
0.4607591124507939, 0.3364321855694506, 0.35132880130633776
0.7489097152288958, 0.368721462265238, 0.37819253869338737
0.6397869100103712, 0.3776393710142355, 0.37965327255565906
0.6667919466768858, 0.3667968128582819, 0.37775190786595725
0.7210438215286619, 0.3569662786251213, 0.3749993143546021
0.6865163949530604, 0.34581884055239887, 0.3682788218325012
0.7510193973449659, 0.3421984086232642, 0.36353343237596786
0.9543184855350892, 0.3629429853405889, 0.34371698700441033
0.961714680324659, 0.3826416726893227, 0.2993871968231332
0.9548475527489725, 0.35446299086783606, 0.27176322673297526
0.9449682733882067, 0.34367986263793093, 0.29657468400446796
0.962982300532537, 0.38578345597472496, 0.21717239813815276
0.9508091829318016, 0.3475571980691202, 0.26943090705575856
0.9613226613313012, 0.37037272955867867, 0.13942870747116506
0.954313521351858, 0.3513922169277653, 0.1431667821647381
0.9224390662509047, 0.3337880968510001, 0.25891162742395957
0.9486338369431773, 0.3438685417721906, 0.1779410327587186
0.9513258590062157, 0.34629957278240947, 0.06281156935554882
0.9589404169561966, 0.3616858713151224, 0.10611218885959237
0.9577030990631553, 0.35723429719636374, 0.13388509508662141
0.9597342026680138, 0.3645391979559084, 0.07656312491421231
0.928788901969599, 0.33458054357009703, 0.06897169898942801
0.9229655466547746, 0.33297582077952637, 0.1599870412116553
-0.9652582417166593, 0.4522252657151787, 0.3099908102897133
-0.9593189085293523, 0.4638420126000694, 0.33489012511195737
-0.9498638097659495, 0.4878048671995544, 0.3065271001846848
-0.8220412902983951, 0.5015875580297031, 0.35046031064922045
-0.8197724489268357, 0.4870084886298967, 0.3661172495915627
-0.3921144997672146, 0.49314650501049784, 0.3616872885210409
-0.44253633040431106, 0.480588634019728, 0.36870999395994697
-0.4770504975034805, 0.47437842922703144, 0.3710554125056955
-0.586663820045642, 0.4778167435760813, 0.37219790914332423
-0.45670804841550183, 0.4987520622803508, 0.3455424997027297
-0.5176838868715109, 0.4954264908332974, 0.35088981092213445
-0.497477775201936, 0.46616577201526976, 0.37503308954216114
-0.5277755593549124, 0.483333044815628, 0.36617129018134875
-0.6923487925612357, 0.4608755142485019, 0.37709863828634693
-0.6900617676792903, 0.4667552950062376, 0.3756799670587389
-0.7128199920284484, 0.47595341230416816, 0.37067107033278074
-0.6693699570298484, 0.49710230016482754, 0.3527515866977819
-0.6819150600952353, 0.5041760520927765, 0.3400592191649682
-0.756360842590175, 0.49222439634906523, 0.3562026325063421
-0.9348274314618115, 0.5055997878769345, -0.20230808109504766
-0.9509394664001328, 0.49038802048856867, -0.1673450287832127
-0.9667018478422116, 0.45555800632951854, -0.21610545772479076
-0.6707204052995587, 0.4854325592373645, -0.38371798572816546
-0.6519508274846766, 0.4589148736816185, -0.39548975061718916
-0.912129094017154, 0.4488680433951232, -0.39436168158335083
-0.910607847375197, 0.4783112019043314, -0.38403825499019184
-0.9112677159801692, 0.4848901998195658, -0.378381450962087
-0.7680196320364558, 0.4769222432769807, -0.3884881768615835
-0.8189667099827578, 0.49171371214383724, -0.38120048052658456
-0.7453219509363873, 0.48379726038416704, -0.38207770417921005
-0.6970338792049566, 0.4909709062383089, -0.3766731553519581
-0.7546259276670094, 0.49713298439140297, -0.36600961491064365
-0.9639603075784605, 0.46916224078770374, 0.2081237719373537
-0.9628925265131236, 0.47006729441547845, 0.16241595165430145
-0.9505755999280834, 0.49465681251897864, 0.258284665836083
-0.9619659443094757, 0.47502456533762494, 0.24132659190612635
-0.952115928711311, 0.49323312620131804, 0.24109530546109187
-0.967460784552813, 0.45334796860080057, 0.024514583962490843
-0.9663041911607555, 0.455269751959686, 0.10639793965121817
-0.9464919436308453, 0.4968286772828836, 0.06088600590897971
-0.9586644286624092, 0.4812825175871044, 0.18600841555528236
-0.9430033361177194, 0.4975547903168619, 0.14058048470431814
-0.9493602788282958, 0.49480722295817714, 0.18555063583625692
-0.9665257650528243, 0.45469701819889197, -0.17229934342628148
-0.9631658527431243, 0.4681885934203056, -0.13593652995134364
-0.959632213853888, 0.477129457632526, -0.11329480635073232
-0.9605314410597707, 0.47787982003515744, -0.05497930746859245
-0.9565771818496642, 0.4830175635568711, -0.16301735546395485
-0.9305526536740684, 0.5054620883405936, -0.12886344526619875
-0.27546037823863795, 0.4872730623600648, 0.36246522913181356
-0.26590730850634725, 0.4780415196903079, 0.3698488022768168
0.09406072838403554, 0.5084518304222736, 0.3409108740929603
0.059811276291825886, 0.4684492505724896, 0.3754882077723099
0.04054163508526532, 0.45408398094253505, 0.3787107058891542
-0.042914376133676345, 0.46136080955236314, 0.37712094845093314
0.04005250670108654, 0.5022927506473286, 0.3415573606454402
-0.08815660257675238, 0.4817714753568846, 0.3699142881590458
-0.024830347168624034, 0.4864307467504827, 0.3622363692760342
0.037115944314687836, 0.47061993474823766, 0.37375713562174695
-0.21180526144036904, 0.46558044497826045, 0.37618226159022383
-0.21376233565470137, 0.4775862990679084, 0.37049190893092787
-0.22984949769813215, 0.47891294078009444, 0.36901817343784926
-0.15172096729228082, 0.4867207961374603, 0.3666658082048577
-0.19747849316703536, 0.48640430573405335, 0.3642920197462217
-0.5449157399129619, 0.45218203230942855, -0.396477902890891
-0.5320146511342732, 0.46888589197423125, -0.3921132885512898
-0.5611104013475942, 0.5050266232298634, -0.3612521727567308
-0.17507417733201397, 0.47656080948256513, -0.3898661815369438
-0.19288170313673153, 0.47477505252369495, -0.3899972001264218
-0.4614053400807561, 0.47566804096934745, -0.38837221027249225
-0.40112476403800745, 0.5000128009681664, -0.3708837348115576
-0.5117185559519158, 0.4839271398694845, -0.38229619494624006
-0.4100901009986818, 0.4675576073413137, -0.3938800273157468
-0.4763222633672999, 0.4794392894954026, -0.3852764823975221
-0.3183187702006308, 0.47712350558906236, -0.3897318803470443
-0.2329960994308062, 0.45676866731457477, -0.3950518882372179
-0.3276997638187661, 0.4922379636922361, -0.3801497305960412
-0.32655577090335486, 0.5058330911247975, -0.3618957574673401
-0.2450781548436295, 0.4854552276066822, -0.3793787444717144
-0.28174419410795554, 0.5004445537288424, -0.3622294162656002
0.14568862757858023, 0.5001068813969031, 0.3522275669324995
0.16687871122354542, 0.45630579526647985, 0.3786510682999969
0.5594717300847031, 0.5061454656882393, 0.3411626937505504
0.4877181724435603, 0.44884277387240124, 0.3793457156584365
0.5305393269446509, 0.4737885877868887, 0.37255815847517104
0.48690681944314707, 0.4683545731719249, 0.3738675533236682
0.47046675347738826, 0.4727686723587163, 0.3718175645986944
0.3880958174517534, 0.5040272587215381, 0.34659563886199923
0.448337545462171, 0.49535447517485376, 0.35143726490211985
0.4331754507112186, 0.4898622756089963, 0.3610098092980877
0.29118058075173886, 0.45691620609385375, 0.3782884116221759
0.24109220972156575, 0.47504480328958737, 0.37076352129902845
0.21680920309259627, 0.4687180730066722, 0.3743421000892937
0.2897451213969916, 0.4887595666605488, 0.36266615237409805
0.1852655073726269, 0.5014260833216422, 0.3452831433880426
0.24179873540834207, 0.49043824510135664, 0.35556876009436456
-0.032519161895688806, 0.46919944788195833, -0.39166911131590904
-0.06948067622247298, 0.4999668078559618, -0.36721639420227115
0.2745670022172875, 0.48652205769705603, -0.3814950394157385
0.2648255791357432, 0.47244510410017676, -0.3902767973106236
0.07510774237489012, 0.4715499874600772, -0.3923537160823145
-0.03173082393000542, 0.4719784468352659, -0.3903999182865355
-0.03326536195227282, 0.48608793640379794, -0.3809031022860391
0.09248413421531612, 0.4868467331326566, -0.38521935985137923
0.03782392735643886, 0.48115099554579277, -0.3855511642693981
0.18319161743121531, 0.4595733632184219, -0.39511759537688135
0.22669240022519868, 0.4651151891281611, -0.3931441739563402
0.27933332111062514, 0.4813119313050046, -0.38593588236517873
0.2008939488198878, 0.4826706065508299, -0.38417449571739964
0.2804445963776099, 0.49229752473727384, -0.3756977223833573
0.23586895564872565, 0.4907924003630425, -0.3721927825476532
0.80495526174328, 0.4933426256526281, -0.3791905811257541
0.8078605708518055, 0.47411973625107406, -0.39131354507303
0.9584405976298582, 0.450875896803104, -0.3471675417360803
0.93899800770245, 0.4884384141999925, -0.3405044181609543
0.9572558806059391, 0.47177605616274665, -0.28199579960792165
0.9443759361375008, 0.49520364992694965, -0.28132696080148484
0.4600538488681363, 0.4840228811164319, -0.38147058398468986
0.41171938176499395, 0.4912104692491722, -0.3796560538008122
0.5329370620014893, 0.4743390227767378, -0.3899783712408402
0.49731390125961733, 0.46929585158145704, -0.3911291128300487
0.4856850289523732, 0.48797525489389576, -0.3766452222350268
0.4628601460398583, 0.49365991002520815, -0.36974893351614013
0.5332844489715681, 0.4812244023103208, -0.38630792352918875
0.785789962030771, 0.4743278203862577, -0.39041217164395375
0.6302866524241955, 0.46132923375242274, -0.3953865769411682
0.6950327735030637, 0.4729086018370004, -0.389785582968416
0.6476673422581538, 0.492653203501624, -0.3794229843540743
0.7660855571997458, 0.49151506527999556, -0.3770319275269967
0.6924431279349094, 0.5013250707323854, -0.36003218507250934
0.9404709729615702, 0.49920809432844404, 0.227229499073371
0.9556411588259125, 0.4763349698380235, 0.21581869215089663
0.9565159725800136, 0.47332693198513454, 0.18535446515667744
0.9053587236474878, 0.4534421341831386, 0.37577596366506444
0.912861620659805, 0.4796852025524404, 0.3613976170151305
0.8801541490516642, 0.46644290787242776, 0.375113188274832
0.7397359055635843, 0.46693810458657076, 0.3749260085663248
0.8116101235118489, 0.5079623855868903, 0.34095142423399677
0.7174158774279125, 0.4506580857092021, 0.3789729845927503
0.7599757301354008, 0.4892302840475082, 0.36111855814417915
0.6267292686781909, 0.49901138337161743, 0.35427686091242017
0.7343763679398895, 0.49698513366916186, 0.3450006420864122
0.6852813346809907, 0.48019228411656145, 0.3690150362280603
0.9301777266571092, 0.5051260273405954, 0.18347126213618337
0.9457334318975077, 0.4914805697422778, 0.07167736249308262
0.9411961902593199, 0.493736243050357, 0.12176491147487231
0.9516904188030308, 0.4838511183037002, 0.06327500767846503
0.9593142960974097, 0.46395379879521303, 0.07845274202358724
0.9567989298651862, 0.47142846417852624, 0.15875252458436967
0.9535542643940189, 0.4788481309730876, -0.2985187584004363
0.9599546847024247, 0.46323402991375373, -0.25381438786326
0.9396937707716703, 0.49843780994573145, -0.21732021337342966
0.949867429071087, 0.48689431366294356, -0.28249887810726376
0.9375989719429142, 0.4979379726949049, -0.18238845982973229
0.9600010999698031, 0.4624618494219848, -0.0624516267051753
0.9586059292068311, 0.4652454254247363, -0.1513885771120708
0.9505393307406316, 0.4859527487634492, -0.07204639260634998
0.9540036660433011, 0.4782588098241946, -0.18428456998372578
0.9439631434084657, 0.49200993322703657, -0.12330887714389631
0.9522224238856891, 0.48284478230300526, -0.09077227379917002
-0.5783254831526413, 0.4561419956961108, 0.3787382362179387
-0.5934869651924278, 0.4276351352184167, 0.38104100890750825
-0.5232113509746026, 0.42679998269175434, 0.3808552939810674
-0.48627339610502796, 0.45946312501758046, 0.3768920376829338
-0.46637765491152305, 0.44286531217741304, 0.37992814958034316
-0.4800203652720383, 0.43352694195173724, 0.3805161531090915
-0.5395811165461986, 0.41124909411473387, 0.3809400462082479
-0.475841186519018, 0.42628798193620787, 0.3808095448179207
-0.43435785935125215, 0.40761583953670677, 0.3809817037063529
-0.2774147094402916, 0.4472786734715152, 0.3797937330192532
-0.3368357592950688, 0.3915571951471436, 0.3808993749701032
-0.34948253939242413, 0.4362195215439565, 0.38086587660224935
-0.22734095264697496, 0.4521233416484429, 0.3789273212474328
-0.1681268905183146, 0.42859062090257805, 0.38111520151945055
-0.2723560062660933, 0.40032254637126263, 0.3808830889940159
-0.27669808445464683, 0.4165857230484385, 0.38098413975962936
-0.23321350329703475, 0.4273317468031286, 0.3809005588551163
-0.22144055137172125, 0.41678041171579105, 0.38097397139620987
-0.02306643655096863, 0.445967553108634, 0.37980139538197266
-0.011104210023929634, 0.42605427563615117, 0.3808928249769761
0.08481558045790197, 0.467655023778475, 0.3764631427175172
-0.06093403184268946, 0.452794434158553, 0.37918532822704865
0.020172997963822742, 0.4409900996165273, 0.3801501909079017
-0.043800730867787574, 0.416894546366098, 0.3810311776552878
0.04075069266674228, 0.42318984727943076, 0.3810211048884644
0.028008557843870924, 0.41611000921680424, 0.381000953653954
0.06074339904745961, 0.4207508466990244, 0.38109268167031474
0.22131343079641674, 0.46381315393800987, 0.376298714977698
0.17121877803061103, 0.4264021389048386, 0.38108590550419563
0.22486828259500863, 0.4081290333819513, 0.38095629198080766
0.25596305027193184, 0.45574348254147623, 0.3781267868331974
0.28282254846231397, 0.4373933965952893, 0.38054101573416765
0.3039743193504665, 0.4149356912521146, 0.38107436103698383
0.2759057758385272, 0.44538628368319627, 0.3799708378605542
0.3089463867975169, 0.44754298996428427, 0.3799966144562823
0.2400734151538762, 0.4207290765079122, 0.38088464419387263
0.4106269549333409, 0.4396491182697623, 0.3804654109438672
0.4629248385129222, 0.4004046228073268, 0.380813671432898
0.4457470872468529, 0.418131039407098, 0.38091403310299266
0.48057531047780017, 0.43086801284237297, 0.3806622774801077
0.575074925948283, 0.4104474086529678, 0.381031950384609
0.45284833463552865, 0.4164797869523037, 0.3808978943696728
0.5394783862420617, 0.41341248227781363, 0.3809536004177495
0.4861439394340844, 0.4229929560499213, 0.38078330640607705
0.6604701561258604, 0.4368548116151081, 0.3805331913831322
0.6522648622685472, 0.41105442308860796, 0.38096151273795453
0.6703782387434066, 0.4124423678031266, 0.3808982287018046
0.7515594773502863, 0.4621776297637953, 0.37660601089861323
0.7418176866594838, 0.4339569794341322, 0.38042217588785937
0.8185459667224817, 0.43109656215900366, 0.38076756937373923
0.7227997124792015, 0.4245024872638194, 0.38067384908330104
0.7972893581745119, 0.44646362507382537, 0.37981970342842797
0.7733721342727216, 0.4004464375679837, 0.38069982764407945
0.8927076483070491, 0.44397036853070093, 0.3785409726558619
0.961109035217687, 0.42847094549416875, 0.32998796248291923
0.9614154665351369, 0.4548189016513736, 0.1863787715034785
0.9629665948975668, 0.44092958091840007, 0.2119602654994363
0.9631994553797987, 0.43376085937993936, 0.2685804726040869
0.9637480489317973, 0.39973455139787917, 0.19334063034334031
0.9628633757313033, 0.42917786700192073, 0.30008720553838764
0.9627533655462226, 0.4428412459201263, 0.17699635816370216
0.9623646033912872, 0.45040098378252247, 0.03904780876417846
0.9630888772491627, 0.4392520302057886, 0.0704234057542122
0.9633593265957182, 0.43456198584975014, 0.15900700320994965
0.9635456975446477, 0.43170313616575345, 0.11009587188098015
0.9636774769107018, 0.3976339859797463, 0.13185617453958245
0.9636352280819586, 0.4282524815350103, 0.12731829978595346
0.9641113651815552, 0.41115828333899435, 0.024036995729754623
0.9631929338322731, 0.43975835695893506, -0.05714561440461512
0.9640404134321535, 0.4141819231033987, -0.056519524862438074
0.9637365662048046, 0.39397293476945117, -0.04529398408245829
0.962245467541006, 0.4492928902974016, -0.1964669131414613
0.9625462859065772, 0.4468173232659991, -0.2533341018049073
0.9637689560597393, 0.42103210038689654, -0.253181499536318
0.9628227886336524, 0.4406838545922012, -0.17249192435103675
0.9638426500736814, 0.405286700173504, -0.17747617632460366
0.9637348574517204, 0.4248776624715187, -0.1742938344933952
0.9637504396980519, 0.42252270042756984, -0.16700021318787273
0.9618616736883958, 0.45326456458521147, -0.2270842315188799
0.9627752030574201, 0.433524280980468, -0.3095409300372419
0.9635258102051034, 0.4339444124390901, -0.21904448599660978
0.9631030684695868, 0.39975251293114045, -0.29833949728283443
0.9639148036317827, 0.41391573155767203, -0.21984244805701272
0.9078408718903579, 0.4300548327391036, -0.39572038270327226
0.8954318947879618, 0.40026923634339334, -0.39650778573795076
0.8050088787652137, 0.419101994797836, -0.39805825349760965
0.7489336141246918, 0.41759526143687925, -0.39798448495734184
0.6276701242962885, 0.4426913497289463, -0.3976882987323549
0.6795438336086641, 0.4472738227423602, -0.39698578362554227
0.7661067472538357, 0.3945210968275349, -0.39786525946088586
0.6853696399872677, 0.43465755435929293, -0.39776149094120977
0.7031687026111428, 0.41586760758986563, -0.3980145584918855
0.7580178358155646, 0.439283295266571, -0.3974139399415186
0.529111940443808, 0.4469935251107363, -0.39706461681620075
0.5800361856694352, 0.41390352511472805, -0.3982916241234439
0.5788180472248652, 0.44309653924008674, -0.39768631999780596
0.42767109673404774, 0.4397695881972874, -0.3976038665203582
0.516393388134268, 0.3974178869234475, -0.39801236723874533
0.5379710291356081, 0.4200478582922122, -0.39817611104321166
0.4665157416742322, 0.41966760390947816, -0.398080989148762
0.46668673141756495, 0.3941040559201401, -0.3979851401179342
0.5356658350518386, 0.4341245199363548, -0.3979278748732313
0.26737181557556866, 0.4492982806230509, -0.3968920659252648
0.3075814805140039, 0.43219095825799636, -0.3982444813903837
0.16758929290211125, 0.45012730914804744, -0.3971845993958777
0.2273722563311912, 0.446059206318424, -0.3969916882716457
0.278677706474898, 0.42266008412238837, -0.39823631141910976
0.231830625262609, 0.43473267891255335, -0.3977679949202779
0.22688626107055837, 0.4224523068721759, -0.3981530578713274
0.20835368118064537, 0.4240761700478903, -0.3982077070199778
0.09184931591915242, 0.4516202993373397, -0.3973270837964871
0.019385450313762268, 0.44583024381577574, -0.3970717822670201
0.041356051485851406, 0.4285283823530698, -0.3982514251632232
0.010961833426048359, 0.4090986947674703, -0.3982179742504304
-0.0284830787885277, 0.4621682578826709, -0.3940282077583066
-0.07116242491774305, 0.4664803563377942, -0.3939026713249273
0.031471197002216594, 0.41820809551929455, -0.39824194795341794
-0.08131450323460332, 0.42638570594330594, -0.39836775629726273
-0.05068198267540031, 0.4275087290185007, -0.3982624959668317
-0.05206990294822399, 0.41741137284492014, -0.39829285839414297
-0.19173183684516124, 0.4646962264425389, -0.3940728897060927
-0.24050275396072537, 0.39356091728959797, -0.39804574697585277
-0.22211552316892755, 0.42644260591305844, -0.3981817909640233
-0.24089914144781105, 0.43578939090669094, -0.39768671158187546
-0.2888320183827711, 0.4493637117965261, -0.3969825643145153
-0.33095454266403407, 0.42770211784574064, -0.3983519171091978
-0.2659517854028077, 0.41933283195013993, -0.3981863223255207
-0.32504794246374047, 0.4401589896450873, -0.39785604867920216
-0.45638252155844644, 0.4592390315558443, -0.3946378703011192
-0.4412065140516477, 0.440648746194494, -0.3975048410478382
-0.48033373317786443, 0.42854359467501346, -0.39802758611585787
-0.49850412746591966, 0.4564058284749488, -0.3949455375415424
-0.5280303687100154, 0.43770133646881987, -0.3976317483972227
-0.4925428185258214, 0.4316522180658235, -0.39784487359604515
-0.5710020418469914, 0.4221526689532482, -0.398249487069391
-0.5337751963756308, 0.4035615627864359, -0.39809657120238956
-0.5155733153170028, 0.4114448063008892, -0.3981239987229272
-0.7186860260393448, 0.4622900370350499, -0.39364964566282634
-0.6682505120111716, 0.42172792899783834, -0.398146537370903
-0.7305254592272536, 0.40777249005722715, -0.3979514511008157
-0.7348416363477186, 0.454995054143158, -0.3951434742401735
-0.8153526527419339, 0.46308091837019644, -0.3947822310955049
-0.7197687334886453, 0.41122945972833597, -0.3979971371087941
-0.7813046254170791, 0.4091238070975778, -0.3980457367651731
-0.8112049586458747, 0.44859689811799974, -0.3970684764578272
-0.9023338337286091, 0.46245151810907126, -0.39277108854259124
-0.9136384185697185, 0.40732187207134196, -0.39573629061700344
-0.9673186164679582, 0.4332077937108655, -0.32751276829527926
-0.9680303132679033, 0.44447851745448097, -0.21095228549505024
-0.9675322832729599, 0.45150203187448384, -0.24175465284128678
-0.968867371237826, 0.3916699195221692, -0.2181595573074663
-0.9687655693768873, 0.39517351708955495, -0.2688874050079814
-0.9684784697394134, 0.4112616207577468, -0.3096335442593476
-0.9692337712264634, 0.41344987660840976, -0.22028714372098218
-0.9664658123363714, 0.45539140898547364, -0.10267680618409636
-0.9687112819883559, 0.43498868102026844, -0.1933664440809751
-0.9685708926582199, 0.43631595918428573, -0.10828282830483847
-0.9692097499559292, 0.4083005964805988, -0.12642974055945985
-0.9692041312476279, 0.41205931666605844, -0.16090886200627458
-0.9690022674155805, 0.43028170954831046, -0.11619113373053283
-0.9692091633712531, 0.4003422457251482, -0.02834868203050183
-0.9653756445831916, 0.46102749803143017, 0.0743877774218096
-0.968241752569734, 0.44244995242183294, 0.05890178391711844
-0.9690305399914286, 0.393084010350666, 0.028158256560302478
-0.967892089125313, 0.44578927757022174, 0.18187342163519793
-0.9668682486712235, 0.4533524312683514, 0.15991641944573215
-0.9690836018679162, 0.42305006281957164, 0.22182398174025086
-0.9690822908543754, 0.40104983969632413, 0.17459418695442375
-0.969122318360345, 0.4214646702414353, 0.16888101185935359
-0.9691285527322306, 0.4210937213461971, 0.09390173041603675
-0.9690848350428987, 0.4212045855947481, 0.14529528386007656
-0.9654281853732625, 0.4618317172423246, 0.20655933839436183
-0.9679853256495234, 0.44175402997283264, 0.2651628828114787
-0.967851003251604, 0.41668717655851356, 0.308100355691575
-0.9691342271651555, 0.42289947047429866, 0.19518573310421816
-0.968237652786452, 0.42661423431617995, 0.29837106600613017
-0.9246200627698902, 0.41017001424296295, 0.3777681375450262
-0.7510775774700673, 0.44884607457073705, 0.37939697845038456
-0.7977699350003175, 0.4001577806485887, 0.38071539895271644
-0.6337934927768755, 0.4443376712459536, 0.38021373891458776
-0.7170703302775716, 0.448517257328059, 0.3794232694202547
-0.7103132651774869, 0.4343273705692261, 0.3804396652190668
-0.7620872687869041, 0.3981195426589144, 0.3806460346227162
-0.6845957559906235, 0.4161651469747754, 0.38085724455977066
-0.6998255759457499, 0.41031448340817755, 0.38082662839900017
-0.5737589718187038, 0.32769036939225904, 0.27002555741438455
-0.49365531047168254, 0.327005743576408, 0.25531967375233944
-0.5093829234904225, 0.3282663989234343, 0.2823115720556526
-0.5919062385441327, 0.3312722083041507, 0.3214602842138584
-0.5118056564216105, 0.3306909850017966, 0.315719605195789
-0.4536171239835771, 0.33670803785524084, -0.36964077437854465
-0.4460048081122101, 0.3314496330733492, -0.3402326895263595
-0.41050049053322335, 0.3267335902830429, -0.26665934261882585
-0.8709696175934258, 0.32794775087539235, 0.11648582625639717
-0.8948583821392908, 0.3292576350534404, 0.02630382794743725
-0.9009258962002922, 0.3299078031196688, 0.11053144111444309
-0.9083011541161119, 0.33070995687031113, 0.08321176463697708
-0.9021860904850614, 0.33004675655009513, 0.08885371795619061
-0.9333846693663498, 0.3343844870606477, 0.06564836474691782
-0.9262635953044948, 0.33264566979319105, 0.1389830576209073
-0.8743656624081098, 0.32875929955635996, 0.24579917489490877
-0.8948220615381732, 0.3292430894540732, 0.14246935878984363
-0.9264265008318879, 0.3327816679830317, 0.20255654537726284
-0.8892395689615739, 0.3298936524321162, 0.25922362239531394
-0.9036301369725579, 0.3304162752942781, 0.20988285463284387
-0.8654719227652974, 0.3329926153001272, 0.32559918416703165
-0.9149122967856018, 0.3320593876793472, 0.25084482381501355
-0.6423682161925788, 0.33281411766262936, 0.3365553004355111
-0.692499039003733, 0.33422257324112586, 0.3428881377672563
-0.7251269105256756, 0.33170167274049517, 0.325872936685054
-0.6719617505360569, 0.329544937194319, 0.304756735426294
-0.8073590156058845, 0.327049729722132, 0.251550778545591
-0.8189240227116646, 0.3314066984327287, 0.32021162460555425
-0.7451565354582526, 0.32890859808769224, 0.2966644353031731
-0.7385324852161226, 0.3300593706484863, 0.30987799068638155
-0.700840488355633, 0.32852468437561766, 0.2882639685410913
-0.6798346816782881, 0.32853329092159544, 0.28837264244653227
-0.7654472401576224, 0.33127123346790377, 0.32176628623935843
-0.7876037688739601, 0.3284035765511426, -0.3030876949536133
-0.8111718112076456, 0.3317083041364624, -0.3412992134881303
-0.7523838503880351, 0.32927427042892393, -0.3194699202634362
-0.5545418184106823, 0.33270646501443385, -0.35258741183183406
-0.5271201266480909, 0.3272525090971138, -0.27786489966229433
-0.4942416379214036, 0.3371974359082505, -0.37153933279002527
-0.44567612931325284, 0.3295632256664746, -0.3219372056246938
-0.5231755656381555, 0.3301778024206282, -0.32798451449734656
-0.496774359974102, 0.3297390497183435, -0.32369824954345877
-0.5083969907028507, 0.3312026381260112, -0.3379191869946535
-0.48777562811450714, 0.3276598602909331, -0.2865417656536645
-0.7251584576777016, 0.3275133126039877, -0.2837276585358187
-0.7384259383484548, 0.3306312984960211, -0.33269825804364084
-0.6397978056509486, 0.33010715844319155, -0.32743592522368364
-0.7037969264748799, 0.3366344188296978, -0.36948247637455583
-0.7098186975184712, 0.3315199822683574, -0.34132097885482154
-0.6901538265198268, 0.3319338776517553, -0.3453140206886077
-0.6661507794802612, 0.3271366026708845, -0.2755049397645873
-0.9416019049125279, 0.336622122102327, -0.1972056387135926
-0.9010129546234307, 0.33036511711288497, -0.2483285765845036
-0.8637961948813919, 0.327960750832766, -0.23731066297837916
-0.9043500728826588, 0.3302689429376994, -0.1995029845793267
-0.8676684445347601, 0.32778878456766436, -0.10456765364742156
-0.9059396440491483, 0.33044641382698103, -0.16132008799174868
-0.9397739739476063, 0.33613050649443044, -0.13568272667450926
-0.9096314524028686, 0.33085589505705915, -0.08296612867922155
-0.8813509175273603, 0.3284527048780722, -0.149099090157356
-0.9138852044753902, 0.33130912904735466, -0.13735446156359
-0.019326809787986732, 0.3373206467744559, 0.3546637494079829
-0.0675914612901548, 0.32971994272065747, 0.3060164125159785
-0.09760374122615448, 0.3268663152732902, 0.25216082480845414
-0.05193348411982371, 0.33083950463613543, 0.3168325429911551
0.05201650150425066, 0.3368528331992989, -0.37011932119695934
0.09077680220929082, 0.32687414231387824, -0.2695660312521667
0.034002631167122176, 0.33242906823530904, -0.34943086207473145
-0.48134017067923196, 0.33397377151717045, 0.341817143525452
-0.5184916179243242, 0.33062808253514697, 0.31511502258282964
-0.4307035573536531, 0.3282826675867737, 0.2825131602917454
-0.43113830241392537, 0.3286490683816511, 0.29033289905058857
-0.44692681760581043, 0.33228108798061573, 0.3310545040502567
-0.4459325183890152, 0.3300203215127181, 0.3091319323572926
-0.2415059503650368, 0.33356465318844075, 0.34016509829934777
-0.15879256967144023, 0.33261827575444036, 0.3340563975639206
-0.19744725986790956, 0.3295208101673795, 0.3041259920893381
-0.30710955631775294, 0.33078450579803487, 0.31640920714497156
-0.1890156784662517, 0.3291053818147269, 0.2997266217700101
-0.20471102695553106, 0.32880560485606236, 0.29338509813565605
-0.2799408574553889, 0.32755509679359224, 0.266857567393188
-0.31238915093604896, 0.3276965660896144, 0.2698850866067283
-0.2627076414635351, 0.33245848303208314, 0.3325692577187256
-0.2673455550635429, 0.3302351296034723, 0.31106636881870614
-0.1937952557268921, 0.3302724926148097, 0.3113919642630405
-0.33573152393498973, 0.33257060077287903, -0.35096884848584287
-0.2669394246498415, 0.3313680671851828, -0.3392626982168099
-0.3445309862471811, 0.3281149032098898, -0.29604991638856687
-0.013248425980619807, 0.32908339036862055, -0.3164544123223312
-0.05977471407641914, 0.32870388253467214, -0.30838511520155726
0.00019468250815005052, 0.3268177859428525, -0.2683798858182763
-0.021054364429054628, 0.33628636275334817, -0.36790597717440554
-0.08903049189778181, 0.3318669613770195, -0.3440085495632965
-0.01192440903098059, 0.32953764958234266, -0.32149803965819473
-0.0894163180964168, 0.3277730789694924, -0.28863714575912147
0.01393413843122715, 0.3306507106500624, -0.3322482557166703
-0.03277709152866961, 0.3325695129875246, -0.35078714534804045
-0.23094121085286717, 0.32758822876588634, -0.2847904583842369
-0.29940616033770384, 0.32802589772343393, -0.29412514805929824
-0.19722605371840654, 0.33547588549045715, -0.3648043771761241
-0.1730485842582676, 0.33179869780718024, -0.34337931332700744
-0.2456742676714619, 0.32925308644296486, -0.3188024203218792
-0.28744455772985633, 0.33280494246634784, -0.3531874666715784
-0.19467893404649678, 0.33042906781117215, -0.33014728664253185
-0.17640367867842902, 0.3269602682238152, -0.27140900940240725
0.41801332158827276, 0.330784659701973, 0.31651503224641764
0.46697911933927155, 0.33235545381347875, 0.33181174274888164
0.5700545124302852, 0.32936931185661383, -0.320173805932444
0.4888169751426494, 0.32856883207852783, -0.3059948958271207
0.48584480449049483, 0.3317238221734523, -0.34294701879216816
0.5663239342616306, 0.33368630462236937, -0.3580076278307653
0.06573444421354463, 0.33277897415918, 0.33557715023481516
-0.019718323612242197, 0.3281032480347167, 0.2784156594698011
-0.045368906062849386, 0.32702761494515625, 0.2555874957462775
0.037981156427252714, 0.32843391348864, 0.28542137662842837
-0.014666591818418298, 0.32954655839934954, 0.3043429808241022
0.029121437146511883, 0.3321961252809194, 0.3299385450552727
0.0864363284333437, 0.32794729751379437, 0.27508844057708104
0.02995538135251059, 0.3293900858134187, 0.30282937294109313
0.2643604698317175, 0.3351470220294935, 0.34629473468555083
0.2720368620045046, 0.3299975266020567, 0.3087720591365666
0.3313852951714765, 0.3289309023491905, 0.2961712523216973
0.17099916732724274, 0.32961669012698624, 0.3050424893738737
0.17859571897803195, 0.33553489419149596, 0.34779532791959245
0.21586072797874445, 0.32777992657344, 0.27162025273358564
0.2478919404847039, 0.32883159069477647, 0.2939902566262169
0.2024387550305375, 0.3310963403784749, 0.31936601510872853
0.19677680857292376, 0.3327962226484166, 0.3357972964067128
0.23820511618633838, 0.32976177233019505, 0.30647913051145453
0.28870279985617653, 0.3319657357541541, 0.3278311047040864
0.19086789551187971, 0.3336413964857639, -0.3577053861302726
0.16059823170692022, 0.3287771316766437, -0.30997311620068957
0.20195845744606195, 0.3300660990657139, -0.3266448517710845
0.5015835366980066, 0.3299977314836111, -0.32622075910009585
0.47921618847586434, 0.3291029451354502, -0.3174003479314531
0.4033144127704434, 0.33150876956494085, -0.3407638513370593
0.4707692295257534, 0.33330535203727013, -0.3564697823212333
0.46240724564854996, 0.32916148238825194, -0.31806070775389517
0.3926163240597408, 0.32845662534430964, -0.30339742565064715
0.42678771252467274, 0.33219565108489935, -0.3474470090293471
0.18772706524308108, 0.3288789523864432, -0.3121672465430293
0.19595706991158576, 0.328275751582936, -0.29937234179982947
0.2543719418636343, 0.32742529877294263, -0.28133334751863104
0.2770376234850156, 0.3376024386308775, -0.37304649113563704
0.2610232948936231, 0.33110380173118886, -0.33670638483589144
0.24968555163615977, 0.3304070603624074, -0.3299646726805108
0.18684188978246605, 0.3302855553312704, -0.32875829413694746
0.3152706134086932, 0.32693657117335073, -0.27095912486698454
0.29567045845328144, 0.3314654928258153, -0.34023654321939156
0.878569216964806, 0.33093078191553427, -0.3088522720339403
0.9102292517534314, 0.33446850520954186, -0.3232597829423143
0.9027418863633481, 0.33068772125679924, -0.04572535574891891
0.9161126506149635, 0.33213095862331166, -0.10221489226450334
0.9247438111236422, 0.33347406970776006, -0.05468466564981692
0.903480419409699, 0.33076322466937436, -0.10056640018069639
0.8830765943422393, 0.32879545838456015, -0.1535176541836771
0.8964458137259917, 0.3299904538377599, -0.19169639980152683
0.8937966884633206, 0.3297058674614524, -0.17265590935779102
0.8784970149890992, 0.3291380932421958, -0.25726014918362794
0.8878468584741197, 0.3293713819979508, -0.23492217605401566
0.9171434969281159, 0.3338314245302174, -0.2956623601415154
0.9181652070735995, 0.33261217636925655, -0.23460710487027187
0.6394680065508755, 0.3328782479586063, -0.354425148572456
0.7208533870364704, 0.33436812512704805, -0.36070158832331456
0.634402895823985, 0.3290935924898832, -0.31753707696616
0.6893121105771107, 0.33054334230958404, -0.33177206909945456
0.7352735557848332, 0.32898686290143714, -0.3155819951558017
0.7897950519781746, 0.32926352501417827, -0.31889974393369286
0.68009227513256, 0.3308340491081159, -0.3345869741374388
0.7088154423638522, 0.32892979017963364, -0.31427261328447886
0.6909548183810742, 0.3279958114368553, -0.2941054078643687
0.7638610120894526, 0.329595791367438, -0.3226329269810638
0.7613953078432373, 0.3317132298685742, -0.3433223912400977
0.924094582338019, 0.33838784557511015, 0.32970220485606316
0.908935457914715, 0.3329297369892664, 0.2752613584928866
0.7775166340442933, 0.3274404456245992, 0.2649930981114732
0.7690439827904545, 0.32692861304944926, 0.253906776095772
0.8154062669235937, 0.32812122277797645, 0.27133977881129423
0.81400432956916, 0.33810308629089836, 0.35693622322589846
0.7700937731706787, 0.3308964088599621, 0.3181143536419435
0.4806861286715377, 0.3319357002002745, 0.3277537634416676
0.5594863168307145, 0.33289666190433914, 0.3372153766029039
0.5813626097210147, 0.32869577676086065, 0.2916180074668758
0.5167577658088687, 0.3276776854773654, 0.2697286081594305
0.46726292288025495, 0.326757100283559, 0.2499824037969314
0.45656459540815, 0.327452275294458, 0.26484313204083626
0.48813616938616616, 0.33127854979031046, 0.32139059304805395
0.5264557933522278, 0.33092311533924146, 0.31799240330196854
0.6698778687261663, 0.3343671756836836, 0.3434469484496602
0.6530908064679831, 0.3308596982462264, 0.3175506245883111
0.7482631491499574, 0.3312834436415231, 0.3218569116607417
0.7208559377867212, 0.32830647145526937, 0.283615246622101
0.686808068507235, 0.33056171379684673, 0.3147074872292456
0.7073996583599086, 0.3306045962336548, 0.31515353612978414
0.7271534043384145, 0.3361778278001477, 0.3504789966396844
0.909960109887604, 0.33257355096662583, 0.26286088917298883
0.9077979256386199, 0.331702139913785, 0.23672199404460764
0.8699688804669612, 0.32892814839827683, 0.2514308093790077
0.907660375209316, 0.3314668533213362, 0.2137705767561698
0.8999916729493956, 0.3303732772497491, 0.17620368007690757
0.8786715569936476, 0.32873253696071053, 0.20234059717435013
0.9370412268404993, 0.3368408839048112, 0.07644677297957585
0.8899587858387628, 0.32929094193918496, 0.15021033230751563
0.9182108124800992, 0.3323627257698927, 0.04775242008908133
0.8623480913000239, 0.32778422280238906, 0.1444829344627931
0.9018671165211346, 0.33058303492355756, 0.12132756340983823
0.8911477038809923, 0.32942840606652646, 0.06825898066320327
0.9299079069575277, 0.3348885692065504, 0.03910628997687476
-0.4073577008346506, 0.523189472700014, 0.3057933466345433
-0.4524624494089315, 0.5189247534878038, 0.28335569906157615
-0.43896504508378026, 0.49552551303508363, 0.3531612919601723
-0.46856186212670775, 0.5026948618662788, 0.33292746550838054
-0.556830012320793, 0.5224367516256252, -0.3235293722743438
-0.5876159173262738, 0.5352717397826561, -0.2650528086193969
-0.5415363429275324, 0.5066845171843805, -0.35317383955852766
-0.9053842423871689, 0.5217794390816034, 0.1891530853813898
-0.9066557737417185, 0.5256624435861725, 0.22641643717542212
-0.9208839546412063, 0.5130932575601985, 0.17444286249114666
-0.8774437223737304, 0.5303372847400387, 0.19758853022059514
-0.9323051880082014, 0.5003031053090297, 0.31118419946785925
-0.8622628721577219, 0.5341373124887582, 0.2691863830540421
-0.927737525492421, 0.5116463191917824, 0.1989415215058628
-0.8937241424447089, 0.5085416021255335, 0.33278600980728534
-0.9180801682148578, 0.5155030515361644, 0.2767617450640867
-0.8997212453404029, 0.5249390287326352, 0.28183641278924865
-0.7980413750563379, 0.5172606265056074, 0.3166326462548429
-0.7514368471909172, 0.5209480630604282, 0.2587747000161433
-0.7324716296019491, 0.4959125527556978, 0.34531450665133484
-0.754364424328791, 0.511886819378196, 0.31172803931018794
-0.5889209696459228, 0.5091538123408687, 0.3399541761927658
-0.5440398262049395, 0.5266238041311166, 0.26293813134947924
-0.45220386945273244, 0.5087547116766382, 0.32137304257246696
-0.5001378115229999, 0.5049153402735514, 0.32318435606899065
-0.4953884006420549, 0.5019713682762046, 0.33037175376187494
-0.5190914816114041, 0.5109474576921768, 0.3139421741264196
-0.6466223398770885, 0.5186715588703127, 0.3165027419287336
-0.7276320856618131, 0.5134030311851121, 0.2912442771561152
-0.7087157153770766, 0.4905466022735972, 0.3582172681806766
-0.7245146022359428, 0.5077292833998162, 0.31585496661968165
-0.7721497715136917, 0.5050786960220514, 0.3359509272130465
-0.6956740335488203, 0.5116888943016226, 0.3159981906543699
-0.6748073252341251, 0.5216802887929944, 0.30196189477767826
-0.9144292723127685, 0.49582165520353794, -0.36155949041208635
-0.9201510107200637, 0.5071748605248756, -0.3315044994138836
-0.9124225578154932, 0.5165476212916749, -0.19573926050147714
-0.9428296862061889, 0.5002774314109999, -0.21742686912086245
-0.9240410442040317, 0.5162794839988942, -0.2725923117313035
-0.8847815907190695, 0.5302856333555799, -0.22965798351703343
-0.9012055682776177, 0.5238645441021416, -0.21444551149466365
-0.6996990500360741, 0.49994526981200066, -0.36229618428289156
-0.6527654340937453, 0.5270254348042706, -0.30917336232871684
-0.6310651181594191, 0.5321833155835053, -0.29389680941221885
-0.6833313965917684, 0.5181738496757157, -0.3273205338982639
-0.6978742073226796, 0.5186529576622246, -0.3148714639550023
-0.7382160200552113, 0.5173920506842259, -0.28203364438366213
-0.7720363802965773, 0.4910003756883822, -0.37782538695955625
-0.7560887771933791, 0.5163898727212841, -0.3215517380572933
-0.7531279758928854, 0.5147500658832366, -0.32450405800870924
-0.6988514916667958, 0.5043001403403485, -0.35380074025332237
-0.7804023831211184, 0.5165887215699111, -0.33322450192457925
-0.79459559509378, 0.5281015436877631, -0.2934921491660658
-0.8994086925247302, 0.5212955504841359, 0.15692883698203813
-0.9013449956189374, 0.517606221186232, 0.1324910732578161
-0.8830956358832158, 0.5274743686716039, 0.0636969212965209
-0.87399982268312, 0.5221967397970877, 0.13134594385427795
-0.8998520454807669, 0.5173015365744507, 0.11375420988848288
-0.9120101815381089, 0.5172444161391254, 0.06384638008165014
-0.9413495944015297, 0.5019444100338452, 0.03420682307395286
-0.8952490109677071, 0.5272629864429972, -0.06881506315375163
-0.8900414952828609, 0.522510072127417, -0.16615080436351418
-0.9086252098152854, 0.5136516418108366, -0.14661391396885742
-0.8701461724368871, 0.5310427682506828, -0.0703637182276499
-0.9145364743175175, 0.51631613299715, -0.08729518673481615
-0.8912436860723733, 0.5199420309568771, -0.1381002645521837
-0.8975346017495069, 0.522884270491973, -0.09950063735760814
-0.003143882742846876, 0.5122371969307215, 0.28530259804550673
0.04457435009649219, 0.5201784791475031, 0.2991270179068447
0.08901735928589662, 0.5143632809821295, 0.3270766715819237
0.009137941728829143, 0.5030479775031735, 0.32941837021280806
-0.07395650087881038, 0.514409674972024, -0.3417582020267834
-0.02681521046829803, 0.4924360271957484, -0.3724881446664682
-0.055931528579658996, 0.5128754921904681, -0.33897973026432965
-0.07110676469726751, 0.5295051770182423, -0.2726614134327658
-0.3265230539117789, 0.5155404547416643, 0.32171731911425716
-0.30164434222334696, 0.5228435932253181, 0.2937696352618047
-0.30504538952208005, 0.5097254837518981, 0.32972112300143513
-0.2725524642734947, 0.4982320881298501, 0.3460783058827926
