0.14273379421049565, 0.16652909067327512, 0.06309211865345613
0.14901661143096262, 0.166753648010995, 0.03862330929857615
0.10654209555149646, 0.166721033096837, 0.0372381245112178
0.10078856466533254, 0.1667521298753084, 0.033002591627756206
0.09729279959967127, 0.16676772636648352, 0.030804769608660194
0.09369066090643799, 0.16616277263200274, 0.123449900810093
0.08742851389011483, 0.16615615447723964, 0.12374823817369589
0.10116072478924384, 0.16627316197910041, 0.09925603928422501
0.1135680479690852, 0.16634194167926786, 0.08571794548179497
0.2108403830784445, 0.1662983162929917, 0.18959701326214556
0.23261687774822562, 0.16634424569063422, 0.19772122651323615
0.1683211023913837, 0.16624076154085082, 0.18662605124667958
0.21754420970355315, 0.166281793107763, 0.18056404441714796
0.14968013735166805, 0.16621870306956998, 0.18521726283789036
0.13171804857209643, 0.1662249414592663, 0.1931021825036062
0.10444645748111278, 0.166256331303026, 0.21310336342149172
0.1091669025226083, 0.1661654429737789, 0.17770354888278336
0.11245762391392009, 0.1661532212774646, 0.17208104454153927
0.11081581134981823, 0.16615393766998815, 0.1621122233967164
0.14238739505159193, 0.16618734935682755, 0.14700656855461225
0.13039742660989465, 0.16618191527938106, 0.13754036925162427
0.08409611836544907, 0.16614073211946992, 0.14433681298061465
0.3090355726174634, 0.16642086961443348, 0.1657842238482866
0.31778076219913964, 0.16645417977898963, 0.14419339013648347
0.3073223230565752, 0.16643962202454202, 0.1377299068240409
0.279147994769265, 0.16638920633314722, 0.1295541551653051
0.3003485383787541, 0.16643217234282676, 0.12794024195971862
0.19954531604191633, 0.16623920954328136, 0.16948291484175762
0.2048816670701653, 0.16625695103271795, 0.14946755513756313
0.16714191286439453, 0.1662121126075531, 0.1452753848330538
0.20621925925605253, 0.16626266141934223, 0.14180992868436154
0.18544597683385577, 0.16623958138482095, 0.13579522890901022
0.23051291032998592, 0.16640800143510057, 0.10105251518784586
0.19324131641015707, 0.1663063004187377, 0.1133746279940754
0.20383109465220986, 0.16645342154922413, 0.08274703265757329
0.203201160442561, 0.16638897313960466, 0.09732290368586184
0.17707003710248587, 0.1664150738817785, 0.08368255051510587
0.34608033144332634, 0.16655337257999864, 0.12498748675503628
0.33103205833284477, 0.16664257029966945, 0.09475553494172928
0.3662062381116542, 0.16678663387162, 0.08548920054943573
0.29352371337961275, 0.16649764893493396, 0.10846642575391896
0.2764740075231224, 0.16644889223899817, 0.1117376036205586
0.3171282268055829, 0.16651646875490372, 0.11514458825478627
0.265590185171637, 0.1664953307130197, 0.09593524287745729
0.29383536030632784, 0.1665724358571513, 0.09138951294930059
0.3112806360159438, 0.16685472045702654, 0.05573168498851733
0.29112970763359425, 0.1668576630125536, 0.0504342184095614
0.2806503257722368, 0.16665096403336604, 0.07233589440143262
0.2643070729857288, 0.16692531079356498, 0.036510078610842156
0.26448237485387477, 0.16688025136427048, 0.041754028026204475
0.4255026707566736, 0.16732692687663273, 0.046490821984366
0.41294407084029144, 0.1671635265460242, 0.059071615498651205
0.4168832389158113, 0.1673753868063123, 0.035234224887873464
0.3711640116207753, 0.16701093874309061, 0.05719749471569939
0.38266024170301266, 0.1670875089356085, 0.052141655702651266
0.35844546248778075, 0.16719427126694775, 0.030745363378567363
0.3371765597636755, 0.1670327513466282, 0.04248536495756575
0.3432687427508252, 0.16730715243457214, 0.019103563394646077
0.3715228187246244, 0.16731156357516097, 0.024774398685494973
0.35817907870342947, 0.167740062811741, -0.006925113944254838
0.3323840816400614, 0.16729292660741488, 0.01825231901494833
0.4628420121468204, 0.16805584788638883, 0.003436935524225285
0.4619488608757596, 0.16791733674506176, 0.013521288638197288
0.445160467273312, 0.16811378405674612, -0.008838600026562964
0.4245865927180832, 0.16753338519680228, 0.024556670466270136
0.43321599529147764, 0.16816020683686908, -0.016518632313544522
0.4273540441480447, 0.16818383704623124, -0.01994680168729042
0.41046070051161804, 0.16837790154512977, -0.0320132821632677
0.40468220379316416, 0.16869616652040934, -0.04582353592649962
0.4958126655847218, 0.16919597308192952, -0.04233483382625661
0.4820003893711674, 0.16852273586826622, -0.020598429147947378
0.4554875664458665, 0.16921200013990068, -0.057633281137416954
0.45011937367891264, 0.16937792768442161, -0.06610343922488122
0.4488106349391984, 0.16949798683040032, -0.06981845515274752
0.44389259624680616, 0.17076901834221214, -0.10455761623936649
0.5037740772916324, 0.17133464436866563, -0.10958287808047418
0.48752318736006683, 0.17073395755669016, -0.09697267937435156
0.4940141880842538, 0.17293357811819338, -0.14412903628953372
0.5177037239116447, 0.17240059595263035, -0.12479886115642505
0.5033487647547931, 0.17527451455431675, -0.172914288639628
0.5219939844573626, 0.17437205995372682, -0.15582190529607673
0.5333730501461301, 0.19318677843613738, -0.22943266229901865
0.5228792885062071, 0.17893240172699482, -0.19885349236366742
0.5153482357657321, 0.18948351713713185, -0.23909678299000142
0.48830889863174487, 0.2039042502837966, -0.2493876769390554
0.4621225776170546, 0.19741572850799866, -0.24607553645888447
0.47070883355777116, 0.2121353067882708, -0.24948843530213652
0.4199064380787084, 0.20288055514765255, -0.24917612250187096
0.40358493516802574, 0.22983957239366565, -0.24959926083689407
0.4348794900929887, 0.2462972928401662, -0.24933906957611215
0.3773617527813318, 0.2460624645307814, -0.24931285861249655
0.4777413165362241, 0.28199532977050434, -0.1598458711148941
0.46970869043403607, 0.2799978854578991, -0.18394705619693907
0.4954181634255029, 0.2860804676385537, -0.03967810948067496
0.5359940288912899, 0.1984381483191064, 0.28023874856446684
0.5362067341953894, 0.19982806234206335, 0.26253031583260295
0.5173067096632573, 0.255364460692466, 0.33381973981440743
0.534538378595196, 0.23747252296110916, 0.323364975015752
0.5366820160338346, 0.21882066830361402, 0.23311668116970885
0.5367304553849817, 0.23174142614854798, 0.22216527198622765
0.5359627496113832, 0.2566595096970841, 0.2052354990109741
0.5363679113342816, 0.25396285489193704, 0.16634832233139452
0.5354513398727789, 0.26519001884089477, 0.14004646764534184
0.5355638811372391, 0.2633458155467495, 0.0895472235970205
0.5296190321271521, 0.2800659753564474, 0.059255059514389426
0.5115703265460523, 0.28632322926402554, 0.24408070527583348
0.5272220496989926, 0.28181234801814614, 0.2566460776429517
0.5128944017824617, 0.28301053962955963, 0.2940139281774353
0.5192255423574181, 0.27921522873612525, 0.3019876663674633
0.4829026981942274, 0.2721102747961772, 0.32508155497879954
0.4957995655498982, 0.27968763193704427, 0.3064528199321993
0.48499006919775883, 0.2855993750581064, 0.2903403197502003
0.5097209556328609, 0.2839299614813367, 0.2905479969419864
0.4777483423718486, 0.28844229799801413, 0.25261187571007776
0.4637852387363385, 0.28864758201889096, 0.23833440008634654
0.4990073262964335, 0.28802818603985636, 0.22537901799010918
0.47406185494395936, 0.288717388984582, 0.2046414271214183
0.4953671753789362, 0.2886063802161054, 0.1766533622838821
0.4919312097590188, 0.28863397641879407, 0.1600998501563735
0.4751488889320774, 0.28877426675336226, 0.15225782352218498
0.4921886113894236, 0.287916745183871, 0.027209971897167305
0.5012703896858981, 0.28721428965662293, 0.0001881026824494909
0.5239083769900138, 0.2843561787528868, 0.04666586880484673
0.5146630133114232, 0.2855647667678534, 0.017211801307705984
0.47177923079163164, 0.28854663066768726, 0.07909791605718641
0.47376296057718126, 0.2884507298994171, 0.06951143883809577
0.4887832121999652, 0.2885963985332367, 0.1198412241796433
0.4698753375833985, 0.2885830557413176, 0.08240271743743786
0.5093499597849739, 0.28676759115874145, 0.08962041259609722
0.49920006589719707, 0.288187195248873, 0.14863012573821444
0.5257058747946742, 0.2842807877136215, 0.08258784851926876
0.516389275036149, 0.28581554862321845, 0.13689532047065672
0.5235134924330566, 0.2847004538572998, 0.19083680876346826
0.5259202240971508, 0.2832812144810466, 0.17441379447210018
0.5344184918866488, 0.27087054236985275, 0.1999992451077148
0.5343485927351898, 0.2704124212957046, 0.22241377688345093
0.5364210761606429, 0.24902520594757116, 0.22548519292289076
0.5361207843586566, 0.24682438074970547, 0.2886524722183066
0.5363085399568011, 0.23791299734846133, 0.2811937692711061
0.5361290957188497, 0.21747046167235587, 0.29566843090604206
0.5345467814782092, 0.19798484254129836, 0.3220284440977868
0.5045660971452263, 0.18341764085623177, 0.3343626067538086
0.4835380569805019, 0.20853469070632427, 0.3365032235696035
0.4803144087577818, 0.23223912660660193, 0.336471809106698
0.5097133998277763, 0.22938079190374328, 0.3357850182995772
0.46653730787282977, 0.24202511385407594, 0.3363607733554389
0.43781699484118186, 0.25801901522551024, 0.33503112513668665
0.48409306274109437, 0.26377311341545573, 0.33301739961741494
0.37951526991262186, 0.27204009646151056, 0.3260034148180051
0.39529541711215116, 0.2734684680705636, 0.3225816784194282
0.4327849783039716, 0.27372016252325815, 0.32151055984744187
0.38940628506193875, 0.2815786191526587, 0.3033033776645046
0.4510820427421731, 0.28163266321637853, 0.3022551704829613
0.4010221987557975, 0.28554482021277927, 0.29339581684776306
0.45158461542637085, 0.2866974383982298, 0.2847710183568892
0.3983307539023158, 0.2887084751579382, 0.2735964966632106
0.4268002255247366, 0.28880486212505946, 0.25185134922101354
0.4395965546184545, 0.2885221284582178, 0.2731271578858972
0.40299647109290004, 0.2890540169289084, 0.22845906318349218
0.42150916976918196, 0.28904929339064783, 0.21700461656147046
0.45376975168135136, 0.2887842772647693, 0.22774350325547105
0.42013247625784234, 0.28910772948306585, 0.1918472631564531
0.3871617801879437, 0.28926698830620856, 0.17642016527223323
0.46076504403576957, 0.28885969946827533, 0.19218491286214934
0.43487305142202676, 0.2890316144476845, 0.19688704992954842
0.3938786829891172, 0.2892414808638656, 0.170973441334051
0.4002764616058411, 0.28920644571711673, 0.1567686353936235
0.44702744198762856, 0.28897260272138153, 0.1563878140537535
0.44330111103809233, 0.28898235726339827, 0.13596380523067378
0.39610307636526676, 0.2892031611498099, 0.12685809691202665
0.41163233293252893, 0.2890288819327858, 0.10288007939132429
0.39955417757529604, 0.28908512254430696, 0.10340893395816579
0.45646139850717393, 0.2888058572547639, 0.10988569018877602
0.4477856902019494, 0.28881193053492127, 0.0995953783907128
0.42038665874970865, 0.2888156138805869, 0.07170938565874556
0.4303557592544756, 0.28842049462569497, 0.0333353219298409
0.4002589025313371, 0.28869283180457483, 0.04654624233590843
0.46272470829760853, 0.2886082944833962, 0.07788195954800708
0.4405371887524989, 0.28848558871497215, 0.04689751166916528
0.4363049437377265, 0.2880817775821004, 0.009109515941409074
0.40758917751390966, 0.28788196211361144, -0.01676191401618379
0.4065056284968548, 0.2879674698258675, -0.01089162547002078
0.443295920984876, 0.2882459243401985, 0.025045858501024136
0.4453913523802335, 0.28790904883143387, 0.00030920834037945905
0.39827388332559793, 0.2864777363365119, -0.07396033356645226
0.43886027653922155, 0.2851633266764931, -0.10592830825883139
0.43536576801203264, 0.28501816894225807, -0.11037727769525706
0.43741980888815696, 0.28685082341863277, -0.05481025642542282
0.42526782461864965, 0.2872225214958726, -0.04177832509099272
0.4015346929835656, 0.2872236766210692, -0.046081887754769915
0.4702212908289031, 0.2874231022439472, -0.021978873469718163
0.4491920517166589, 0.28725641320501144, -0.03510571545597212
0.46082629308482426, 0.28695161507077777, -0.044914935600158246
0.47820480769051577, 0.2840703638574754, -0.12531184935881898
0.45387728455785137, 0.28346668091936233, -0.13900506018718928
0.4644728790064967, 0.2861017229766105, -0.07576188955257021
0.47176248186355224, 0.2853174976783435, -0.09740592999667107
0.4974288034611345, 0.2837621131318101, -0.12827657414359447
0.4928017048031285, 0.2853566307028058, -0.07245833046124961
0.5029146972869358, 0.2825297840770622, -0.13955307251318144
0.5024840285555837, 0.28648498809294964, -0.02580481009804416
0.5215271878506728, 0.28156464428438466, -0.08447762370016815
0.5232124555669452, 0.2812849657859876, -0.06596984125782009
0.5282110477016817, 0.27978956061730187, -0.036259189527247555
0.5310905653258116, 0.27825544805058644, 0.01731630646717713
0.5348816307096241, 0.2662573927265749, -0.01777761131541588
0.53471808328928, 0.269150280496158, 0.0485572254746242
0.5360360208030537, 0.2544271040709951, -0.00494469676390236
0.5357820989089015, 0.25965157786533005, 0.04978622471679066
0.5361462412836585, 0.25672870836967765, 0.09074591280070499
0.5370069073617044, 0.23956089178911327, 0.07368832223743249
0.5370023926105133, 0.23602386191990773, 0.11056180362798985
0.5369241584909312, 0.23483465553314345, 0.1666585034959906
0.5370443951418368, 0.2219611814950767, 0.11025703492989308
0.5368642952254502, 0.22736100288122335, 0.18782743386514383
0.5368501847872629, 0.20608512846490895, 0.1435296751999395
0.5368002333573095, 0.21189765770392652, 0.1854674203648071
0.5363059592354418, 0.19978980743348584, 0.2411472032153906
0.5359678389073895, 0.19547750480091142, 0.23805496263484585
0.5331428757320323, 0.17547897700396678, 0.23686738667291887
0.5337062832940757, 0.17881064418927453, 0.29175520099560653
0.5302850281813218, 0.1718493043937289, 0.3132710936728055
0.5208700079721013, 0.16914417904927567, 0.3165870710376506
0.4973515794225166, 0.17117576084635028, 0.3271381803594551
0.4384016793964829, 0.17706115789678903, 0.333621641605906
0.49658363167541675, 0.18009286625758114, 0.33403791851270254
0.38951490891344803, 0.18059334286802628, 0.3345879085904738
0.4312016021349249, 0.18344410277036433, 0.3351715092473987
0.3943596164652816, 0.20328666959077346, 0.33742667424819234
0.46030175518486904, 0.20566391429396097, 0.33680044724271635
0.4052904034216335, 0.22521841563771217, 0.33744724411273536
0.36935138557444713, 0.2180311272571896, 0.33782496711959037
0.4372612889436358, 0.23052831521280287, 0.3370604301624268
0.4608172256977736, 0.24374227148506927, 0.336369735782703
0.3664429519346911, 0.24960358673937963, 0.33692529186588527
0.3824020521291989, 0.23804691380148918, 0.33740659142725415
0.39593378721183947, 0.24866245570258966, 0.3367831962709799
0.2847458687382971, 0.26026706009515993, 0.33525386009013713
0.32758340671886294, 0.26325986696752374, 0.33436081831235254
0.2569290385150764, 0.27079194145858826, 0.3280786621276908
0.3445964291625328, 0.26836949186191383, 0.33004943902085737
0.26914807669507035, 0.2739322155763044, 0.32276339994893305
0.2742280420315491, 0.2780433001324663, 0.31303218871856875
0.3643310321540701, 0.2762668291434905, 0.3161896481436197
0.2857910988981265, 0.2802792829552328, 0.3079436501757606
0.27898452235392723, 0.2855734596511095, 0.2960868425607002
0.3566884254537965, 0.28449566841023316, 0.29709697356098497
0.2518345862891851, 0.2877749514582849, 0.28341639836657645
0.2789615079786959, 0.2877237581067295, 0.2832390402323791
0.33663829349166774, 0.2869350354472863, 0.2867113904093475
0.36867011027997104, 0.2870032577229394, 0.285491353695006
0.2686601186452858, 0.2890192951936007, 0.2728679594425592
0.30212525442557403, 0.2892033814607617, 0.2488315738659519
0.3459563431573739, 0.2889850013287711, 0.2616637105802725
0.3707096776913532, 0.28894542571608145, 0.25890454128500545
0.34390157413898265, 0.2890837292351306, 0.2516958310634173
0.2698874608925998, 0.28934051474401934, 0.23498646891201172
0.249031238939284, 0.2894872888818163, 0.21542450195671622
0.3198907433495658, 0.28934465990121466, 0.21957040055170948
0.33797664306220054, 0.28915253065469654, 0.24521672045739124
0.3576346335559744, 0.2892511686537152, 0.21858508905803545
0.2911624648913419, 0.2894360612725411, 0.20886308474732954
0.2938327617856465, 0.28944301187925714, 0.20482873620697808
0.3099682863126568, 0.289442230035892, 0.19319527431424421
0.31931574061134294, 0.28945936631319635, 0.1788319554873187
0.27928465347450615, 0.2895173760480917, 0.1860224931072657
0.33769667587131835, 0.2893487590178319, 0.20502622997284087
0.377409687646138, 0.28927231893026084, 0.1888787183181617
0.37968691071464944, 0.28928892777651577, 0.17673014983492524
0.3088002871835667, 0.28947271091191473, 0.14985598204910885
0.28084146262009796, 0.2895298547867162, 0.15639326616089913
0.2595509481747536, 0.28956628803934015, 0.15189576171580482
0.2648352894991626, 0.2895513884835661, 0.14499507441404644
0.2732652746308938, 0.28953442093797155, 0.14317498554502597
0.3535793310091852, 0.2893627012216684, 0.15732879795777335
0.37926073724850007, 0.28927591251004037, 0.133592714997157
0.3240446118255639, 0.2894382961683462, 0.14656532367297576
0.2734392818295826, 0.2894692354159995, 0.11555360518267038
0.3049647875810817, 0.28938554215661866, 0.11001768383281418
0.31681115115251895, 0.2893121909584435, 0.09842228359505856
0.24771370303338, 0.2894378149096116, 0.09568343016563029
0.2796538991340204, 0.28933802446423834, 0.08737061002119356
0.38644210731299694, 0.2891158888076507, 0.09707644881716962
0.3258152043735136, 0.28941193233928625, 0.1262024655712541
0.3580764224108108, 0.2892624304149509, 0.11255497954509584
0.32669441859420756, 0.28922276933614177, 0.08370907038878446
0.3601896590404121, 0.2891597898966227, 0.09038152372837889
0.32070061966384555, 0.2891399551145991, 0.06899654894234643
0.31973993030878173, 0.28886819592303775, 0.03406543626725542
0.29665434549837977, 0.2889611296936964, 0.04031505567679876
0.2866549322174245, 0.2889195877871106, 0.03360602772110034
0.24948720629724308, 0.2891260540237146, 0.05049075776689265
0.3720698380194998, 0.28885154876630914, 0.053095553750798226
0.34319521177966916, 0.2891088367342064, 0.073646487340036
0.36299384217067204, 0.2887852305582587, 0.04155788325516048
0.32282321359590643, 0.28905862239254887, 0.05937935467115475
0.2813006300715222, 0.28869174061140046, 0.016064523786335893
0.3224297968097623, 0.28847468389114295, 0.006078534123250176
0.26231019013317614, 0.2883994007810793, -0.0051427161547897135
0.2831224471492106, 0.28824510754583393, -0.013276945374072976
0.2795207109432978, 0.2882836597375297, -0.011091426190116604
0.3688607145179805, 0.288577700827178, 0.022921284727798398
0.3973653120438379, 0.2880109750847779, -0.010997743655741625
0.33046248223650815, 0.28814515560539167, -0.014868300125528141
0.3354441205051458, 0.2885429607489655, 0.012872372830104478
0.2962472967154909, 0.28803969042685773, -0.023346442580640947
0.2591052560106688, 0.2881650724395312, -0.02039782932420927
0.2618567927997986, 0.28722091479292455, -0.059645069895961814
0.30489888745789406, 0.28725291148060716, -0.05531898549919702
0.31572920379010416, 0.2871948656630121, -0.056948922833967255
0.3625772085769236, 0.28735647548355653, -0.045625532514336445
0.3619314003378586, 0.287834852441452, -0.02587693258003273
0.3247510106099645, 0.287208042928662, -0.055733094103465566
0.32653391897827677, 0.2876522044302084, -0.037335064611645805
0.28128462687610595, 0.28480542559970706, -0.12225518688345607
0.2456152357190182, 0.2837060580048375, -0.1439430056774861
0.27679558716146857, 0.2836458405858042, -0.1442408156615022
0.27506887526220475, 0.2841456373793823, -0.1349457834450861
0.25951865799181084, 0.28665587613751187, -0.07741336553949868
0.2451586592028246, 0.2856436709141998, -0.10513290188227942
0.30949830755757207, 0.2854054059322598, -0.10951826879943073
0.3200531801963001, 0.28685883745077356, -0.0692851264848162
0.38502649588086335, 0.2853111830840023, -0.10743115987789233
0.36832038925749216, 0.2859658223722701, -0.09057203930987648
0.3527635642824105, 0.2858591350896921, -0.0945894233924368
0.32297395641096294, 0.2861240399304268, -0.0893223481801582
0.3522294545755701, 0.2825081329409435, -0.15865259222427702
0.37034829236246264, 0.2822490746349747, -0.16145004711942668
0.377859420181743, 0.28426412925892786, -0.12909435920574303
0.37859206112606486, 0.28510740075725477, -0.11299200469720641
0.34516566500092316, 0.28329222575716495, -0.14875612390760853
0.3889734307477796, 0.28376230418000636, -0.13790534043548613
0.4204019574429419, 0.28459282432068955, -0.11991250536650057
0.42851549838885805, 0.2840311495752962, -0.12995751094157104
0.40208356122358496, 0.28215010109642635, -0.16146927350663623
0.41115064956750114, 0.2817896046941205, -0.16542259363951953
0.4398759692894093, 0.2826885084687594, -0.15346179912500763
0.45210370655988924, 0.2807772515110996, -0.17579149133340377
0.4041365123740059, 0.27175578863965744, -0.22441653784698137
0.4152367951349096, 0.27964375673939484, -0.18870584414781272
0.4349002655586104, 0.2795973408637974, -0.18860724025310058
0.4579695193180654, 0.27749828742631355, -0.2027070755175902
0.4510441825551713, 0.27592919062442695, -0.21177039842307538
0.4694978889419246, 0.2658024252512394, -0.23635953662040468
0.47294390438907263, 0.2704807488474379, -0.22753415993084886
0.49173725506002774, 0.27125405184599405, -0.22426743916487857
0.5023697822652643, 0.2804751854248558, -0.16604883253617278
0.5105455292477934, 0.28053175425229687, -0.15492387810842626
0.5279759333344718, 0.27555703339930476, -0.17289205199470145
0.5327147506627636, 0.26970511096737143, -0.1658930211070876
0.5344897078590177, 0.26495224571429943, -0.1392553578614848
0.5337545680552968, 0.27234803482707937, -0.06915117579307886
0.5360652982704287, 0.2510830103551477, -0.1042714489498676
0.5364451477905003, 0.24772688510783952, -0.03483631278895818
0.536770436526386, 0.23762412375886138, -0.06689065732434034
0.5366436868030636, 0.24157109550768113, -0.06216940156498268
0.5370806090350807, 0.231822425702261, -0.005368126018714167
0.5370855991058092, 0.22159333433202638, -0.007264129411064306
0.5371053325222336, 0.21968239874841763, 0.0324927427955926
0.5370648935895534, 0.21542809356182113, 0.0014332635747362037
0.5368695018520461, 0.21025706759682736, 0.05903110673204899
0.5368954889441415, 0.20983969295384255, 0.10436854493922562
0.5365201522019234, 0.19895601495097792, 0.06538439148985314
0.5358152509243548, 0.18951572543290285, 0.08570290358327448
0.5363777387981684, 0.19575500253505265, 0.16477985930393174
0.53442569753672, 0.17956312288359577, 0.12319760988101763
0.5351124477286368, 0.18397062865627317, 0.20061387044753898
0.5247634405216175, 0.1690967846561066, 0.15376638864221126
0.5279399550713815, 0.17033343976037502, 0.21560076674801343
0.5173529258869456, 0.16806855061929446, 0.2419429229510352
0.5002552590364407, 0.16753521739817429, 0.22153192677128164
0.49781973160529835, 0.16783371165657196, 0.2756316942282487
0.47707449688138076, 0.16747024680749403, 0.2561889027805314
0.47790802021805057, 0.16760123724449272, 0.2710081511327881
0.44976159622833106, 0.16765224713237514, 0.28779116515871506
0.45606169869299673, 0.1680283675742542, 0.3072016993515823
0.456555080592394, 0.16843727274937711, 0.31744064537260874
0.3919782286840852, 0.1676616664724665, 0.30138935942656214
0.40088313915052504, 0.16836181633951133, 0.32027695663004335
0.39423528600607877, 0.1716781724649684, 0.3280208611437006
0.35192391031452064, 0.16785899470721746, 0.31160223417954946
0.2679076704487782, 0.16859786219222717, 0.3238644778748182
0.35788497246224416, 0.17259679730683064, 0.3292799124237287
0.27486039276377916, 0.1800998911111285, 0.33452657602719926
0.3525712838739021, 0.1850571878411402, 0.33573663577683444
0.34154314593374563, 0.1855554176190827, 0.3358615661996334
0.24629606663994172, 0.19066072306885076, 0.33726780843013043
0.24805497080297095, 0.2046398928852143, 0.3380413723158496
0.33175190138293764, 0.19282630840534543, 0.3372243249509629
0.35814625633943653, 0.2253388753656622, 0.3378236431220352
0.3181018176934714, 0.23259658819789358, 0.3379903857379172
0.174510335951964, 0.21363128311805238, 0.3386450700763788
0.21092358516316026, 0.23070829179944596, 0.3384138265277726
0.30087991657289354, 0.23078096037583434, 0.338098698652868
0.23108313171261, 0.21261512218062037, 0.33855547261052243
0.26099884513824917, 0.22294854508459996, 0.33831762423743594
0.28927259568938374, 0.2516140332563558, 0.3371453845229385
0.1256692730544504, 0.2436808140978663, 0.3380502569369305
0.07818059196390262, 0.24897684639013318, 0.33776087539109906
0.22330013775843593, 0.23509469747034065, 0.33834808643225067
0.2008974164846479, 0.251988892151667, 0.33741150350329185
0.08427593852523607, 0.2588002829257474, 0.3360266902062258
0.193602905857883, 0.2561751251672645, 0.33652392124617103
0.12755149785857933, 0.2724505532033086, 0.32695747993763224
0.2160847056816757, 0.2671267636148447, 0.33164465211797034
0.14520488981387836, 0.2725427966252586, 0.3267637621845294
0.12707678040787687, 0.2769945041020154, 0.3166138834339753
0.15506193053493883, 0.2757903728256741, 0.31918537222568116
0.12652419061949238, 0.2787185310369591, 0.312664552987976
0.12436722253288737, 0.28415300126659315, 0.30128403276111493
0.18866310586547066, 0.2823448128580596, 0.3044469964388581
0.21443430702776425, 0.2807931496179606, 0.30754625299092314
0.10516835072899622, 0.28761906325177244, 0.2871122817483825
0.14266000633283843, 0.2873849738271469, 0.2878353934986908
0.19898939328569692, 0.28864626909383906, 0.2794359435598718
0.20802494855849346, 0.28841434102412244, 0.28059167834536103
0.08175153057293066, 0.28899814921359795, 0.27287270783758644
0.1429623525055846, 0.2892461747682908, 0.2641752039648262
0.12821529620677086, 0.28924476590323267, 0.2653976702928552
0.22069148855469353, 0.28906878789209467, 0.2738946838465674
0.23391063499162354, 0.2892347199987858, 0.25632759802933003
0.0962873302482021, 0.28944712362877123, 0.24871949571311708
0.08766422206979294, 0.28959237754406886, 0.2262821404966176
0.14748660894538557, 0.28951601477049504, 0.23122864365118928
0.09574335666188295, 0.28962972592042413, 0.21923821586711797
0.2099419683319164, 0.28934472204939743, 0.24821665376888538
0.20628822055123447, 0.28953556701223065, 0.2169468168570759
0.20166198098230242, 0.2894738371235505, 0.22795527169997554
0.11063410876210635, 0.28965651688629634, 0.21037002335523508
0.15236531973649026, 0.28961626417897324, 0.21332114845027855
0.10956053166783558, 0.2897223476082892, 0.1873908934905934
0.11194227862457508, 0.28971112129011645, 0.19049959006113473
0.2120671564580548, 0.28960426843596415, 0.19248975330429757
0.23944291980803967, 0.28957395146719433, 0.19077810237730075
0.2180870548184369, 0.2896176784652652, 0.18506695073556362
0.17166633411792256, 0.28960731993312444, 0.20956212025108137
0.1267769308719827, 0.2897479267333576, 0.1732522839324574
0.14529738258347685, 0.2897173033139449, 0.13985383647170027
0.11950584505866886, 0.28974945335952207, 0.16036312173746867
0.12124499960962314, 0.2897392056601068, 0.14228452733142805
0.10380864633005028, 0.28975738022088504, 0.14928970043706305
0.22558587636011984, 0.28960903813744454, 0.13421997394158564
0.19278567517508988, 0.2896725095826883, 0.16723049416278435
0.17204895054159064, 0.28968633956026185, 0.14090710394841388
0.17050160209274295, 0.28968575102576255, 0.1345103976862115
0.17179212406203465, 0.2896958607091778, 0.16228602036995743
0.14202590286868774, 0.2895591055718387, 0.0922331622385026
0.1370556451059831, 0.28957707890930623, 0.09534533723051658
0.1158285961356179, 0.2895976343573094, 0.09574225403546914
0.08190873512773464, 0.2896423960205873, 0.09887223211257631
0.10793352004960496, 0.2895426424009925, 0.08120283458599908
0.2077052462425541, 0.2895414080891985, 0.10545614554407329
0.18824458487722398, 0.28961559821609356, 0.11673099890139702
0.18437994429105875, 0.28956659433997933, 0.10402971882985784
0.17795357271868667, 0.2895498557681965, 0.09849273455088775
0.11888442446590203, 0.2894431636897059, 0.06921536537765573
0.09674232623459236, 0.2894906598223195, 0.07230535127516102
0.13149827898750321, 0.2893681501906884, 0.0618913311804143
0.10247395842544609, 0.2892053853971592, 0.039675468011246884
0.10625026581419261, 0.2892780339276845, 0.04858679339060688
0.2029104562267664, 0.28939819991560567, 0.07477412365339506
0.23819035695773255, 0.2892984269175567, 0.06837941444824054
0.20639804008682425, 0.2892158187946217, 0.054238626778300277
0.1803565657023684, 0.2891181888107581, 0.03893772701932657
0.18011098530394806, 0.28923620085968194, 0.0526468754131904
0.1513480815832967, 0.2889117499714418, 0.018961164948639683
0.15082747671948843, 0.2887715286917119, 0.009736730067827312
0.09627686737424261, 0.2888036549016098, 0.00794818366836397
0.13205979804755352, 0.2884442204979372, -0.013291997470793283
0.11652737515378435, 0.2884859087006828, -0.011765345315182658
0.21446472237749448, 0.2888558603356465, 0.020488226131893265
0.2270411712944908, 0.2888875677797709, 0.023664348339385834
0.21896082824688878, 0.288413303049511, -0.008156079701438357
0.1986951081708802, 0.2884153270832344, -0.00978544671196592
0.17924937385294132, 0.2885100558198777, -0.005262482011088915
0.09672035417204594, 0.28757401694053925, -0.05319571062400499
0.15874241195286354, 0.2882330087904712, -0.0231337658367996
0.16205842754979247, 0.2872692989514356, -0.06316319122463607
0.1644042440046676, 0.28737190139538377, -0.05879166294561932
0.22680053331694508, 0.2880958185294202, -0.025160003292727134
0.23712280192116342, 0.2881541287844136, -0.022155244560353463
0.1833084659426234, 0.28786836633800744, -0.03706045367898008
0.17807947417076164, 0.28726639257957126, -0.062450097577354056
0.17990356303273108, 0.2871789532182192, -0.06600881638209295
0.13119675068940417, 0.28696365634622584, -0.07347003812795208
0.12739911034992935, 0.2864878617871576, -0.08636600940430286
0.13648390150654646, 0.28606084802603216, -0.0974276276580644
0.157329405269723, 0.2856364642052014, -0.10803104067140268
0.13473655383807914, 0.28581734996761043, -0.10395022286628225
0.18535800536760863, 0.28616292933583365, -0.0931144051064981
0.1750134912133478, 0.2858592427041697, -0.10152937723709538
0.23916474862397646, 0.2854500900256906, -0.11052230584685388
0.2303390091313282, 0.2860792414089063, -0.09395740672121616
0.082467820114414, 0.28248100404420007, -0.16219358222912333
0.15066430620507326, 0.2834240067110075, -0.15084507416911355
0.1600719924493696, 0.28144241364482747, -0.17374757172194039
0.08998494236334922, 0.28529479515500694, -0.11691425490855623
0.10496137648365603, 0.2846097797276958, -0.1294691894887797
0.15278156533548679, 0.28360134309997165, -0.14757759973088097
0.1264477092915988, 0.2840075068100913, -0.14039516354971548
0.17423866151869832, 0.2838566835716727, -0.1423159155543747
0.17792108648739977, 0.28440419469289213, -0.13187601416102707
0.22039486759164253, 0.2847873329340196, -0.12376181924709577
0.22601388427414054, 0.28441294608479434, -0.130808082866609
0.18952426332903272, 0.278416806829663, -0.19927317067206213
0.20832806210078209, 0.27826377579945843, -0.20031486068340365
0.23619943537022328, 0.27883365816733763, -0.19606281386218843
0.20531526805218728, 0.2831111052272936, -0.15398041530373652
0.23198998113748312, 0.2826413911463578, -0.15918519059446257
0.22553019115652023, 0.28063389687350826, -0.18249234377472892
0.2675447642816272, 0.28162345706819225, -0.17043018321328335
0.2989337826487987, 0.28246241649643367, -0.1602056810146972
0.29261373259881807, 0.2814338670066906, -0.1722637556004487
0.26061048047999447, 0.27973901624714537, -0.18932909897680955
0.292405958106716, 0.2779507242097401, -0.20206757670314113
0.333157980077345, 0.2780026236822158, -0.20142898473840157
0.36059371939089796, 0.279237020580897, -0.19235608368964593
0.2706538499665497, 0.2705955086036734, -0.2276140977565177
0.2716278801788333, 0.26707259937882377, -0.23410920223575313
0.2788176023761752, 0.275521324632629, -0.21341808580772464
0.3564942753346271, 0.27606783070025287, -0.2120838406233851
0.37066954203503943, 0.2721773147808514, -0.22346129963752523
0.34028453068400233, 0.2662458180862274, -0.23585773246788258
0.3996437022405392, 0.2662516285420426, -0.2358137301912404
0.3844254554153753, 0.2609033761059912, -0.242916194905644
0.32319330788538164, 0.2541135241949445, -0.2467911051525654
0.3574398973015523, 0.2470437768598715, -0.24929246411305728
0.2818714732948838, 0.2500969977823156, -0.24891656478332433
0.2858602289874443, 0.23687134566491488, -0.24953436528702555
0.2753763182491227, 0.24550378606382317, -0.24938232123692985
0.2646605400321799, 0.23279733197864017, -0.24961773451553484
0.24065320981167004, 0.24293207071539322, -0.24946160117781196
0.20249949775885104, 0.2354202819787537, -0.24959237231719816
0.2134611598254048, 0.22736920089748264, -0.24963281152361586
0.1898094584305565, 0.21960545255187813, -0.24963832353589355
0.21114941686196165, 0.20047024590838033, -0.24908638989187104
0.14765590355540853, 0.22026348455416178, -0.2496530746697641
0.08296235034900468, 0.23002726341787652, -0.24969612083887588
0.1619919556766081, 0.21138247067835234, -0.2494771505323355
0.02865388861944869, 0.22003580608585185, -0.2497074492538889
0.004059532518795134, 0.21839901308856574, -0.24971248201970167
0.018400714667197605, 0.2003161974541951, -0.249118765716935
0.009241082504409968, 0.20206037027647292, -0.24920388441104158
0.0456825266828251, 0.20003321058463325, -0.2489425623311781
0.04981920400443844, 0.18394163827505344, -0.22878487460499178
0.03793950771047406, 0.18550629378924016, -0.23267945184099167
0.044609109544445545, 0.17920320604738949, -0.21024805116343503
0.0754882960828312, 0.17684305000328376, -0.1943504098510255
0.0678601779501661, 0.17763108610978545, -0.2003384174363374
0.008217614359073441, 0.17538561823392532, -0.18461378853965033
0.02882800015794428, 0.17294769883552097, -0.1577540767955574
0.02931680712037685, 0.17366828220113206, -0.16596728757459736
0.059025435734883065, 0.17320543686918027, -0.15952266081085328
0.026115135314285335, 0.17057557852130406, -0.11992810924949107
0.045707835443347375, 0.17046284200896, -0.1166426670758392
0.04337571315311055, 0.17137811728696759, -0.13350261434456603
0.0420714664273478, 0.17212988132162466, -0.14716719836317904
0.009560683169077377, 0.16946590705523545, -0.09546230753710536
0.026407231457611376, 0.1691616647775975, -0.0857899887455943
0.07197999192912219, 0.1702214872774372, -0.11032926852039751
0.07279686624721812, 0.16926692439087898, -0.08491932887439826
0.011677037432861302, 0.16795052780528957, -0.045786459962647616
0.05628465219543705, 0.1676215841941289, -0.027926231113555022
0.03932422330634208, 0.1674716068701233, -0.022975226881564708
0.07240953719820191, 0.1677623820870933, -0.03239426944240397
0.05962435546324671, 0.16827528991707802, -0.05477009399543077
0.0780385219057213, 0.1670162697013196, 0.011440405472904671
0.06537049979551504, 0.16705202455539975, 0.007700395406588591
0.08233721268141495, 0.16696440741183405, 0.015357903389456796
0.0018562197421751706, 0.16677114248684, 0.019263880729530433
0.0041884068415709505, 0.16703365908359863, 0.001223680020142049
0.017600875526176302, 0.16727344894628118, -0.01367429702068916
0.05678904115242649, 0.16657609813994775, 0.047385259746801314
0.03392717742526512, 0.1664273272216782, 0.061280949478123965
0.0028716707961411138, 0.16649931651589633, 0.04650887146234968
0.015191730651751164, 0.16643091739756155, 0.057491163308579965
0.0038221963378518038, 0.1665714342729634, 0.037708801583138885
0.05597311313121042, 0.1662183780098398, 0.10098976987429392
0.07696145088278032, 0.16633390387715163, 0.0792065904680956
0.001303765807842752, 0.16624847636749815, 0.07848394343928818
0.016883788097287758, 0.16620490722878734, 0.0933377165885696
0.07698801581922685, 0.166127378878975, 0.15845662140593167
0.06311403682298924, 0.16611177895465512, 0.15933289958129843
0.02413633566199367, 0.16606718270436052, 0.16331809473256606
0.055553319861562894, 0.16611955485775004, 0.1261115605489616
0.029926594186388048, 0.16608585191951136, 0.13683912031238668
0.050427874458823435, 0.16616300355225316, 0.1958259353805816
0.04128471797876287, 0.16618914801474116, 0.208864697763909
0.018948637281828745, 0.16612215749433393, 0.19238388332615797
0.007721934803491907, 0.16615606556971094, 0.2079921803329057
0.07167289456552466, 0.16643186009497166, 0.2474587908216345
0.012907120141115802, 0.16637365261392556, 0.24697225415877622
0.017534607316741058, 0.16630808703970965, 0.23515578199432982
0.018774337346152865, 0.16621090298648813, 0.21841723028542298
0.021572999320750956, 0.16649027513866657, 0.25675890972525894
0.06947598837575583, 0.16653848854870462, 0.25671274999243454
0.0653173212721134, 0.16858322413028692, 0.3148006112268941
0.008884808794410564, 0.16783505348045555, 0.31793817156808596
0.11547059985716523, 0.16730461559028045, 0.2953626829018634
0.002680559179939029, 0.16692453090699577, 0.30223780599269323
0.06272428987686939, 0.16689704925378537, 0.2815920027475433
0.035015781696604874, 0.16672796111747598, 0.2762887618243265
0.16234536295841406, 0.16700516433745455, 0.2862398889075234
0.2035282220229957, 0.1670177677389239, 0.28545362768814525
0.09961008528923643, 0.16713035428989154, 0.28948699174157766
0.1254527277030469, 0.16695514294403374, 0.28450197241189884
0.09823559479397467, 0.16675727802210605, 0.2737044678056584
0.15946859760042398, 0.16678387808850884, 0.27341200405206306
0.10215266675881654, 0.16651612851870293, 0.2528524373693537
0.27321567616707165, 0.16685327787057608, 0.268272482234048
0.31042291359019436, 0.16678314155455903, 0.2552480942088256
0.1996679984156384, 0.16672588562358676, 0.2644270048714058
0.18486316812178727, 0.16673150775784623, 0.26625075941014137
0.2335909708197297, 0.16682212045456551, 0.27050639465865306
0.21068621899322493, 0.16653096019326213, 0.24291715784182893
0.19563386041707392, 0.1664337574747499, 0.22910778689175446
0.2311926096048549, 0.16647277596512158, 0.22896673565001152
0.23375007727396538, 0.16639477791928628, 0.21457905765489313
0.3524741174061221, 0.16674876978272304, 0.23804843133993486
0.3760736706004386, 0.16673870833987264, 0.2244716973166606
0.24688730192631564, 0.16657783513900865, 0.24409576590844984
0.30702176422924193, 0.16666722827494831, 0.24237369419925575
0.28329188096705993, 0.166517163279722, 0.22272930309796518
0.29732594038647936, 0.16647079928998992, 0.20677859834495319
0.2749200966874753, 0.16642349936828077, 0.20153381689164646
0.2974209504336518, 0.16642351953611467, 0.18456349011817874
0.2893331508652892, 0.166383910064427, 0.1750333086978076
0.40749363532343896, 0.16677769989408495, 0.2062237082266699
0.3920729520360493, 0.16670979951093537, 0.20275409351657947
0.35620126764970866, 0.16658121396373327, 0.1930208850104747
0.33592722543286946, 0.166553344231055, 0.20785436785803343
0.3532199716373598, 0.16656971966294412, 0.19149666915374522
0.3454641297225064, 0.16651788928302455, 0.15910478518665366
0.3348583661873097, 0.16648194806596067, 0.1667831369200344
0.3320195529650979, 0.16649006671873007, 0.14538584489184642
0.35116720092519443, 0.1665421730553218, 0.14814166452872304
0.4511763154219189, 0.16695449891264036, 0.16515096045728422
0.43992669606843793, 0.16690004224461943, 0.15097642214051354
0.39264177577295833, 0.16665814470272033, 0.17092461904437595
0.4049351012945003, 0.16673863874727585, 0.1306099777169839
0.3962891483267375, 0.1666901156301069, 0.1481745636646553
0.42124327055866284, 0.16696819366281515, 0.09514558849642284
0.39592324903091725, 0.16679091263584997, 0.10811953660437128
0.4828289220664951, 0.16727464815817766, 0.11781103709638402
0.46822067007805324, 0.167270517001411, 0.09090253741686648
0.449051012551699, 0.16698772226524689, 0.12541571395401904
0.4401091922045006, 0.16711096500210001, 0.08708914742150009
0.46170409926866657, 0.16741474573437148, 0.06397661431837481
0.45494190852253225, 0.16760847690912975, 0.035311736629868216
0.43893416668973856, 0.16743438172491065, 0.04310788250285984
0.49436405975392694, 0.16791248085431731, 0.036965607860051534
0.4733440970570705, 0.16747295836020581, 0.06716906650100173
0.48564470201978743, 0.16818354188116236, 0.010354576716050464
0.5163937431034328, 0.1684906124779088, 0.030560128840633815
0.5070437689246862, 0.16844048916778626, 0.013501171754750376
0.5081877639310142, 0.16979111729100593, -0.059742560158107055
0.5143238601585173, 0.1691513822164911, -0.02208480074369225
0.5172866381411025, 0.1715731514080085, -0.10788321583172442
0.524770956006088, 0.17109971076462852, -0.07085315152216888
0.536024887566409, 0.19855467991964942, -0.13868396565000127
0.5330130560786654, 0.17728303596674772, -0.11775352219961155
0.5364330925286761, 0.21063152912919958, -0.1629480161998662
0.5353833742978136, 0.20231299639178546, -0.20646921075535402
0.5361184993368998, 0.21202603962465502, -0.19292671498536323
0.5362104859125534, 0.23285361600302376, -0.20752879319477968
0.5305353581214619, 0.22878162400986746, -0.24554381907698622
0.5045890626874768, 0.223486565856347, -0.24959452609357763
0.4586225457921596, 0.2464327749464298, -0.2493580029890824
0.4931809190418158, 0.25226536058517834, -0.24765575792854042
0.5120099313494524, 0.2726312896207821, -0.2141159125943753
0.5234691679800335, 0.27196647149304354, -0.2087394340633393
0.5343375312844563, 0.2552331785631333, -0.21902966805617394
0.5358617695654779, 0.2485684371921622, -0.1766326463076669
0.5364327382559613, 0.2383684771172681, -0.16117609981854317
0.5365821678866831, 0.23869395357711684, -0.13762817673641606
0.5367678812579711, 0.22718823616246647, -0.14651119281818642
0.5370041636684703, 0.22506007944980366, -0.07551243666134334
0.5364408142970873, 0.20435783626667173, -0.10216823480829836
0.536643597290279, 0.2070371818161844, -0.030495156190748784
0.5353805179640607, 0.1902422965195285, -0.0749701759050353
0.5351885684829758, 0.18742397522834325, -0.047476900521146045
0.5343987688429113, 0.18260647634072014, -0.04112465790883105
0.5342269280093634, 0.18073188024477824, 0.0019847939930539137
0.5338713217594901, 0.17785736261851035, 0.0661325495813555
0.5296356568422722, 0.17123464135032773, 0.07662887787785785
0.5263955328369667, 0.16989651660753197, 0.1016733770527452
0.5194763795182498, 0.16852876463553176, 0.03897623492261341
0.5118563097009755, 0.1676906220185273, 0.17058602188885189
0.5005523508288333, 0.1676139378668279, 0.08821610284928116
0.5017557367519478, 0.16747670453908592, 0.13114983201663247
0.4766245704257191, 0.16712617355978449, 0.17200867612409365
0.47044569917072476, 0.16709732789160184, 0.1550234386952124
0.47862180052028674, 0.16719264282570723, 0.1966188208946832
0.46913897334738675, 0.16730300613044174, 0.2403797261574015
0.4865422127683274, 0.16731786338450094, 0.21600484547003154
0.43013691164926776, 0.16685830828192572, 0.198369472464887
0.4530432160114284, 0.1671675626348095, 0.23664995753789259
0.4397652463646785, 0.1669788847723262, 0.21871929300534362
0.42722174599354146, 0.1671658845760864, 0.25658260330973404
0.39935845191803376, 0.1668905667733674, 0.23644251382062825
0.4131896243035602, 0.1668387805953117, 0.21727298391079752
0.3823580233451099, 0.167086593558279, 0.2673132666444369
0.38190782418205227, 0.16735482275144575, 0.28690517960765427
0.4161966787136551, 0.16730965522593166, 0.27469419237361736
0.3275559753605589, 0.16685451740304008, 0.2587630242086836
0.3519065884287971, 0.16680968475195118, 0.24745736925987227
0.3205672590870521, 0.16698246475511647, 0.2733475984550172
0.3629964388160838, 0.16754906828813376, 0.29979941648842284
0.2762874072320158, 0.16710241328146264, 0.2849549064371667
0.291756844900034, 0.1670559457589087, 0.28073892043500004
0.2764806220484835, 0.167585349982856, 0.30801394309498775
0.2914757944443047, 0.1674714079029621, 0.30247821303758193
0.2373081911796259, 0.16764963673114222, 0.3106480577595939
0.1607700947819828, 0.1675064342624218, 0.30700008404748597
0.20763311254586544, 0.16737574533771837, 0.30220045560267045
0.18125953069282122, 0.16756852873892442, 0.30898122951211326
0.08660972848438304, 0.16899834553986748, 0.3195848295778707
0.1419573510643045, 0.173578449435722, 0.33205175480952565
0.2108165477116459, 0.17060913905854916, 0.3269685764129539
0.1731879984569814, 0.17099957785219191, 0.3275362851013331
0.08448539271245692, 0.1759654767291664, 0.3324353643725881
0.21882521250717973, 0.18721447465294366, 0.33658783850794005
0.17429152492587247, 0.18307301841978924, 0.33540855707751216
0.20421962865429485, 0.1998408237589429, 0.33784819683011724
0.1574149781584068, 0.20184724663372816, 0.33805861171664053
0.11944696789080371, 0.19098197092052446, 0.33724973550006854
0.10376795578295651, 0.2057639074869663, 0.3383119352307452
0.1310888405376592, 0.21375925942690027, 0.33869880855566903
0.08159257582926763, 0.230447558329027, 0.33868867534951447
0.06579956911815005, 0.2069117008900479, 0.33847278608062104
0.04973540487475391, 0.1930810212842228, 0.3373092528508429
0.014421719790498402, 0.22950488306950914, 0.338809377375201
0.05223719581267946, 0.21354667519467369, 0.33875813204532434
0.046852106902092704, 0.24393473406909105, 0.338129614578765
0.0005289105537574928, 0.24688350695052091, 0.33803068127535063
0.02251860920828236, 0.26350189324579204, 0.3349110285356886
0.031048629750665094, 0.2712826940823536, 0.32850807001525495
0.005276563660856725, 0.2731107883171486, 0.3264371650486426
0.0009787973148528768, 0.2802894662173657, 0.31112541724687776
0.07108237445636993, 0.28538228999107806, 0.29950043201508414
0.06230233954306451, 0.2865922117693375, 0.293590182540303
0.008783062846414138, 0.28641794394683356, 0.29574616086417915
0.07526412476084494, 0.2893768137133196, 0.25442904523905285
0.004144534513251746, 0.2891867546766158, 0.27298148244935483
0.0565054702426281, 0.2894117067211396, 0.25419726360533695
0.07828267804357562, 0.28952700070159443, 0.2380751906097795
0.04165110600314418, 0.2895881870628859, 0.2337120631386055
0.031918661719681524, 0.2896565109248124, 0.2237743098462844
0.06267592083137688, 0.28974457503259204, 0.19394495170991866
0.07334925737398917, 0.28975208968466964, 0.18820421211078758
0.04165788422824308, 0.2897673152808405, 0.19244596907554157
0.055140116731265516, 0.2898139499165695, 0.1730796331236275
0.008924075571449233, 0.2898523833684548, 0.1747615926496757
0.0512469436807078, 0.2898124206018184, 0.1632046463463563
0.04442346695272137, 0.2898177902042427, 0.16135695303167896
0.03910030366492258, 0.2898115884937622, 0.13745608994775138
0.04778383554977886, 0.28980230119944084, 0.14109803282266273
0.04026596597434978, 0.28976467177698373, 0.11601968445140073
0.05484036930008379, 0.2897409171235503, 0.11455499438647204
0.03164331808030104, 0.2896946758075112, 0.09659006452557976
0.03331003181817592, 0.28972254732081837, 0.10408502301820172
0.03655329875808043, 0.2896716175708507, 0.09250090589169042
0.07957710791312105, 0.28924323687729625, 0.04132551069318374
0.06930820990142181, 0.28938353283335194, 0.05613688624561372
0.008710807917803773, 0.2893193734560344, 0.03612187210204593
0.007599385551265447, 0.2893313296538967, 0.03739598788097764
0.007895307338117502, 0.2894820891024378, 0.05662926112918913
0.057986475601648366, 0.2891327328915546, 0.025872597978328853
0.012142530801961985, 0.2889797124105824, 0.009475065107384238
0.07867635211910864, 0.2886615276524953, -0.0034610759307399236
0.08221034805331266, 0.2887362349822398, 0.0020766430862657823
0.017192172354760848, 0.28857369093703084, -0.018113239908188535
0.008480177303735572, 0.287739378204338, -0.055455592901382154
0.031784715888784516, 0.2883225004602934, -0.028213407506945197
0.07475325345542562, 0.2881030815810513, -0.03335453491519641
0.07518237414846293, 0.2874030615440184, -0.061885224601695946
0.029080373515282094, 0.28746926229342656, -0.06446839278507446
0.016609823281823862, 0.2869542274074298, -0.08056785752956114
0.006788993462027254, 0.2866962709939835, -0.08855996140020087
0.0672964129164666, 0.2866509411277114, -0.08470789337703212
0.011153555778236388, 0.28607736617703683, -0.10553322262874228
0.04475175372413028, 0.2859816571793572, -0.1048609561856849
0.012887635522647871, 0.28582413118379696, -0.11184981999020195
