-0.37752925580725694, 0.1543046911346076, 0.0027380886022001505
-0.37225975557224605, -0.03231297353655872, 0.0027380886022001505
-0.365054012638918, 0.0539770642820982, 0.0027380886022001505
-0.36284880883836496, 0.26336143035034965, 0.0027380886022001505
-0.37043452741403216, 0.1844808095528861, 0.0027380886022001505
-0.35052300616319665, 0.33922807974955155, 0.0027380886022001505
-0.35487405071879874, 0.15814992319679086, 0.0027380886022001505
-0.3716970043784147, 0.12015603370118219, 0.0027380886022001505
-0.3615609390525327, 0.04843867666177575, 0.0027380886022001505
-0.35855645734064956, 0.12219176793702105, 0.0027380886022001505
-0.37454060967884373, 0.25078241106740545, 0.0027380886022001505
-0.3779028022488313, -0.21385040275588701, 0.002738088602200151
-0.37642977260487553, -0.14210696179297289, 0.0027380886022001505
-0.3772056523438527, 0.15801355389308586, 0.0027380886022001505
-0.36061756227702396, 0.30918795321398906, 0.0027380886022001505
-0.36167945026587445, 0.063196206988472, 0.0027380886022001505
-0.3546673852379663, 0.35447463116121686, 0.0027380886022001505
0.3803854766155986, -0.09872634100228225, 0.003942450982510254
0.3805974181547403, 0.20552746564637428, 0.004415898921131955
0.3805090557289233, 0.2460468649207636, 0.004212749371365869
0.3803848485726968, -0.13026655287903377, 0.003942102483840014
0.3805060769850011, -0.006135495738692161, 0.004214627236460168
0.3802411444883678, 0.3694127805187232, 0.003596790645093503
0.3809999823570251, -0.23877395992087258, 0.03151789536503149
0.38099998235702515, -0.1868622740590747, 0.025114672258113167
0.38099998235702515, 0.0823802806871143, 0.008757056047279698
0.38099998235702515, -0.19697020722355024, 0.024689669885796257
0.38099998235702515, -0.30467273370006714, 0.031464250383943515
0.38099998235702515, -0.2559404141278112, 0.007674731200178997
0.3809999823570251, 0.18621097704420597, 0.005422151245417077
0.3809999823570251, -0.20824294395684062, 0.02912722791117983
0.38099998235702515, -0.1572611080495839, 0.015149009950292214
0.38099998235702515, -0.13665639105361266, 0.015234561143437755
0.38099998235702515, -0.22328086437590536, 0.016847487125458194
0.38099998235702515, -0.3724322380073675, 0.03552025032384518
0.38099998235702515, -0.2801671035650847, 0.02762358281731472
0.38099998235702515, -0.0011292595616296391, 0.011051925705220003
0.3809999823570251, 0.013283784942119736, 0.013047221798702794
0.38099998235702515, 0.0983744619505239, 0.007674140177495231
0.38099998235702515, -0.04019736591998162, 0.014066510662083509
0.38099998235702515, -0.12072434484905566, 0.026738198430369783
0.38099998235702515, -0.23169615625052753, 0.02258971996312755
0.38099998235702515, -0.05908833796373905, 0.018714581474031322
0.38099998235702515, -0.28382046151540646, 0.03193500012491206
0.38099998235702515, -0.3675430123693357, 0.006677918478457638
0.38099998235702515, -0.006938475648222989, 0.01568621823001906
0.38099998235702515, 0.11065136963314341, 0.016897127143093632
0.38099998235702515, -0.25936435999159674, 0.017171083344811953
0.38099998235702515, -0.08619958235671618, 0.008628725417779514
0.38099998235702515, -0.04446163437554082, 0.009200087639266639
0.38099998235702515, 0.20961738629124096, 0.011368778663525541
0.38099998235702515, 0.05687036110255486, 0.011084089254146688
0.38099998235702515, -0.3684825075769808, 0.0069132198829676555
0.3809999823570251, 0.1127131005881173, 0.010741882582229701
0.38099998235702515, -0.3757723194720459, 0.031776650253923004
0.38099998235702515, -0.2850581165046964, 0.027243627845189734
0.38099998235702515, 0.20914613982681596, 0.010001224962350525
0.38099998235702515, -0.3321168650745503, 0.023565442324484574
0.38099998235702515, -0.053424564114855536, 0.01813371411503077
0.38099998235702515, 0.292194462991148, 0.006666137978131817
0.38099998235702515, -0.0005447606821881949, 0.020422883916549367
0.38099998235702515, 0.2364479313795155, 0.007292615024634292
0.3809999823570251, -0.2585529080635571, 0.028837559765406612
0.38099998235702515, -0.13490782573485685, 0.007103875669242138
0.3809999823570251, 0.025373649810163365, 0.015527358452312193
0.38099998235702515, -0.3575352110168004, 0.036101958789226285
0.38099998235702515, 0.13522839156460492, 0.005403560719816028
0.3809999823570252, 0.024311422010697734, 0.009908010183912068
0.38099998235702515, 0.1815395288449547, 0.009335553860390752
0.3809999823570252, 0.006459151955319875, 0.012876319387427638
0.3809999823570251, -0.29435196023707183, 0.032415482753964886
0.38099998235702515, 0.12134314768975604, 0.012585218498562686
0.38099998235702515, -0.19529858609700484, 0.022702282613195332
0.38099998235702515, -0.3239183545751736, 0.01049815053664118
0.38099998235702515, -0.3081640923729354, 0.010162989552190608
0.38099998235702515, -0.2430864669971897, 0.024707494955458625
0.38099998235702515, -0.2262186757351065, 0.0257069450682536
0.3809999823570252, 0.29434963452326557, 0.00553279860919674
0.38099998235702515, 0.08987909810249423, 0.005425484716864437
0.3809999823570252, 0.0034206821720939307, 0.014282734902433036
0.3809999823570252, 0.2573528771858904, 0.010305463274820424
0.38099998235702515, -0.11843505884900621, 0.01973761391551425
0.38099998235702515, 0.04683353813352603, 0.005962687744691636
0.3809999823570252, -0.36387628185955595, 0.005684721550226198
0.38099998235702515, -0.006362314022583582, 0.01472798226318929
0.38099998235702515, -0.32980419199169353, 0.006238796993117523
0.38099998235702515, -0.06825041379945979, 0.011563112861520619
0.38099998235702515, -0.30760607000620727, 0.010166619773177779
0.38099998235702515, -0.047289384988949065, 0.011248430037551622
0.38099998235702515, 0.04783084456560527, 0.005567434968662586
0.38099998235702515, -0.05948383557456975, 0.018626027043673655
0.38099998235702515, -0.09352767402921895, 0.016017770132540042
0.38099998235702515, 0.06369785714734606, 0.01077548623157339
0.38099998235702515, -0.3485550283327055, 0.03194366661500748
0.38099998235702515, 0.15051099948008556, 0.008358479315153888
0.38099998235702515, -0.18558853206631556, 0.028208222754013714
0.38099998235702515, -0.21008109390260457, 0.026173116194393137
0.38099998235702515, -0.3045057002372175, 0.031745591961897114
0.3809999823570251, 0.03950752471247877, 0.016114712818315384
0.38099998235702515, -0.08167062425068503, 0.007405839185885181
0.3809999823570251, 0.18803944167872844, 0.010039703225891495
0.3809999823570252, 0.06941833269626094, 0.01410641584589048
0.3809999823570251, -0.36106956912851057, 0.03339461191182022
0.38099998235702515, -0.058290483174879726, 0.018848169383161566
0.38099998235702515, -0.29660890949635293, 0.01797014754493135
0.38099998235702515, -0.03520098547878103, 0.015888667046948794
0.38099998235702515, -0.08789288074920105, 0.015154362183461185
0.3809999823570252, 0.0425749972796321, 0.016270901650046122
0.38099998235702515, 0.08013453284999834, 0.01616733102245807
0.38099998235702515, -0.3567369343489049, 0.010867627023870077
0.38099998235702515, 0.07173353314599612, 0.005376444794278287
0.38099998235702515, 0.07132796366776584, 0.015609185087953168
0.38099998235702515, -0.04181512628945781, 0.014877948245157393
0.38099998235702515, -0.12377390554643997, 0.023364280112577594
0.38099998235702515, 0.1399856832835133, 0.014376783520633356
0.38099998235702515, -0.09783776689602283, 0.012691451594538817
0.33129481626850255, 0.3809999823570252, 0.012761965718361922
-0.09669453562110966, 0.3809999823570251, 0.028331906690612807
0.1421566948232691, 0.38099998235702515, 0.02197593635373918
-0.06808830339983105, 0.3809999823570251, 0.02899335661856851
-0.0781955488612143, 0.38099998235702515, 0.029172247487951566
-0.04136977656825913, 0.38099998235702515, 0.03546419088709335
-0.14014485296948884, 0.38099998235702515, 0.030277150629631242
0.1440393995367345, 0.38099998235702515, 0.03368689748340355
-0.05765425354512119, 0.38099998235702515, 0.03068397073880244
0.18310136369127356, 0.38099998235702515, 0.02253930138790894
0.3018151584227379, 0.38099998235702515, 0.023567363513715613
0.26925873696677244, 0.38099998235702515, 0.018810935205773538
0.2772784147213184, 0.38099998235702515, 0.024131632795105554
0.07650036777040191, 0.38099998235702515, 0.02035406784405487
-0.2960242598414229, 0.3809999823570251, 0.03737714836205717
0.37321692309058574, 0.38099998235702515, 0.013415672781745663
0.3674950891085501, 0.38099998235702515, 0.013366880649302878
0.3656925121852873, 0.38099998235702515, 0.02084332765732321
0.19725806870875012, 0.38099998235702515, 0.029825645766992703
0.11107546310864388, 0.38099998235702515, 0.0199889593382089
0.2751061276668424, 0.3809999823570251, 0.033912132723349454
0.011066878274711603, 0.38099998235702515, 0.030896081742480718
-0.13098003676639186, 0.38099998235702515, 0.02818064234059299
0.2097331374838812, 0.38099998235702515, 0.022889998045475455
0.10835052019578492, 0.38099998235702515, 0.01871107610710517
0.13286533799809672, 0.38099998235702515, 0.03425270798565219
0.3398355834613205, 0.38099998235702515, 0.03143717287012531
0.01512984076909707, 0.38099998235702515, 0.03569016224387393
0.09320840434939881, 0.38099998235702515, 0.02531292827233647
0.29707688089116063, 0.3809999823570252, 0.017252414970843014
0.3125134144060383, 0.38099998235702515, 0.028154242542804755
0.17172887256225294, 0.38099998235702515, 0.029104487136866274
0.015738013383395463, 0.38099998235702515, 0.031600346965857236
0.12996072094426298, 0.38099998235702515, 0.030260250669441574
0.06545544082556493, 0.38099998235702515, 0.030484417153644874
0.348010648489674, 0.38099998235702515, 0.0285146638508433
0.2753348328055837, 0.38099998235702515, 0.028549640805516932
0.11667302050388774, 0.38099998235702515, 0.02431711073867436
0.24385154319320007, 0.3809999823570251, 0.014030657181531828
-0.21107216199215084, 0.38099998235702515, 0.03620258927718962
0.24472269874219546, 0.38099998235702515, 0.020179510089471824
0.11295012421549987, 0.3809999823570252, 0.022594530773775715
-0.08550751623125093, 0.38099998235702515, 0.03576148542508019
-0.12281215113058518, 0.3809999823570252, 0.03403904261343746
-0.03696865564572459, 0.38099998235702515, 0.024970876953006354
0.03376861471137808, 0.38099998235702515, 0.023924626944903164
0.28143829509808693, 0.38099998235702515, 0.014154395621909309
0.21023306926165075, 0.38099998235702515, 0.03148884204128048
0.09090397363789131, 0.3809999823570251, 0.024812153315801527
0.16452039563738724, 0.38099998235702515, 0.0381359764335121
0.2404245886574327, 0.3809999823570252, 0.01244483813833861
0.36755475187044256, 0.38099998235702515, 0.022037688711363117
0.2433914025937871, 0.38099998235702515, 0.02214585154281843
0.3396477700715377, 0.38099998235702515, 0.031877346863731434
0.2538221553896893, 0.38099998235702515, 0.029657202540524525
-0.012451833073151744, 0.38099998235702515, 0.027582087817788856
0.29559089417158063, 0.38099998235702515, 0.015095917220593578
0.09590019146695333, 0.38099998235702515, 0.025783848112917573
-0.2648727507738481, 0.38099998235702515, 0.036866943106997424
0.088779666913353, 0.38099998235702515, 0.02631828577835474
0.1870151165837201, 0.38099998235702515, 0.01749108940852431
0.22706325434005087, 0.38099998235702515, 0.01457726415305025
0.12011770769228478, 0.38099998235702515, 0.03754631692001327
0.22848780210208208, 0.38099998235702515, 0.03764264949559562
-0.16884619267271392, 0.38099998235702515, 0.0337245660890114
0.156250365298495, 0.38099998235702515, 0.022723079881678244
0.008239473345812681, 0.38099998235702515, 0.025282511909391184
-0.09638520544470854, 0.38099998235702515, 0.0351677395423028
0.19551793528299377, 0.38099998235702515, 0.022719172862406895
-0.1572791714403935, 0.38099998235702515, 0.035498729260915934
0.1149411326130076, 0.38099998235702515, 0.029257007512923164
0.2910782343226124, 0.38099998235702515, 0.03370540971477039
0.3021228954679488, 0.38099998235702515, 0.024651583161496134
0.011473145128952637, 0.38099998235702515, 0.025909786938509913
0.33924310186515616, 0.38099998235702515, 0.015207534880607193
0.05364461889285242, 0.3809999823570252, 0.024313106855873103
0.05352078838576571, 0.38099998235702515, 0.024450295055598727
0.22551521258780152, 0.38099998235702515, 0.033629834923749956
0.3344919035189394, 0.38099998235702515, 0.018426224798976647
0.29479732540106257, 0.38099998235702515, 0.030354939774223776
0.34451158241068947, 0.38099998235702515, 0.01468327583346397
-0.1443647471702868, 0.38099998235702515, 0.03499317602224674
0.08505292696072679, 0.38099998235702515, 0.03159890816929395
-0.0356128967403068, 0.38099998235702515, 0.02446967790677999
0.28261401731972985, 0.38099998235702515, 0.03389956622483086
0.10649270982719851, 0.38099998235702515, 0.02216349482743784
-0.20768360636502037, 0.38099998235702515, 0.032607210151152755
0.3599816703399228, 0.38099998235702515, 0.02992043044950248
0.16483895843982377, 0.38099998235702515, 0.017339589318038116
0.09636515159599522, 0.38099998235702515, 0.019328604276027162
-0.14170413649822677, 0.38099998235702515, 0.03430201658318302
-0.03857291786915226, 0.38099998235702515, 0.0327718323811736
0.37972994645355795, 0.3804407136415865, 0.006541531258499187
-0.16176558157949272, 0.380309674218037, 0.03980487720698477
0.10645349268570498, 0.3804530439442515, 0.039458759862725706
-0.0037513241391096616, 0.3805418478644047, 0.03924437034018492
0.2375015194326028, 0.38067265908286, 0.03892857119884793
-0.07979727603796127, 0.3802973509820492, 0.03983462849479076
0.3767892508792444, 0.38051493944080156, 0.039309335801814546
-0.03416168871216406, 0.37943450212978136, 0.04036825888439244
-0.15448634360586022, 0.3800241624735754, 0.040124010774525834
0.08816001370935275, 0.3793766171475435, 0.04039223699203357
-0.25164924993988863, 0.3800449046139817, 0.04011541808509423
0.2717717313221849, 0.379714884099342, 0.040252123115471196
-0.08544057753180243, 0.38055308416592265, 0.03921724346390323
-0.32746595807696577, 0.3809835378616291, 0.038178055837732344
-0.30488235689263965, 0.38044587890109083, 0.03947605500573624
-0.20707049972671548, 0.38078703286537535, 0.038652451951935694
-0.3199328282067394, 0.3806551440788513, 0.038970853667041304
0.1614105819946014, 0.3809137996559817, 0.03834641559652411
0.1266408724587573, 0.3802784285029412, 0.0036989922455902416
-0.1257683274190954, 0.38043005830300824, 0.0040365166567931645
-0.32000482121634816, 0.38032037456230383, 0.003779394504772826
-0.1890582832939952, 0.3803396003807686, 0.0038277988549808477
0.018819279110868337, 0.38028897219924046, 0.0037193555229129084
-0.3060349508933816, 0.3808963469017213, 0.0050949740535323595
-0.045688189675240395, 0.3809999823570251, 0.02332490990454467
-0.3242406394934681, 0.38099998235702515, 0.02713546039561635
-0.28035321919326267, 0.38099998235702515, 0.027201219409777554
-0.33998821093897086, 0.3809999823570252, 0.008596774165862447
-0.24879986691042888, 0.3809999823570252, 0.022896020343814494
0.06344212226552123, 0.38099998235702515, 0.009590682616941881
0.3018518327660562, 0.3809999823570252, 0.007940702821926033
-0.12049621566083431, 0.38099998235702515, 0.015148761483516883
-0.23997984042763693, 0.38099998235702515, 0.013239336166063617
-0.37813395926212656, 0.38099998235702515, 0.030435150503436963
-0.24401058452867797, 0.38099998235702515, 0.009048445522015686
0.010245212679730642, 0.3809999823570252, 0.020223930352179183
-0.1277192727555421, 0.3809999823570251, 0.02292525160324746
-0.13443642897934333, 0.38099998235702515, 0.02377434520843936
-0.16801774830351168, 0.38099998235702515, 0.02278766626574094
-0.36755490443314065, 0.38099998235702515, 0.0136703203889551
0.033836848381853996, 0.38099998235702515, 0.008224086781712714
-0.3696256620256634, 0.38099998235702515, 0.01891167854055513
0.32055791410656, 0.38099998235702515, 0.007034628392964469
-0.1651604201486842, 0.38099998235702515, 0.023032984546276725
-0.26757882617178774, 0.38099998235702515, 0.020189695684098546
-0.3230700205713105, 0.38099998235702515, 0.00613179398650608
0.3366611201388285, 0.38099998235702515, 0.006098163498636507
-0.309222910872077, 0.38099998235702515, 0.03346752051885173
-0.18238189743719724, 0.38099998235702515, 0.013546460837366592
-0.2380651585024186, 0.38099998235702515, 0.006438009827061859
-0.13169813374096184, 0.38099998235702515, 0.018338007686343326
0.11330178551819817, 0.3809999823570252, 0.01223990034211651
-0.29237753395939037, 0.38099998235702515, 0.01583558227832972
-0.296226887305031, 0.38099998235702515, 0.014304027640874193
-0.1331402515838474, 0.38099998235702515, 0.01884197174501072
-0.26186089913413724, 0.38099998235702515, 0.02843965654993243
-0.13637877165465653, 0.38099998235702515, 0.01702280924037176
-0.1922720126691067, 0.38099998235702515, 0.010453821020651916
-0.3390919007944065, 0.38099998235702515, 0.012277405706187067
-0.0031806083640658345, 0.3809999823570251, 0.01196152147463748
-0.23795133627797269, 0.38099998235702515, 0.01070397095491828
0.028155568031584113, 0.38099998235702515, 0.0184757837789459
-0.2764480836607975, 0.38099998235702515, 0.026806703428916976
-0.22925449022007874, 0.38099998235702515, 0.016332927758959163
-0.27514967310360766, 0.38099998235702515, 0.01469583500053872
-0.0586732462578369, 0.38099998235702515, 0.01081788530419647
-0.17481782476569177, 0.38099998235702515, 0.020351439578358443
-0.07797819458204612, 0.38099998235702515, 0.015078538454402726
0.02950762832606265, 0.38099998235702515, 0.019546755297284234
-0.003775595721598829, 0.38099998235702515, 0.009082836889104953
-0.35459720533144407, 0.38099998235702515, 0.007149334795728303
-0.1448561713972053, 0.3809999823570251, 0.02802158361550297
-0.025530518549898823, 0.38099998235702515, 0.022864893285397182
-0.2675094210868736, 0.38099998235702515, 0.006881790362524736
-0.3060765453467615, 0.38099998235702515, 0.014024829778376453
-0.022812646037862747, 0.38099998235702515, 0.015252530551149966
0.06685804912055145, 0.38099998235702515, 0.012508139231856234
-0.14749740895818905, 0.38099998235702515, 0.018456974316183955
-0.2414175566896824, 0.38099998235702515, 0.0315715432443719
-0.32320696297422435, 0.38099998235702515, 0.029387939242103214
-0.27858775879998476, 0.38099998235702515, 0.024549165054366044
-0.2697701447363601, 0.38099998235702515, 0.011046651908643023
-0.17759541579250715, 0.38099998235702515, 0.023396195533806254
-0.14453220758413535, 0.3809999823570252, 0.021368740673317288
0.24437326380475213, 0.38099998235702515, 0.009932371733374527
-0.3423492704880641, 0.38099998235702515, 0.023066728453843593
-0.13729850797198376, 0.38099998235702515, 0.025583334434433176
-0.12594071489683356, 0.38099998235702515, 0.006715756560888431
-0.06761788098210005, 0.38099998235702515, 0.024556011270226386
-0.28845812694970263, 0.38099998235702515, 0.017832597930374425
-0.0992451952819902, 0.3809999823570252, 0.025835995049631036
-0.17335563758021955, 0.38099998235702515, 0.006633183220016062
-0.07050228043389842, 0.38099998235702515, 0.008117370753714057
-0.2846970763672736, 0.38099998235702515, 0.00748211324848333
0.07901379981124204, 0.38099998235702515, 0.014357712448792598
-0.3709375927502437, 0.3809999823570252, 0.036840851386478274
-0.2001803408849051, 0.38099998235702515, 0.010423292555995348
0.1328714677075542, 0.3809999823570251, 0.012984059868499494
-0.05876962855502109, 0.38099998235702515, 0.012912424488856735
-0.2556965396484456, 0.38099998235702515, 0.031809915857110904
0.15657521743408276, 0.3809999823570252, 0.007078339027051001
0.013771120763186956, 0.38099998235702515, 0.008910263892809937
0.21009334662979207, 0.3809999823570252, 0.010750302020633611
-0.29359992682343256, 0.38099998235702515, 0.02960079356933748
-0.2684773753974006, 0.3809999823570252, 0.02650977716658549
-0.3330627296588295, 0.38099998235702515, 0.025201632828251972
-0.04905405937333976, 0.3809999823570251, 0.016686699472210277
-0.03159807579779153, 0.38099998235702515, 0.008885785286397989
0.18855162318450824, 0.3809999823570252, 0.007601615499136568
-0.3353476979510187, 0.38099998235702515, 0.006393856369247457
-0.26701096425657445, 0.38099998235702515, 0.010505591258415168
0.02448935408538605, 0.38099998235702515, 0.012575227479752453
-0.07962117803442013, 0.38099998235702515, 0.009728616423032379
-0.008029522862114613, 0.38099998235702515, 0.013144833069426178
0.14826471489902018, 0.38099998235702515, 0.012656073963832587
-0.34765435082612883, 0.38099998235702515, 0.01379444202710422
0.1380541210880916, 0.38099998235702515, 0.01085852346804091
-0.3809439113706479, -0.31741498322761275, 0.0052054640727012035
-0.38083778565523696, -0.2588252632201223, 0.004967354391132089
-0.38064768127413756, -0.3152780165542708, 0.004529232719565137
-0.3809822166133272, 0.22623228393866818, 0.005331973407581867
-0.3803693293906947, -0.3293295800509241, 0.0038926601344177313
-0.38094278234510626, 0.0056250398574228255, 0.005226088012393573
-0.3809999823570252, 0.2482399331097782, 0.016989563589135094
-0.3809999823570252, -0.15455833387152806, 0.03296487981022043
-0.38099998235702515, -0.10332337096511998, 0.03033293503345985
-0.3809999823570251, 0.2570971792065372, 0.012186569432966353
-0.38099998235702515, -0.2234521519533362, 0.03286657750666358
-0.3809999823570252, -0.01889661541776444, 0.026552766731292022
-0.3809999823570252, -0.015444781263272277, 0.027389233342050973
-0.38099998235702515, 0.1702118902713991, 0.029189755290287382
-0.38099998235702515, 0.24234470720162826, 0.03676411149016744
-0.3809999823570251, 0.3142589388087374, 0.010106531500204538
-0.38099998235702515, -0.10442368183152709, 0.03580720862387933
-0.38099998235702515, 0.1626391684904962, 0.021323755940382105
-0.38099998235702515, 0.2665203844539602, 0.03075568514871492
-0.38099998235702515, 0.339820602759898, 0.03276699906333953
-0.38099998235702515, -0.13090884941793185, 0.02953168478038547
-0.38099998235702515, 0.2432191872206873, 0.029560279730181462
-0.38099998235702515, -0.09316870848183303, 0.0307087414475438
-0.38099998235702515, 0.36463064160465297, 0.022858377298232535
-0.38099998235702515, 0.20581499173016082, 0.01771995528890246
-0.38099998235702515, 0.17016555511433495, 0.035825852594834104
-0.38099998235702515, -0.16641843517619506, 0.03702821152299466
-0.38099998235702515, -0.0015227377000278713, 0.022483703478209254
-0.38099998235702515, 0.3563044785743149, 0.03408598989109994
-0.3809999823570251, 0.2324819449120122, 0.01690001372454884
-0.38099998235702515, -0.1008741018457846, 0.03126338416537714
-0.38099998235702515, 0.24193777834427838, 0.013884527497413698
-0.3809999823570252, -0.31503085934199626, 0.035576254361350604
-0.38099998235702515, -0.1453161794686758, 0.03238567853170204
-0.3809999823570252, -0.05125117370035337, 0.02481261763122309
-0.38099998235702515, -0.049780863599229085, 0.02889408977393549
-0.3809999823570252, 0.06224603540347597, 0.02091990602533282
-0.38099998235702515, -0.07677872331267002, 0.03647542805315043
-0.38099998235702515, 0.04598235864924864, 0.02588226553556827
-0.3809999823570251, -0.11667492685617112, 0.03467323434005405
-0.38099998235702515, 0.29725586192374964, 0.011010446659546518
-0.38099998235702515, -0.16217232327507033, 0.03622803569581412
-0.3809999823570251, 0.17187322910823166, 0.017184765304061878
-0.38099998235702515, 0.11570375524233434, 0.03472987141669484
-0.38099998235702515, 0.21297699129385778, 0.025419471579684678
-0.38099998235702515, 0.3658576667596023, 0.025902097374868028
-0.38099998235702515, 0.19794910536066945, 0.03155516263803862
-0.38099998235702515, 0.20946964965587192, 0.013091682967044712
-0.38099998235702515, 0.12159295427959242, 0.02290654869686671
-0.38099998235702515, 0.36912968724380035, 0.019246779448786697
-0.38099998235702515, -0.02258153983956892, 0.026938200249653963
-0.3809999823570252, 0.21349983239599177, 0.014038549127914308
-0.38099998235702515, 0.24384458418803637, 0.03159212602273032
-0.3809999823570251, -0.01608322794487936, 0.026538483861445777
-0.38099998235702515, 0.2668882760702676, 0.0217489258842907
-0.38099998235702515, 0.3062838349047983, 0.03730181777080733
-0.38099998235702515, -0.34392093787137723, 0.03700990832074782
-0.38099998235702515, 0.2558699517620561, 0.03297906182469456
-0.38099998235702515, 0.09396261981517189, 0.03311701413149093
-0.3809999823570251, -0.06572577889848745, 0.03413512211973842
-0.38099998235702515, 0.26569882324063926, 0.022206956161610898
-0.38099998235702515, 0.004798926354801121, 0.02590170094527458
-0.38099998235702515, 0.16103824820842627, 0.01588515592199801
-0.38099998235702515, 0.14926598424632062, 0.015389034965017333
-0.38099998235702515, 0.3486195734924902, 0.022051425132314305
-0.38099998235702515, 0.314973278809644, 0.019115743124430363
-0.38099998235702515, -0.23827047937474305, 0.03720219460397465
-0.38099998235702515, 0.21578223279360204, 0.018913256188257375
-0.38099998235702515, 0.3751782238140569, 0.03417462566796211
-0.38099998235702515, 0.13826058545006825, 0.030504704398823405
-0.38099998235702515, 0.33749107473973294, 0.011133649290016045
-0.38099998235702515, 0.11252862147451101, 0.02590508040603033
-0.38099998235702515, 0.15227631909820485, 0.0305556608760083
-0.38099998235702515, 0.2164378581710339, 0.02390941504925837
-0.38099998235702515, 0.18116362807596872, 0.02614176130219839
-0.38099998235702515, 0.19383918224635327, 0.032115528723035934
-0.38099998235702515, 0.19748868772225028, 0.014667260618341754
-0.38099998235702515, 0.20670170637654683, 0.02973182278957026
-0.38099998235702515, -0.15729817241582542, 0.02921968920291728
-0.38099998235702515, 0.04146285247709226, 0.02484702506598988
-0.3809999823570251, 0.07632735306901557, 0.02528640359627026
-0.38099998235702515, 0.3705890091833225, 0.03263694920034
-0.38099998235702515, 0.06400622776054597, 0.033165956517578324
-0.38099998235702515, 0.36210090103428216, 0.0327812779535621
-0.38099998235702515, 0.0037386480397307714, 0.028475353104026928
-0.38099998235702515, 0.11118580538596864, 0.03716627208634396
-0.38099998235702515, 0.09394434302516881, 0.025127426961746614
-0.3809999823570251, -0.15900997111564633, 0.03512400141964871
-0.38099998235702515, 0.29810584641147486, 0.03127836345658852
-0.38099998235702515, 0.3771944564201122, 0.03426899424649059
-0.38099998235702515, 0.20292215413276854, 0.027520045909278066
-0.3809999823570252, -0.2624084187192868, 0.036663517724796583
-0.38099998235702515, 0.36476359848238227, 0.020647970987643538
-0.38099998235702515, -0.21327590275224792, 0.03209598443788037
-0.38099998235702515, 0.13301907145320974, 0.025952292014140132
-0.38099998235702515, -0.043742127750676776, 0.03312280241797906
-0.38099998235702515, 0.3236500051193536, 0.0185639366882424
-0.38099998235702515, 0.06152281623687271, 0.025349283008550678
-0.38099998235702515, 0.24452250518966848, 0.030761455714360255
0.38090224885911084, -0.021734269298527675, 0.03837430208394687
0.3807932080271194, 0.1480844271246563, 0.03863754602106369
0.38036499481152186, -0.28897061976468075, 0.03967132878611325
0.38066656319492337, -0.3690015281903817, 0.038943289141635494
0.3807360891537703, -0.18150790005724665, 0.03877544112723186
0.38089567792204865, -0.14572152716068565, 0.038390165493196404
-0.01926445859159749, 0.37874851738697013, 0.04065240725754528
-0.04287902889559264, 0.37900254976843384, 0.040547181913335964
0.09316607363867171, 0.37843486536025484, 0.040782328263217496
-0.32448091398314927, 0.37929611240610456, 0.04042558233843954
-0.3758643888901352, 0.3791124941003772, 0.04050164075001676
-0.3235208991227122, 0.3798255092662173, 0.04020629546442872
0.3788558246873711, 0.33756076657359607, 0.040607958807138474
0.37992639985585613, 0.013695325828329191, 0.04016450813449414
0.37999253346972817, 0.30017188958836766, 0.040137111434564623
0.37994097393544596, -0.017330878856284315, 0.040158471561841144
0.37985099982800125, 0.004685061314283312, 0.040195740437946104
0.37981624468673886, -0.340099766576281, 0.04021013895717725
0.3783419142207495, 0.026529445132210533, 0.040820830665555544
0.378327939154312, 0.19741017907704106, 0.040826619365846493
0.37946211055546997, -0.2597720211281846, 0.04035682708620165
0.3783989858672774, 0.19270945344792897, 0.040797190659381824
0.3788534577917416, -0.11243678345856771, 0.04060894098106104
0.3806334925267798, 0.36571528085060045, 0.03902312427957666
0.3804821794642538, -0.08918425104835176, 0.03938842394383402
0.3804795633893088, 0.3506461331688693, 0.039394735257568834
0.3802597574709926, 0.30244706491531165, 0.03992538419161148
0.3807389441614908, 0.23724817588860866, 0.03876854756090548
0.3802921258033694, 0.0755499260454329, 0.0398472438270839
0.22556212848897017, -0.3803765854151364, 0.003910989251459755
0.13977420982518127, -0.38036704367694196, 0.0038921553990704854
0.03683695139464558, -0.3805989716694794, 0.004425251680078094
-0.17421450006179812, -0.38024713889700057, 0.0036291870128664526
0.05212745317175765, -0.3805608191797946, 0.004337613111702589
0.20702248835555812, -0.3803021311905169, 0.0037416284233594225
0.38099998235702515, 0.14453633635402668, 0.021640493327573705
0.38099998235702515, -0.04791290373729386, 0.026156888679933613
0.38099998235702515, -0.31963763090140807, 0.0357824350703516
0.38099998235702515, -0.13731237933324092, 0.02994130942735733
0.38099998235702515, 0.11630257185839597, 0.023260035001033897
0.38099998235702515, -0.0952592122132206, 0.034929807760246796
0.38099998235702515, 0.03324766958881187, 0.027107977540351977
0.38099998235702515, -0.003299547568900628, 0.02289655787726851
0.3809999823570252, 0.36382190933795633, 0.012876740127833977
0.38099998235702515, 0.3485148063818503, 0.01598945715739114
0.38099998235702515, 0.06381060075524676, 0.01996479040332313
0.38099998235702515, -0.23213498446555822, 0.03630523472965042
0.38099998235702515, 0.20241067528061224, 0.024542691656524625
0.38099998235702515, 0.3647906503812435, 0.013560214840913173
0.38099998235702515, 0.29923185967850663, 0.029926601789265515
0.38099998235702515, -0.1709289097132577, 0.03145942768616941
0.3809999823570251, 0.310718870636147, 0.03306486288963681
0.38099998235702515, 0.2272467013854805, 0.028644994127752982
0.3809999823570251, 0.3102720407612157, 0.011529863397922804
0.38099998235702515, 0.20974774410433256, 0.027137947936247388
0.38099998235702515, 0.3384218701872388, 0.022645057350662454
0.38099998235702515, -0.13785737421485322, 0.035187472693768554
0.38099998235702515, 0.24442716133018555, 0.019619995333954726
0.38099998235702515, 0.050032587317267244, 0.032285987112538744
0.38099998235702515, 0.2624115848311016, 0.03159369976747764
0.38099998235702515, 0.1376461883966006, 0.017208916399535337
0.38099998235702515, 0.15660215505967326, 0.02808624163429152
0.38099998235702515, 0.20993525572224808, 0.019197286159602166
0.38099998235702515, 0.21836687797363993, 0.022307594764722084
0.38099998235702515, 0.12874511641080044, 0.034525652995916506
0.38099998235702515, 0.04378713557632122, 0.02524197049085341
0.38099998235702515, 0.05038718678692203, 0.03649976720007814
0.3809999823570251, 0.09735087927870079, 0.020895673796296015
0.38099998235702515, 0.3560726284588664, 0.011250453716394033
0.3809999823570252, 0.16573124850219959, 0.01872078545750587
0.38099998235702515, 0.15967700374645855, 0.036240540269594716
0.38099998235702515, -0.12369045338727366, 0.027829700102835774
0.38099998235702515, 0.3139860467950587, 0.024486439428181208
0.38099998235702515, 0.21146828641685825, 0.013382216998323444
0.38099998235702515, -0.029215191603932975, 0.0336129245865312
0.38099998235702515, 0.16682987398927537, 0.03588270661427309
0.38099998235702515, 0.3051437353740502, 0.018020581065395207
0.3809999823570251, -0.20311712743542032, 0.03171207179278127
0.38099998235702515, 0.3030033107035378, 0.03201640600847208
0.38099998235702515, 0.03144272207824957, 0.023854236149783097
0.38099998235702515, 0.05686063965037157, 0.029256987827569296
0.38099998235702515, -0.1632387383071786, 0.0369497482710022
0.38099998235702515, -0.35433157924115954, 0.03736211112747313
0.38099998235702515, -0.14751600258551983, 0.034715138575722004
0.38099998235702515, 0.2959836489725697, 0.020026318026883826
0.38099998235702515, 0.07470991961668255, 0.03140218904167004
0.38099998235702515, 0.1534698914996872, 0.0176498508440364
0.3809999823570251, -0.1639536158368164, 0.03760017760774934
0.3809999823570252, 0.20749143862046668, 0.012821792454713415
0.3809999823570251, 0.33962750861948343, 0.012601500865861925
0.38099998235702515, -0.06254377334088668, 0.035905197686473156
0.38099998235702515, -0.04774431413836802, 0.03715434764729787
0.38099998235702515, 0.22193652871345282, 0.027516437327535156
0.38099998235702515, 0.15263257376254583, 0.029183093980286897
0.38099998235702515, 0.20512506368331626, 0.030129218548834834
0.38099998235702515, 0.07510155667655913, 0.03699456086470115
0.38099998235702515, 0.2662741070673487, 0.029219277538398605
0.38099998235702515, 0.35365091899590967, 0.03584081293374554
0.38099998235702515, 0.2577166842985602, 0.012827418182885793
0.3809999823570251, 0.3361645573696288, 0.007493346745214684
0.38099998235702515, -0.14169193168081767, 0.03652506846203765
0.38099998235702515, 0.318621492360181, 0.021516606414520315
0.38099998235702515, 0.017682893216164314, 0.029531396991914635
0.38099998235702515, 0.35158073985128774, 0.013524179958106633
0.38099998235702515, 0.28288850096621787, 0.019748826689179683
0.38099998235702515, 0.0058650468692692526, 0.034775418662957636
0.38099998235702515, 0.27623409616620165, 0.01597909551710615
0.38099998235702515, 0.37116746021033664, 0.02598710710224635
0.38099998235702515, -0.00032423434939798934, 0.03428110280364549
0.38099998235702515, 0.3002946540906271, 0.025559586619243575
0.38099998235702515, 0.25006569593962374, 0.035204394456637575
0.3809999823570252, -0.05036656037100001, 0.024894609166507826
0.38099998235702515, -0.20406154767740775, 0.03665223629405139
0.38099998235702515, 0.08501800547860895, 0.026011373036070616
0.38099998235702515, 0.3020263610212218, 0.019127082651330257
0.38099998235702515, 0.3462678321146633, 0.02421682557830737
0.38099998235702515, 0.23991889152718365, 0.024902633665500763
0.38099998235702515, 0.05835080245434365, 0.03456088781904602
0.38099998235702515, 0.009681229018960298, 0.023255320833625477
0.38099998235702515, -0.1796850144993436, 0.03699459226022081
0.38099998235702515, 0.09886609325180747, 0.023539194137682927
0.38099998235702515, 0.3279934624709098, 0.025467462938787693
0.38099998235702515, 0.31025088815218327, 0.021273857480106843
0.3809999823570251, -0.22419768866686, 0.03605966781557186
0.38099998235702515, 0.2082308378309849, 0.025608130987138912
0.38099998235702515, 0.3141198796979121, 0.01990755168388958
0.38099998235702515, 0.35119492542629405, 0.01977118960075612
0.38099998235702515, 0.09694428752964132, 0.021777936441126352
0.1794196759565943, -0.10744843944513877, 0.0408380888402462
0.24451755223883967, -0.040769485088930274, 0.0408380888402462
0.2842125474839035, -0.27578279665084654, 0.04083808884024621
0.17261838736257037, -0.06867096208488149, 0.040838088840246194
0.2064946572139697, 0.2501960051269287, 0.0408380888402462
0.3570214997555059, 0.31100478825705535, 0.0408380888402462
0.2021375718659534, 0.28386313288981374, 0.0408380888402462
0.0926998166313581, 0.22849629839464855, 0.0408380888402462
0.020522777153213247, 0.10118662313236995, 0.0408380888402462
0.26613677970604643, 0.28623861321738453, 0.0408380888402462
0.269736634681774, 0.25323109492204543, 0.0408380888402462
0.2763997620188514, -0.02403893066991425, 0.0408380888402462
0.198913181715924, 0.28871099487426494, 0.0408380888402462
0.11664938689690893, -0.04280759895680605, 0.0408380888402462
0.19457005491553497, -0.1673809569698399, 0.040838088840246194
0.22989546425620497, -0.10992568124091909, 0.0408380888402462
0.3710834256819247, 0.345139797503859, 0.0408380888402462
-0.28393451453246926, 0.35698038820953254, 0.0408380888402462
0.17508693375850287, 0.11758746613180665, 0.0408380888402462
0.10900956233407172, 0.12322645090607381, 0.0408380888402462
0.24666182327929956, 0.14291125710295957, 0.0408380888402462
0.2591748987495258, 0.22485898163919435, 0.0408380888402462
-0.001933542096088467, 0.02317070076150375, 0.0408380888402462
-0.19363212060145696, 0.3195354708262629, 0.0408380888402462
0.19408034868566926, 0.0697978700122286, 0.0408380888402462
0.28461562424678283, 0.2511534431219569, 0.0408380888402462
-0.181434951685046, 0.25868168944140196, 0.0408380888402462
0.19623584717390385, 0.020502458026198392, 0.0408380888402462
0.04318808715414668, 0.08692301715400913, 0.0408380888402462
0.2816495853729345, 0.2642400789160212, 0.0408380888402462
0.3270235988472754, 0.24580717672469832, 0.0408380888402462
0.19559509667830904, -0.028476756062833605, 0.0408380888402462
0.06918524133459479, 0.12471860401102212, 0.0408380888402462
-0.09866493537924416, 0.23747912450518116, 0.0408380888402462
0.2584298579851039, 0.33505230357083804, 0.0408380888402462
0.042437894883225774, 0.12263534980781651, 0.0408380888402462
0.1574578151489543, 0.3381760810391801, 0.0408380888402462
-0.04356102917882056, 0.1725773686533319, 0.0408380888402462
0.23302866930131638, -0.15308165829533393, 0.0408380888402462
-0.007477749663541644, 0.3763383366547862, 0.0408380888402462
0.30533220537062594, 0.16638095467723224, 0.0408380888402462
0.3004010448946446, 0.11637216684324735, 0.0408380888402462
-0.17333868238581804, 0.2726724376268445, 0.0408380888402462
0.24086413139690188, -0.02634651444724423, 0.0408380888402462
0.15145341887988245, 0.3077230884139679, 0.0408380888402462
-0.003042527126454836, 0.10018220811084103, 0.0408380888402462
0.3054497207133426, -0.08736484318562728, 0.040838088840246194
0.05146031730328815, 0.19153685248530267, 0.0408380888402462
0.21380664536870367, 0.01352456955532455, 0.0408380888402462
-0.2107387657821242, 0.3293198997420343, 0.0408380888402462
0.14383618208197957, 0.042638779498511706, 0.0408380888402462
0.34428871640020153, -0.3206312778644129, 0.0408380888402462
0.3713245807892894, -0.10577432932935191, 0.0408380888402462
-0.08844769304485509, 0.261516942053155, 0.040838088840246194
0.2471979468300164, -0.09970499518593168, 0.0408380888402462
0.34832799650596624, -0.19983359469168394, 0.0408380888402462
-0.2372138126310942, 0.3270329267729204, 0.0408380888402462
-0.2471068215421086, 0.29477954851714006, 0.0408380888402462
0.3447739438593752, -0.09449854650611847, 0.0408380888402462
0.052882355272441534, 0.2115971470279797, 0.0408380888402462
0.23601327322857413, 0.04094284238527941, 0.0408380888402462
-0.14455451347840398, 0.23321454807053782, 0.040838088840246194
0.36913815401584876, 0.32714709690455696, 0.0408380888402462
0.3708416562436047, -0.24891903488778336, 0.0408380888402462
0.19881660672991458, -0.12989892687275606, 0.0408380888402462
0.3630533647592854, 0.02102263632071452, 0.0408380888402462
-0.10728910193048913, 0.18159000842896095, 0.0408380888402462
0.19277472956681507, 0.09465028049320622, 0.0408380888402462
0.35308343967061656, 0.3024758705056106, 0.0408380888402462
0.3528796118168906, 0.2279826728661068, 0.0408380888402462
0.1663997862207408, 0.01465707906240861, 0.0408380888402462
0.3554377918371098, 0.04639657088722057, 0.0408380888402462
0.2600229418890968, -0.18240213202268116, 0.04083808884024621
0.15297779656911842, 0.05434121217004896, 0.0408380888402462
0.3659286783181684, -0.18999743820952547, 0.04083808884024621
0.26748771648203484, -0.13783191516503468, 0.0408380888402462
0.24849446890386964, 0.1637175629272797, 0.0408380888402462
0.2632600933615382, 0.08155358370726468, 0.0408380888402462
-0.1415400171012381, 0.32840011528247587, 0.0408380888402462
0.25630082612807514, -0.019617709722338325, 0.0408380888402462
-0.08517405674170109, 0.3004920175005149, 0.0408380888402462
-0.1553945524317384, 0.2310368076227639, 0.0408380888402462
0.07812446075575732, 0.17869727077145706, 0.0408380888402462
0.3229724133732278, 0.35433568801008697, 0.0408380888402462
0.18298476995147372, -0.13945311069664823, 0.0408380888402462
0.26302130379028504, -0.19207105564403193, 0.0408380888402462
0.2647420671467076, 0.23774524355112828, 0.0408380888402462
0.22372437126283196, 0.34154368186772077, 0.0408380888402462
0.24830783654796704, -0.23173646359960345, 0.040838088840246194
0.31961222506535214, 0.10898095240315543, 0.0408380888402462
-0.21412728779507395, 0.3341978893616211, 0.040838088840246194
0.1914825274717572, -0.1897512420669598, 0.0408380888402462
-0.2210527758636767, 0.2698148273346295, 0.0408380888402462
0.34257091909820125, 0.011928834516990422, 0.0408380888402462
-0.11042688966187685, 0.3494515542218614, 0.0408380888402462
0.2967676394462841, 0.18221415355698828, 0.0408380888402462
0.3539025668364962, -0.1284191740627993, 0.0408380888402462
0.1656925810132056, 0.16279772412667715, 0.0408380888402462
0.3428078263153933, 0.3643209100366537, 0.0408380888402462
0.2578480276546372, 0.04400005769052165, 0.0408380888402462
0.011705898138766935, 0.18363589746289427, 0.0408380888402462
0.11385350480083244, 0.3093007904431098, 0.0408380888402462
0.19268360967014372, -0.0927139448068646, 0.04083808884024621
0.04377118794008311, 0.10066016419773949, 0.0408380888402462
0.1436748112190473, 0.2958074803366049, 0.0408380888402462
0.24753967661885368, -0.04365350556483226, 0.0408380888402462
0.007420025496004706, 0.28318677777438983, 0.0408380888402462
0.1383974615852311, 0.04657450986197331, 0.0408380888402462
0.1118540001738648, 0.1125392031218823, 0.0408380888402462
0.1773811150050257, 0.23972597709426893, 0.0408380888402462
0.3057797662942985, -0.08797975529721389, 0.0408380888402462
0.35817491652907063, 0.048751673719283656, 0.0408380888402462
0.10022125870881947, 0.1614714580648609, 0.0408380888402462
-0.0714366391339788, 0.22479836824326044, 0.0408380888402462
0.20478585169851105, 0.17977082439534253, 0.0408380888402462
0.35676171230003184, 0.1359712645605794, 0.0408380888402462
0.004944157260021065, 0.37026155020826945, 0.0408380888402462
0.3573999159173332, -0.12756142337063328, 0.0408380888402462
0.2907016107101243, -0.11495668670901671, 0.0408380888402462
-0.09555947649315095, 0.12124121294799549, 0.0408380888402462
0.3411864534209173, 0.17455668442998667, 0.0408380888402462
-0.20220625693428607, 0.27451905160096973, 0.0408380888402462
0.16278022889270832, 0.2900485360754105, 0.0408380888402462
0.09890848021958648, -0.017304604620468948, 0.0408380888402462
0.2858409876252527, -0.13913335278498326, 0.0408380888402462
0.3213104558437274, 0.11779397506616376, 0.0408380888402462
0.36434302745834063, -0.041665196149932304, 0.0408380888402462
-0.06514684555816917, 0.22449039638565937, 0.0408380888402462
-0.3653903236538601, 0.3781906024677279, 0.0408380888402462
0.3623025834681758, 0.22312976606500134, 0.0408380888402462
0.18180589226872468, -0.14312753715122395, 0.0408380888402462
0.2569394114417487, 0.17071471964448806, 0.0408380888402462
0.10987682604714637, 0.35950279232813465, 0.0408380888402462
0.3572944609447785, 0.18066297022580918, 0.0408380888402462
0.16651196633867754, 0.2161091051273683, 0.0408380888402462
0.3048251860361869, -0.026043482331345014, 0.0408380888402462
0.3393991318325676, -0.04469352002078997, 0.0408380888402462
0.1710238375150972, 0.04294107910878096, 0.0408380888402462
-0.08554132384310204, 0.1379304186647693, 0.0408380888402462
0.02732488034310332, -0.005433339502927568, 0.0408380888402462
0.2515734101767352, 0.22890982458987752, 0.0408380888402462
-0.18580914846175314, 0.2557611404551395, 0.0408380888402462
0.08024534509545195, 0.17343578486797007, 0.0408380888402462
0.32947908590475355, 0.026884417242000802, 0.0408380888402462
0.08298100953306613, -0.04368336708473565, 0.0408380888402462
0.029061672505936068, 0.17689139494612133, 0.0408380888402462
0.3137027787743145, 0.22012441054717402, 0.0408380888402462
-0.0167938414699718, 0.1861538793039521, 0.0408380888402462
0.3175942180615253, 0.00010199306480337955, 0.0408380888402462
0.0958042279300266, 0.2739850309374453, 0.0408380888402462
0.10565852849841528, 0.32548531776379064, 0.0408380888402462
0.20075165511050075, -0.0527154606530509, 0.0408380888402462
0.3067888126677118, 0.17537193074465063, 0.0408380888402462
0.034943505956043314, 0.00903731360026502, 0.040838088840246194
-0.09194191155233519, 0.34966688399861234, 0.04083808884024621
0.3427507368410433, -0.014057736719491065, 0.0408380888402462
-0.1325041707858397, 0.22213450613414026, 0.0408380888402462
-0.1205204046748281, 0.30537427018491653, 0.0408380888402462
0.31214231949436366, -0.10734419232173795, 0.0408380888402462
0.35385650951534037, 0.10664561723442506, 0.0408380888402462
0.1842343622375103, 0.1987281125735906, 0.0408380888402462
0.16509339673691145, -0.07952675142815485, 0.0408380888402462
0.3468010970073777, -0.07696617377637885, 0.0408380888402462
0.268118073445219, -0.21677516399813068, 0.0408380888402462
0.17853213596908102, 0.11362969071776657, 0.0408380888402462
-0.1964206211959899, 0.22515482598737357, 0.0408380888402462
0.14423053755942034, -0.12546984456310972, 0.040838088840246194
0.20399386599489033, -0.10247512092537307, 0.0408380888402462
-0.0009412042373713042, 0.16051215359821436, 0.0408380888402462
0.01514881051673245, 0.04063125308320781, 0.0408380888402462
0.080670948492142, 0.22487631261437274, 0.0408380888402462
0.16961585836514212, -0.14421716633857165, 0.0408380888402462
0.2994309458285913, 0.297676680338003, 0.0408380888402462
-0.11929289914841812, 0.19732716450902976, 0.0408380888402462
0.2591752978250622, -0.21838807820611944, 0.040838088840246194
0.1064723498789922, 0.1227565927811137, 0.0408380888402462
0.08723414836514808, 0.23795056342536713, 0.0408380888402462
0.14286139050006094, 0.02540345626245294, 0.0408380888402462
0.29763483576334115, 0.34486562157237144, 0.0408380888402462
0.34988907937799013, 0.22277448921694204, 0.0408380888402462
0.1593565736692538, 0.23863404944157876, 0.0408380888402462
-0.25936477325260177, 0.2696109778532093, 0.0408380888402462
-0.04029189502639567, 0.13476979746390477, 0.0408380888402462
-0.03266011565740565, 0.07546826067034598, 0.04083808884024621
-0.0606085611489118, 0.10013546731630887, 0.0408380888402462
-0.0010883314469527505, 0.10531476929844585, 0.0408380888402462
0.26179645216487535, -0.01784632563054775, 0.0408380888402462
0.061586408056877026, 0.2864040472424216, 0.0408380888402462
0.029985744539062553, 0.23642153228945417, 0.0408380888402462
0.37287090247984134, 0.030855391295780715, 0.0408380888402462
-0.14764219690474226, 0.2005300948748153, 0.0408380888402462
-0.008003888306674367, 0.354507955695728, 0.0408380888402462
-0.20263527481398938, 0.2682044657390839, 0.0408380888402462
0.35597390980616944, -0.11017853258710116, 0.0408380888402462
0.3498807854457551, -0.2028380358306589, 0.04083808884024621
0.3684035139475654, 0.11540852598295964, 0.0408380888402462
0.35981848458473925, 0.14253038255030342, 0.0408380888402462
0.37390856281703755, 0.14676617408857517, 0.0408380888402462
0.23616358265756948, -0.11294123630564495, 0.0408380888402462
-0.1555394031543096, 0.2907979518754785, 0.0408380888402462
0.25731297745238896, 0.36248001484004494, 0.0408380888402462
0.21828730489911247, -0.06275516456223951, 0.0408380888402462
0.13933818479719942, 0.36675616633920005, 0.0408380888402462
0.2602047649081572, -0.07193763042490707, 0.0408380888402462
-0.06034073469657224, 0.08203532069808607, 0.04083808884024621
0.36945255865530346, -0.1966272310919469, 0.0408380888402462
-0.14303969495514013, 0.3728998617730537, 0.0408380888402462
-0.14316910442472575, 0.27034792099429117, 0.0408380888402462
0.16732186304754565, -0.003503005064199996, 0.0408380888402462
-0.08633951818493646, 0.3381557857260114, 0.0408380888402462
-0.13243246666724506, 0.36550949263383586, 0.0408380888402462
0.32257033183905515, -0.0019530068241583876, 0.0408380888402462
0.272916573735251, -0.24712504750091335, 0.0408380888402462
0.031355811555450405, 0.26093905658193095, 0.0408380888402462
0.2832931143573737, 0.2766757949129529, 0.0408380888402462
0.3647749503586265, -0.30226680089620384, 0.040838088840246194
-0.16978721031863409, 0.17784329324603176, 0.0408380888402462
