0.1982720293441295, -0.2122324854135513, 0.0001349953909286982
-0.09538529249177613, -0.21223248541355133, 0.0013166616898109475
-0.06519355565738577, -0.21223248541355133, 0.0014406297621169914
-0.18241985596378682, -0.21223248541355133, 0.0014398815788015937
-0.17521023018588966, -0.21223248541355133, 0.0013111533529134051
-0.06398885242144349, -0.21223248541355133, 0.0007672168412280571
0.05592790507631324, -0.2122324854135513, 0.0001628786052829815
0.08805718467691669, -0.21223248541355136, 0.00041960189851739343
-0.14388071282167397, -0.2122324854135513, 0.0008459903841317616
-0.03486717171955226, -0.21223248541355133, 0.0006049633802000839
-0.0649976795510169, -0.21223248541355133, 0.0008588202111501621
-0.21788687052950179, 0.021745905916595844, 4.075692935099941e-09
-0.22530658962278696, -0.20384113316064034, 7.878154213644767e-09
-0.21102638854572486, 0.06339397557392273, 5.598297646094919e-10
-0.2164488495097641, -0.18512860632287237, 3.338735217895435e-09
-0.22053907854749116, -0.215092957421887, 5.434897800440139e-09
-0.21434544567907196, 0.09264105625291995, 2.2607817915200242e-09
-0.21020069952390114, -0.020609967397099735, 1.3668024990000554e-10
-0.2147932524081374, 0.020782216210469988, 2.490274003574834e-09
-0.2101688612936282, 0.14714249484234715, 1.2036377804059196e-10
-0.2202405932605735, -0.07549959645440622, 5.281929914264092e-09
-0.22115347346584568, -0.15819164388022786, 5.7497632094139e-09
-0.21530773077057866, -0.10789630635459985, 2.7539341269887224e-09
-0.2133862950113303, 0.05678424899023867, 1.7692357870791651e-09
-0.21077278898330581, 0.061016867295484126, 4.298649365303475e-10
-0.21543111569275536, -0.0541995910760783, 2.817166492396995e-09
-0.21687571924013968, -0.20905605870405586, 3.5574976265969928e-09
-0.21724002603640574, -0.048307854972074696, 3.744197752153769e-09
-0.21152213027513828, -0.06850377973486116, 8.138877291434046e-10
-0.21403933327082558, -0.09860862860532311, 2.1039051544661807e-09
-0.2194314885909465, -0.1522553214057674, 4.867279556499113e-09
-0.2125566672800743, 0.12204193804629215, 1.3440677606288062e-09
-0.21672127633416394, -0.21359044259895016, 3.4783486504248227e-09
-0.22115233476655655, -0.06304757548476762, 5.749179648243945e-09
-0.22572712235033118, -0.1681679136557935, 8.093669032028516e-09
-0.21972768852923713, -0.1708946564329994, 5.019076246090334e-09
-0.21475869326022085, 0.04152515261270435, 2.472563114507451e-09
-0.2103288497353402, -0.18908747200780845, 2.023547330856807e-10
-0.21109260817635728, 0.0622472506746666, 5.93766033381052e-10
-0.22242498597526417, -0.16290785510720038, 6.401388563616971e-09
-0.21871612404076207, -0.1432699512713051, 4.500669181103411e-09
-0.2144561965953844, -0.10599520424893433, 2.317539475408989e-09
-0.21358989342802037, 0.08961197793437625, 1.8735760034813724e-09
-0.2218562061733002, -0.12102788434889596, 6.109900011854447e-09
-0.21468468843748448, 0.03916550800055136, 2.4346370866696454e-09
-0.21823043260350553, -0.10360896903709456, 4.251761795221352e-09
-0.21355186262521053, -0.1044162331762091, 1.854085959012276e-09
-0.22168997431811469, -0.10778561734789385, 6.0247094292115584e-09
-0.21735158848818736, -0.17329607556951399, 3.801371332137843e-09
-0.21298033092023466, 0.05072946089276317, 1.5611871106450603e-09
-0.2196999229459382, -0.11844911948192878, 5.004846926348841e-09
-0.2130695315282517, -0.016570017380440227, 1.6069006819734524e-09
-0.21302202847659404, 0.05699235547062105, 1.5825562947708959e-09
-0.2160016422666204, -0.047771803659294884, 3.1095502306797215e-09
-0.2157006727689998, -0.08612840573890879, 2.9553092349847305e-09
-0.21318688692449872, 0.10093006810245911, 1.6670430329771764e-09
-0.21242562999528541, -0.07957040125020802, 1.2769137086774144e-09
-0.2112018736513748, -0.16606588236184122, 6.497624575869191e-10
-0.2122014048996191, 0.15293482604414096, 1.1620027217209386e-09
-0.21281995111524113, 0.1296097199464595, 1.4789955895535919e-09
-0.21915111890119018, -0.07412874803484143, 4.723595560437738e-09
-0.2126992447856076, 0.10988643705728972, 1.41713595056507e-09
-0.21333858784976614, -0.2087389552892072, 1.7447867975316622e-09
-0.21975239313375264, -0.031364956352501965, 5.031736873924192e-09
-0.2108745281619106, -0.14525279559204535, 4.820042806607427e-10
-0.21154718156855862, -0.04131104238850454, 8.267260282771953e-10
-0.21324755851847885, 0.107310194172766, 1.6981360412051972e-09
-0.21443939508749688, -0.21442977392716694, 2.3089290304096006e-09
-0.2125598478604141, -0.11523306208379014, 1.345697746000675e-09
-0.21483364227697088, 0.06826935346936842, 2.510973023356278e-09
-0.21326664301566578, -0.09938086608474242, 1.7079164736799928e-09
-0.2177233026455766, -0.14798126917217708, 3.991867585754593e-09
-0.224839668732628, -0.19145077253562756, 7.638866366941785e-09
-0.2151155756042885, -0.19538925058060963, 2.6554583531616805e-09
-0.21481681078757825, -0.05176824468545821, 2.502347213420487e-09
-0.21518695927817677, 0.02011435365383559, 2.6920410933527345e-09
-0.2127204364094471, -0.045085447268612855, 1.4279962443398252e-09
-0.21198571870487098, -0.04239879371583166, 1.0514677548933232e-09
-0.2150101887468257, 0.0246199800206306, 2.601449644781798e-09
-0.21986397931773294, -0.059331467280120516, 5.088922616197066e-09
-0.21681890752858218, -0.141083146529084, 3.528382732805308e-09
-0.22308366448656067, -0.17607965201049675, 6.7389484500122804e-09
-0.21774753691906962, 0.01753956628432798, 4.00428717811546e-09
-0.2168677371959617, -0.09980018106721801, 3.553406984683356e-09
-0.21242922159654581, -0.08137787556858744, 1.2787543342521652e-09
-0.2101702585305616, 0.10690628139148228, 1.2107983470924935e-10
-0.21613175599675832, -0.09434958642697983, 3.1762309788908523e-09
-0.21057734711381737, 0.09115168316178437, 3.297047914368847e-10
-0.21880302307103822, -0.1694811313321943, 4.5452032387427565e-09
-0.21840677598120345, 0.007046827772897271, 4.342134335878714e-09
-0.2185592574380393, -0.03624610251983064, 4.420278107634066e-09
-0.21119784951337206, -0.10785956909041533, 6.477001653703934e-10
-0.22136746309754987, -0.14069912922013883, 5.859428720780983e-09
-0.22384458553618944, -0.1634670947302792, 7.128905642577914e-09
-0.21582158202344018, 0.05104601564951481, 3.0172728689777462e-09
-0.21268043956398233, -0.1703723508647706, 1.407498641367052e-09
-0.21670867499875407, -0.1829967584022935, 3.4718907118759784e-09
-0.21192033596967305, 0.02756521168044712, 1.0179603787043317e-09
-0.21211688337404394, -0.1935840863742483, 1.1186870888563552e-09
-0.22848705539458616, -0.10863301272045656, 9.508080871642979e-09
-0.22457874892115567, -0.021043347583429607, 7.505150054038971e-09
-0.21693143174525678, 0.10303787690608668, 3.5860491985332138e-09
-0.22357060408414217, 0.08143110428524887, 6.9884954937095986e-09
-0.2257718880904034, -0.15072775721349344, 8.116610600447732e-09
-0.21658879039047138, 0.08923215048724291, 3.4104521890482207e-09
-0.22285422759148715, -0.008483430473357596, 6.621366517540458e-09
-0.21354379166672793, 0.16370058788436015, 1.8499497502522054e-09
-0.22761331675331684, 0.040942457746517794, 9.060306864403014e-09
-0.2125333936347043, 0.17431902949449693, 1.3321404714393912e-09
-0.21830104979076292, 0.1727091808790583, 4.287951725968056e-09
-0.22478979874857044, -0.11628177827143048, 7.613308973062524e-09
-0.214077449267114, 0.1574452877988031, 2.1234388589309346e-09
-0.22518050555657115, 0.19290218427069344, 7.81353858957606e-09
-0.22624677924153613, 0.03629083569473933, 8.359983050402068e-09
-0.2170831165255529, 0.20911854979433975, 3.6637846891048834e-09
-0.2196913283278601, 0.08501254610484825, 5.0004423522625454e-09
-0.22185379341880063, 0.0722940470504802, 6.108663522245627e-09
-0.22417288942145794, -0.045981995002786547, 7.29715497865575e-09
-0.22723575167289703, 0.21842877409137823, 8.866812126883064e-09
-0.2179552786783845, 0.11601042323292507, 4.110750776777364e-09
-0.22017067955609312, 0.08830290556519438, 5.24610050471584e-09
-0.21853570435579045, 0.18554144656769783, 4.4082076124959616e-09
-0.2227199268961761, -0.06907466908597354, 6.552540031364688e-09
-0.212591755570784, 0.209161916739584, 1.3620498250542318e-09
-0.22674539769407803, -0.15009814052246206, 8.615515279415225e-09
-0.21655547613967494, 0.06664675237980312, 3.3933792854672844e-09
-0.22798718219665426, -0.09919067615337862, 9.251905610097186e-09
-0.2212932496253198, 0.016086655163162017, 5.821395764148365e-09
-0.2199368139714395, 0.18605481888978043, 5.126248955236788e-09
-0.2262007022656098, 0.176947427191976, 8.33636949918948e-09
-0.218563354253067, 0.21440467851618522, 4.4223776454079675e-09
-0.22184804183692264, 0.19822396119003666, 6.10571594874501e-09
-0.225396845566446, 0.20254508310276878, 7.92440862390036e-09
-0.21859214174988628, 0.08327493211911624, 4.437130675891381e-09
-0.2263631786332494, 0.09692270417933956, 8.419635467733658e-09
-0.2226582862227629, 0.04050296782117688, 6.520950388833737e-09
-0.22239830857364906, -0.00940949851098074, 6.387716915758305e-09
-0.2257239670067912, -0.11139304611053973, 8.09205198002421e-09
-0.22698376489583866, 0.10662459110341706, 8.737673819836256e-09
-0.2270923921893679, 0.02499938883380011, 8.793343188480115e-09
-0.2273138888848226, 0.14971432445539196, 8.906855923558503e-09
-0.2153719624500215, 0.08914051862181441, 2.7868516095600475e-09
-0.22263248781163264, 0.12893014241327058, 6.507729206449672e-09
-0.22342796915619567, 0.09650631515627375, 6.9153978759068845e-09
-0.2191252966143293, 0.11078201913968902, 4.710362142207554e-09
-0.2236722827932509, 0.0493786536691406, 7.040603848403011e-09
-0.2216933154495188, 0.15831679772727375, 6.026421693871564e-09
-0.22839992594761258, -0.16828154510851134, 9.463428729941539e-09
-0.21986134765155418, -0.006929994049462996, 5.08757393862357e-09
-0.22319373908984527, 0.15738104649476636, 6.795359536669156e-09
-0.2264889594076721, -0.049259795112146385, 8.484095660675562e-09
-0.22736428217792604, 0.16378576916979248, 8.932681503114155e-09
-0.21777924802237794, 0.08926124652409732, 4.020538499885717e-09
-0.2275400207400073, 0.09409293867996266, 9.022744087567767e-09
-0.21946341545062864, 0.17591661425257132, 4.883641449201588e-09
-0.21328236084430244, 0.13919592397601085, 1.7159715542055938e-09
-0.21593191475225704, 0.14714596229703836, 3.0738162399339333e-09
-0.22404693525943073, 0.04446952731378222, 7.232605927949307e-09
-0.21916334886454925, 0.06884020559213044, 4.729863178055905e-09
-0.22253393533296642, 0.09445679023110447, 6.4572229838661245e-09
-0.22799762479171615, 0.21701354285431573, 9.257257236334132e-09
-0.21896769467639432, 0.1687731956320542, 4.629594223788135e-09
-0.22782451952197624, -0.17152612782966847, 9.16854416283061e-09
-0.2164302906812601, 0.11654586452494937, 3.329224180365011e-09
-0.21495229544461805, 0.10345262337107444, 2.5717804568834523e-09
-0.21390495098791623, 0.14758005648238637, 2.0350368562380344e-09
-0.2197014007373363, 0.1292288789569127, 5.005604265609054e-09
-0.22000700116923116, 0.11297346640611908, 5.162218524771283e-09
-0.22154304422345766, 0.11848244543272271, 5.9494106222672565e-09
-0.21792843343706586, 0.1643164882631264, 4.0969931143451445e-09
-0.2124637912098343, 0.19828747822481138, 1.2964705866184734e-09
-0.22136396468570987, 0.06884895538879804, 5.85763585296608e-09
-0.22635656664334639, -0.10041030816251675, 8.416246951906546e-09
-0.22667605677496072, 0.2041927241077579, 8.579979411190647e-09
-0.2265955461315289, 0.13534121157538523, 8.538719277173269e-09
-0.2212371637007765, 0.12723170144812243, 5.792652822041538e-09
-0.22674149373964636, 0.12145328548464254, 8.613514578934103e-09
-0.225238067918085, -0.11407229948942763, 7.843038176825422e-09
-0.22247290011070586, 0.19765782929923945, 6.4259436232387e-09
-0.22731755816908705, -0.001291500776848642, 8.908736360157282e-09
-0.2255610026985689, -0.05943114364791588, 8.008535951450965e-09
-0.21968697185990535, 0.19938568216728791, 4.998209747429283e-09
-0.2164933419585387, 0.17717602213738415, 3.361536729856485e-09
-0.22797366922218654, -0.04631525747574115, 9.244980474317067e-09
-0.22700718654018054, 0.13254550797252856, 8.749676955611354e-09
-0.22693404517419358, -0.14274512007527507, 8.712193432511822e-09
-0.21835929643277233, 0.02181054258072838, 4.317801993621238e-09
-0.22477237206543457, -0.08376089799636144, 7.604378137945405e-09
-0.21898487604455602, 0.15748571355720828, 4.638399339767055e-09
-0.21952548711171732, 0.11147593249428445, 4.915451964507784e-09
-0.2136278231009505, 0.130751484819023, 1.893014220860127e-09
-0.21779458935090643, 0.04026948741578398, 4.028400631451289e-09
-0.22281183269155597, 0.12785165247980096, 6.59963995843904e-09
0.15439934214406184, 0.21192287006378124, 1.4339122988071882e-09
0.1205393744045169, 0.21359566985596504, 2.2600672098733427e-09
0.21573683665330812, 0.21986353125582514, 5.355610682303107e-09
0.12495645827580379, 0.22146331360978952, 6.1457040661857524e-09
0.13163318634996973, 0.21393174266196563, 2.426045350503503e-09
-0.05390506536852824, 0.2107180293108203, 8.388709138415175e-10
-0.08726063005459, 0.21417083921559263, 2.544129291523154e-09
0.056572306271761214, 0.2094702839675232, 2.2264000088862503e-10
0.14712631326189743, 0.22457502118485817, 7.68250034447122e-09
0.1736335737825073, 0.2222333100566484, 6.525986481958596e-09
0.18932662204909742, 0.21877939119218015, 4.820180416201385e-09
0.08536952315341856, 0.21035830644003967, 6.612125845502012e-10
0.16918078565848255, 0.21617469338954265, 3.533783866209619e-09
0.0449992072936074, 0.21468028377613602, 2.795731502125676e-09
-0.11558286254162173, 0.21130337504062868, 1.127958855872821e-09
0.05641648890467973, 0.2153301861142411, 3.1167023743410375e-09
0.20619900448334616, 0.22540597645837143, 8.092888834054349e-09
0.05219131204739853, 0.2106812286851531, 8.206959847392198e-10
0.1335494585781111, 0.21229665215813098, 1.6185141348179948e-09
0.07301360943183668, 0.20910315575507665, 4.132435443718842e-11
0.0055552103267339226, 0.21324391884210908, 2.0863459857750307e-09
0.01270526105644501, 0.21116639185605546, 1.0603062107700242e-09
0.09986424757797024, 0.22023032154897967, 5.5367594386796566e-09
-0.11968960353160801, 0.20952382379713358, 2.490820134814862e-10
0.18498855687194413, 0.2262133012911931, 8.491606826833725e-09
-0.09252648823044449, 0.20962883964345036, 3.009467719419829e-10
-0.09398214761111684, 0.21042863087398012, 6.959441027745066e-10
0.1926388479849063, 0.2225794772942199, 6.69695001549452e-09
0.06155727887294774, 0.2137000628130338, 2.3116243385662485e-09
0.027810998478096094, 0.20955818238345908, 2.660508790700288e-10
0.1519519556272042, 0.2119715243780097, 1.4579414748222886e-09
-0.009373756650849378, 0.21275561686835193, 1.8451855817698512e-09
-0.057821853409540366, 0.21569386512459676, 3.296314544225852e-09
0.20904750855096266, 0.22216811177726317, 6.493786646115206e-09
-0.03654214917169267, 0.21093175761323585, 9.444260959377245e-10
0.1063159722830667, 0.21059437185916285, 7.777995223611461e-10
0.18868602255343173, 0.21599022260337053, 3.442678255928924e-09
-0.17633782409385088, 0.21025611481396736, 6.107426394055631e-10
-0.08512473156586074, 0.21090831811112418, 9.32849899029399e-10
0.11949690169116045, 0.2133900394416715, 2.158511376696576e-09
0.12920545456277904, 0.21755568356580635, 4.215821143823652e-09
-0.20546990022537145, 0.20919508230588355, 8.67246299281971e-11
0.13414547757878192, 0.21694813666083856, 3.915768584283982e-09
0.17104115925569255, 0.22558258114999843, 8.180109572595025e-09
0.14008052046816744, 0.22321634287877787, 7.011482353930971e-09
0.017027478883972456, 0.21303187178632826, 1.981621130278869e-09
0.07422091211027386, 0.2110273409729644, 9.916323799323282e-10
0.22142484569198642, 0.2260190901279203, 8.39569068249213e-09
0.17307153671049355, 0.22062105279025884, 5.729732043888038e-09
0.11779008163898483, 0.20915751856248957, 6.817281564178744e-11
0.17482165441896833, 0.2127934341639727, 1.8638626193007874e-09
0.16675255829173719, 0.21369388935883776, 2.308575420503156e-09
0.17750770111423894, 0.2228738281305706, 6.8423226955748315e-09
0.03052125448903049, 0.21703176939273888, 3.957072745432355e-09
0.035928382164903246, 0.21549440545491, 3.1978062909122644e-09
0.19951683336736462, 0.21493220266408786, 2.9201480805137245e-09
-0.025361356516303293, 0.21328442336500764, 2.1063501791455512e-09
0.17596446863322251, 0.22276536074643843, 6.788753306990501e-09
-0.06464317197690642, 0.21008596778365157, 5.26711181872202e-10
0.10000401752017735, 0.2159879094534023, 3.441535847724884e-09
-0.045196174822193444, 0.21013225620957537, 5.495719035085644e-10
0.20563395821884764, 0.21417261550721853, 2.5450065585201404e-09
0.15328326534854078, 0.21544364534173804, 3.172737112293737e-09
0.0973109139209063, 0.21671569288974515, 3.800970289871912e-09
0.049238377293732136, 0.21925269407688772, 5.053933136909514e-09
0.18958260305084462, 0.2193746805483919, 5.114179272153965e-09
0.21042946648435312, 0.21582383404684896, 3.360503016693578e-09
-0.06629166471257748, 0.21502906777506753, 2.967987390107591e-09
0.19277977070356211, 0.21265899388119325, 1.7974658512103595e-09
0.14424363814502333, 0.20990233517581736, 4.3601952737597386e-10
-0.009740861145291376, 0.21782301297567808, 4.3478486021422795e-09
0.002284832158024913, 0.2095424959975733, 2.5830375667260625e-10
-0.05448949579206032, 0.21457355601929592, 2.7430212729203996e-09
-0.04741893731397354, 0.21571201406263865, 3.3052778609144308e-09
-0.09088395794976119, 0.21122458446871487, 1.0890461191326248e-09
0.13163192833879217, 0.21059150633246468, 7.763843087979035e-10
-0.01217511318391516, 0.21754065457912375, 4.208398694816792e-09
0.028433505019693855, 0.21932320825604418, 5.088758365656013e-09
0.18763943788499438, 0.21344298590045807, 2.1846603379496997e-09
0.0707713772902511, 0.21609481422336468, 3.494333499382603e-09
-0.06908090068778905, 0.21118846530641885, 1.0712077481249922e-09
0.06018937687575647, 0.21676140878824796, 3.82354825421551e-09
0.08245266924906258, 0.2202985479591258, 5.570454794256569e-09
0.20536189294715854, 0.21031707767412258, 6.408507052633016e-10
0.06357899831539313, 0.2143538959116859, 2.634536517293784e-09
0.11099593369148124, 0.21802905941023293, 4.449609897552849e-09
0.15352183731146446, 0.222602100429273, 6.708123028675855e-09
0.14739887262685897, 0.215037374728192, 2.9720899911192763e-09
0.0682107967763407, 0.21539306599674335, 3.1477572106575053e-09
0.07057764030482541, 0.21448850198357172, 2.7010151645696913e-09
-0.09876529410892307, 0.20921027866150266, 9.4229738359995e-11
0.09460374503975766, 0.22693166990336605, 8.846391517551372e-09
-0.16456624860679164, 0.22392661193560107, 7.362266872326189e-09
-0.07946888425787813, 0.22387746219361485, 7.337993016656622e-09
-0.152031332445908, 0.22537188843074016, 8.076053590788702e-09
0.16879331106492232, 0.22640806177461756, 8.587794266965273e-09
-0.1521031675168, 0.2124260043722375, 1.6823980302134283e-09
0.15714540258909224, 0.22667956866931027, 8.72188488288163e-09
-0.022694402252707926, 0.22545515259374704, 8.117175724773517e-09
-0.13002401972875666, 0.22461899025785287, 7.704215594412852e-09
-0.14013823563432087, 0.22331270159969507, 7.059071569856131e-09
0.12305053088168898, 0.2240499531503357, 7.423182082123559e-09
-0.20543393351751071, 0.21590027610996176, 3.398255882366884e-09
-0.0417926690904354, 0.2212940755345528, 6.062121519338536e-09
-0.1606243771567956, 0.2234541602210063, 7.12893452372245e-09
-0.2205370299767035, 0.22029374112479183, 5.568080816324329e-09
-0.07829714679526786, 0.2222882100075101, 6.553100225177359e-09
-0.06675148252312485, 0.2276450794921752, 9.198727067896537e-09
-0.15608703859451645, 0.22321024901965375, 7.0084727459275e-09
-0.03326897150995202, 0.22327671241877795, 7.041297393472996e-09
-0.02203299558733722, 0.22621786465007376, 8.493860558193466e-09
0.01790118508266096, 0.224733669680807, 7.760852957063468e-09
0.1344834753248652, 0.22516455867855095, 7.973658496180485e-09
0.10055321558762151, 0.22743538834109192, 9.09516573611971e-09
-0.19978761657883287, 0.21366274538787308, 2.2931941748318124e-09
0.02401623026717921, 0.2252730694213162, 8.027249298533417e-09
0.18021732284195416, 0.22690695467920646, 8.83418527271983e-09
-0.17303400110062275, 0.21304429175931916, 1.987755051223676e-09
0.11979508028846705, 0.22449517819518675, 7.64306784433612e-09
-0.1476710220692019, 0.22477245532496815, 7.780008238258682e-09
0.03685743830402316, 0.22244388811755267, 6.629985836807702e-09
-0.06262098881645262, 0.2255674043289721, 8.172614111820895e-09
-0.05278954837809334, 0.2249674020067553, 7.876287637208307e-09
0.006056442303865456, 0.2242549206031491, 7.52441049483722e-09
0.15164179614901102, 0.22691165811785796, 8.8365081860529e-09
-0.2014469652503257, 0.22653233175011678, 8.64916816899255e-09
-0.04628687191049005, 0.22432123975527568, 7.557163902317974e-09
-0.010037816451242541, 0.22392245411491968, 7.360213426366112e-09
-0.1383496674870833, 0.22523702601054102, 8.009448339349518e-09
-0.21224961871515788, 0.2147134529255445, 2.81211293390714e-09
0.04689190220501513, 0.22457336805820607, 7.681683905642944e-09
0.004805411774937311, 0.22269623955893306, 6.754616042756539e-09
-0.20830112839393908, 0.21637558322222744, 3.632998442055018e-09
-0.13916312552424676, 0.22811100218912522, 9.428834894344758e-09
-0.14947284423100574, 0.2243043076441824, 7.548801546703274e-09
-0.09360048780930687, 0.21551811013786162, 3.209513454152745e-09
0.21943870670582702, 0.22831876010049962, 9.531441446304414e-09
-0.1434100069285942, 0.22186848706137707, 6.3458093258986815e-09
-0.21519369898080273, 0.21570838248110513, 3.3034843116009607e-09
-0.06670668867324143, 0.2255865667048715, 8.182077940684918e-09
0.07437131491995952, 0.22818854427606444, 9.467131034886187e-09
-0.17594771781942198, 0.2211290676274239, 5.980628149076144e-09
-0.19760771372034003, 0.22325727126929948, 7.031695885155363e-09
-0.2110763533346466, 0.21412296276375062, 2.5204842827190477e-09
-0.050119740003743446, 0.2163869163714291, 3.6385956073072805e-09
-0.08823380818524258, 0.22519662722406908, 7.989496366614447e-09
-0.0652926878016154, 0.21765080918021565, 4.262801358598682e-09
0.029932078762007847, 0.22550936107903669, 8.143947970055205e-09
0.06523444277532586, 0.22489866054136937, 7.842337908443484e-09
-0.20830311289787592, 0.22334367480889855, 7.074368480469396e-09
0.06780803686714149, 0.22130849789937027, 6.069244372640411e-09
-0.16233804817191963, 0.22197427849278492, 6.398057126869666e-09
-0.2033228137467173, 0.2150910172423272, 2.9985827170879097e-09
-0.1302320851516661, 0.21266757997551075, 1.8017063132312196e-09
-0.14156931718872695, 0.22493097928287015, 7.858299344555034e-09
0.1984949883048119, 0.22773765545044494, 9.244448069852994e-09
-0.1896915558914077, 0.21793111523232828, 4.401237663192025e-09
-0.051528225549844806, 0.2185618286240542, 4.712731584033182e-09
0.0008364392368790455, 0.22105996520371807, 5.946500151823934e-09
-0.2206442733763937, 0.22133250840474944, 6.081102574099356e-09
-0.15698913344284235, 0.21857147221609227, 4.717494318318394e-09
-0.009257598730960374, 0.21820822240795923, 4.538094120915696e-09
-0.06303225566023213, 0.21646685471538726, 3.6780752005928005e-09
0.025183220351203184, 0.22300975811974555, 6.909455193225056e-09
-0.07590792288512029, 0.21693689374799305, 3.910215984561408e-09
-0.19708790805869258, 0.21528131618694896, 3.092566712306334e-09
0.13006703299087272, 0.22708669327503328, 8.922953769908981e-09
0.04683222710154858, 0.22816184877052104, 9.453946777504568e-09
-0.10469518119964055, 0.22675855964207314, 8.760896592700616e-09
0.041703490700518736, 0.22185403008812515, 6.338669380337344e-09
-0.12219924063626902, 0.2249741774158293, 7.879633846065552e-09
-0.09017966947898172, 0.2181897484619041, 4.528970290717045e-09
-0.024658184769007333, 0.21876744159004122, 4.81427879991803e-09
-0.0781831621456104, 0.22377134172544114, 7.2855827124731665e-09
-0.2214070499930676, 0.22286213509648023, 6.8365477919765855e-09
-0.10371488903347659, 0.22018365676859686, 5.513712844779267e-09
-0.1973199935231137, 0.2122843608687023, 1.612443767537779e-09
-0.1228382354769253, 0.21823960812623283, 4.553594759671313e-09
0.07372008498004246, 0.22780962368799704, 9.279991422483864e-09
0.15882896628012744, 0.2274122630237851, 9.083744707403493e-09
-0.12725625179905714, 0.2185451127270764, 4.704476011282851e-09
-0.16572537156949346, 0.21879987160195502, 4.8302951897655655e-09
0.03291939786095998, 0.2236591235474432, 7.23016089851966e-09
-0.1067777454644617, 0.21840160496406547, 4.633601036440321e-09
-0.013052649492119404, 0.21786917515919244, 4.370646975739734e-09
-0.07134929345041072, 0.21650313087312198, 3.6959911078084718e-09
-0.20779928829564925, 0.22424452028615263, 7.519274032599824e-09
-0.15847497893076928, 0.22585758900511468, 8.315929227252837e-09
-0.11323750679972147, 0.21530117650038888, 3.102375235454406e-09
0.22263948625044244, -0.031119639853193708, 6.511315769802001e-09
0.22842988008011655, 0.0591282724813611, 9.478779638452618e-09
0.21694883938677656, -0.2003197558422646, 3.5949702751936175e-09
0.22667798127423783, -0.15468679216641043, 8.580965679523693e-09
0.22693373239240353, -0.226471168752274, 8.712033137946703e-09
0.2167983026044158, -0.1856248074106878, 3.5178231111666693e-09
0.22025735950098158, -0.17198950207720642, 5.290522285368304e-09
0.21956660224892288, -0.10493854281115887, 4.936522670180135e-09
0.21590353145086053, -0.16088959030825978, 3.059270351718956e-09
0.2257848788385337, 0.1250439145482873, 8.123268105418429e-09
0.2183241899248071, -0.035986147887924605, 4.299810593207783e-09
0.22559428722900915, 0.054382111071006725, 8.025593623929157e-09
0.21618515470957836, -0.11651752914370965, 3.2035967774163006e-09
0.21946695461656007, -0.20759181382874747, 4.885455202693248e-09
0.2264694303976414, 0.10703923643334201, 8.474087424040656e-09
0.22374716605248393, -0.18658141399052044, 7.078980057807296e-09
0.2185731836502477, -0.14690291033951558, 4.427415019694147e-09
0.22604347541600037, 0.056291015772975544, 8.255793806219037e-09
0.22093338371272636, -0.18627545008458948, 5.636971504833311e-09
0.22712905786254514, 0.1458372162520242, 8.812133630645847e-09
0.22439589389823048, 0.05780043982894851, 7.411440422243107e-09
0.21742931817010813, -0.0834312406059985, 3.8412062776366335e-09
0.22768850891729323, -0.07266881556580565, 9.098841381461615e-09
0.22747413664414382, 0.09536129679982752, 8.98897977381909e-09
0.2283693535772972, -0.11385195828645085, 9.447760986613785e-09
0.2249237346876129, -0.054972493671182905, 7.681948528766925e-09
0.2204050346574321, -0.19698421494721297, 5.366202921945828e-09
0.2237464731197747, -0.2152062236659466, 7.078624943312755e-09
0.21872555409072553, -0.03238343642321224, 4.5055018977318956e-09
0.22696579536025582, -0.17163073416266383, 8.728464783430965e-09
0.22815874356529825, 0.007360932526098471, 9.339827464410156e-09
0.2256131413987899, -0.2077610767368714, 8.035256018101934e-09
0.22529483688554505, 0.09084083667146323, 7.872131165101098e-09
0.2274806511437315, 0.050737635526624705, 8.992318327761608e-09
0.22213039649862107, -0.19735548717477255, 6.2504172042004285e-09
0.2257693099433959, -0.002646104510971109, 8.11528935040536e-09
0.2214592280289791, -0.20579063527502228, 5.906456457828858e-09
0.22231108254362864, -0.09860842384906637, 6.343015277129704e-09
0.22402520853510954, -0.05495553355839896, 7.221471405617356e-09
0.22322799894515932, -0.07266813195371652, 6.812917044116855e-09
0.22715173702794314, -0.07389650303911008, 8.823756260447788e-09
0.22428602044561247, -0.007853429863081324, 7.355132421378501e-09
0.22193285722904144, -0.20929909207946285, 6.14918218247993e-09
0.2160779799440677, -0.07893651910727151, 3.148671801043501e-09
0.21476865168185805, -0.20081187714735088, 2.477666611310341e-09
0.22676531098569325, -0.20952134577407217, 8.625720452864933e-09
0.22372180004950082, -0.05905786209721301, 7.065980476162482e-09
0.22801854144891162, 0.1770898304705471, 9.267976615068342e-09
0.21839510639218374, -0.09672079871215236, 4.336153899176709e-09
0.2226088385129122, -0.20177170026216268, 6.495609402247022e-09
0.22611543424210628, -0.03025519431012691, 8.292671300700594e-09
0.22692858079139872, -0.19350275675937356, 8.7093930429381e-09
0.2242636260825919, -0.005209428506053333, 7.3436557472385664e-09
0.22744657874454283, 0.05916362709530984, 8.974856887920948e-09
0.2221799647705376, -0.06518568034240256, 6.275819976493731e-09
0.22651454800860754, -0.15367542552665758, 8.497209319428106e-09
0.216800316626227, -0.0732505235378768, 3.5188552580518593e-09
0.22575208627245621, 0.04277508941934804, 8.106462555078046e-09
0.22849379834303069, -0.01054928337019602, 9.511536501167614e-09
0.2255746871711405, 0.09631829863542404, 8.015548976663447e-09
0.22381389099373183, 0.004199860358984044, 7.113175288410805e-09
0.226771030558664, 0.07624717265276897, 8.628651622425082e-09
0.2170287756633832, -0.174413568223495, 3.6359360574188197e-09
0.22342272781406425, -0.026311412001912164, 6.91271179032172e-09
0.22491670945047207, 0.06720020553865627, 7.678348231792784e-09
0.2183287593773257, -0.057582615755880404, 4.302152348474763e-09
0.22318993364828207, 0.07814270758999987, 6.793409322111163e-09
0.22164398889223036, -0.2155360021492591, 6.001142795609385e-09
0.22678854836280915, -0.0953259015451196, 8.637629155281756e-09
0.22734951749258536, -0.10883462895494495, 8.92511488993219e-09
0.2168660388603699, -0.07250176757904578, 3.5525366208266525e-09
0.22697377624179205, 0.09452220032605915, 8.732554829513366e-09
0.21587067521442477, -0.1327743336573437, 3.0424321715621473e-09
0.21980428580680422, -0.19610682250647749, 5.058330856450781e-09
0.2196677573476514, -0.15832881538254925, 4.988362684769208e-09
0.21892282236776942, -0.04617383325220388, 4.606598041064792e-09
0.21793533249895866, -0.0466324104112856, 4.10052874896633e-09
0.2162108004968383, -0.10967902866773886, 3.2167397430444526e-09
0.22418529062277948, -0.027499556200056, 7.3035103523888784e-09
0.22260252494819277, -0.12599892930281836, 6.4923738235043085e-09
0.21266358464475324, -0.2065920658679287, 1.3988608240971641e-09
0.22348692343566576, -0.10191630373836902, 6.945610793952835e-09
0.22807007693533315, 0.06408377625322702, 9.294387546415617e-09
0.22395383860796558, -0.19980257519806435, 7.184895710364538e-09
0.2275690571248694, 0.1164505519187669, 9.037624668317402e-09
0.2227632805743784, -0.07601686001926948, 6.574757945624553e-09
0.22813587700193044, -0.0007494400524178935, 9.328108796804777e-09
0.22330687571789304, -0.003278654099886008, 6.853339851277824e-09
0.2186761934710865, -0.10724262515674728, 4.480205543179556e-09
0.22512417785931324, -0.06966008267578666, 7.784671743669906e-09
0.22711054739569397, -0.15244400774166791, 8.802647377518956e-09
0.2212566038633591, -0.07349458558431467, 5.802615526092675e-09
0.22130208151428327, -0.11874781612762275, 5.825921934934326e-09
0.22182828958717243, -0.0457285903892803, 6.095593306109209e-09
0.21337271860760798, -0.17826427916455712, 1.7622781450435336e-09
0.2129741444797252, 0.19512758244036088, 1.558016680579779e-09
0.21912292498517338, 0.060533129812832376, 4.709146728535003e-09
0.21336715422695357, 0.13109627968858084, 1.7594265085177442e-09
0.21665577278228315, -0.011663739813512406, 3.444779358042929e-09
0.22064654073473597, 0.16875079157962636, 5.4899700748441516e-09
0.21814994457329223, 0.1253565703438657, 4.2105132500372835e-09
0.22139800319394584, 0.12999590021469737, 5.875079924354688e-09
0.22005916786579394, 0.17290194810584147, 5.188952939001209e-09
0.21472466347238794, 0.09987569078761899, 2.455123512155295e-09
0.21143211558050884, 0.006932415098931555, 7.677569543087683e-10
0.20999349465127876, -0.03627419841643355, 3.0491795193506514e-11
0.21062976774609934, -0.0037580620328998143, 3.565693427686729e-10
0.21969466152387984, 0.04172667169918247, 5.002150550192898e-09
0.21195913841069663, -0.043486474415873964, 1.0378458727035227e-09
0.217554051818163, 0.09878884385652167, 3.905129838744152e-09
0.21223511630120098, 0.20944775575091348, 1.1792791573311004e-09
0.21548580643345233, 0.19840654716267156, 2.8451944300022233e-09
0.2164252091175685, 0.07409661914694038, 3.3266199781130134e-09
0.21252204581676756, 0.13793332940880554, 1.3263249361397413e-09
0.2278186280784014, 0.21241960194141396, 9.165524912939014e-09
0.22354569255667772, 0.17250278772748234, 6.975728821901398e-09
0.21234130975341203, -0.06912255519110086, 1.2337012297829917e-09
0.21207071152658255, -0.08119204696186991, 1.09502491783295e-09
0.2199216513948884, 0.038296295731418434, 5.118478430572229e-09
0.22024093318368737, 0.12166112847690516, 5.282104118228157e-09
0.21621001403165127, 0.1891442579454967, 3.2163366949798358e-09
0.2137669348516131, 0.1772274018704157, 1.9643062790411428e-09
0.2177794193764881, 0.16398601542633862, 4.020626315524093e-09
0.21444300305609307, 0.003926931944978451, 2.3107780439246487e-09
0.2227264250912286, 0.10943531307212512, 6.555870229551048e-09
0.2156050174075248, 0.04805830652544073, 2.906287728439697e-09
0.2233497567727556, 0.14968680893432024, 6.875315555296814e-09
0.2159443730092903, 0.06538755583940162, 3.0802008536061733e-09
0.21004296747811144, 0.18990779852170803, 5.584565374342037e-11
0.21029203508007002, -0.07706344852637609, 1.834879405039283e-10
0.21407277150244136, -0.05027783360694274, 2.1210415957981595e-09
0.21540587437236156, 0.0853632098080991, 2.804230808146657e-09
0.2130285013710511, 0.1440855986634802, 1.5858735268956623e-09
0.2243485687219554, 0.19605451456596323, 7.3871871927038554e-09
0.2221498977737162, 0.17607286251545576, 6.260411227221937e-09
0.21286490492914661, -0.05292284314845806, 1.5020335421430892e-09
0.2237161024860049, 0.12425287566669048, 7.063060586028771e-09
0.2167058578077283, -0.01480179598758995, 3.47044695643794e-09
0.2117576372586123, 0.10786359232054599, 9.345804634946562e-10
0.21076953840236204, 0.10305152377577288, 4.2819907721463784e-10
0.21016458286155212, 0.1830148954601859, 1.1817116507271704e-10
0.21630491189912598, 0.08935935263465401, 3.264970000628261e-09
0.2141169807187874, -0.01714694488371387, 2.143697956665366e-09
0.21371051280097622, 0.1694135005721534, 1.9353910788690685e-09
0.21747624983764807, 0.015607023302010959, 3.8652578416263825e-09
0.22259755650010563, 0.1537769098551547, 6.489827590792755e-09
0.22159760926467223, 0.08243003323748382, 5.977374141340143e-09
0.21889276095334054, 0.21561950639162897, 4.591192152660257e-09
0.21091261337502715, 0.10412395381438863, 5.015222093505153e-10
0.2148007838657845, 0.17175032314798358, 2.4941337286821973e-09
0.21744789385512886, 0.21408093451876442, 3.850725953803025e-09
0.22136576398999946, 0.1776974053517026, 5.8585579613105636e-09
0.21185940445952123, 0.07134519063356956, 9.86734168509209e-10
0.2150288464553308, 0.12592914604205724, 2.6110113563836804e-09
0.21172312321352466, -0.0931688678333975, 9.168926887471524e-10
0.21167107776197436, -0.10942302865262568, 8.902204102206861e-10
0.22313313753960004, 0.1739040467616622, 6.764302424488737e-09
0.2127529243939856, 0.13477715238726462, 1.4446457025838008e-09
0.22572877275400643, 0.20916360325290195, 8.094514831713145e-09
0.21171358714158656, -0.11578584965735741, 9.120056379251167e-10
0.21995300576440352, 0.09903723949552887, 5.134546933233227e-09
0.21295665298140978, -0.07192229222190652, 1.54905262894764e-09
0.2123365597933651, -0.13043205052584772, 1.2312669679294199e-09
0.21177839673007717, -0.07137214049010544, 9.45219287608581e-10
0.21723886116167096, 0.20759841451725142, 3.743600776578609e-09
0.2173774172812956, -0.0052870270902606355, 3.814608084692859e-09
0.21435629097949543, 0.09888927018675966, 2.2663397963981113e-09
0.22185903347547425, 0.09549526726029738, 6.111348949058745e-09
0.21095160996728882, -0.12332324015269747, 5.215072020713644e-10
0.21253328190563014, 0.17741551412187503, 1.3320832124686978e-09
0.22030006835542332, 0.132845400937306, 5.312409740031209e-09
0.22080612938677657, 0.15906121149133834, 5.5717561454824195e-09
0.21899322921815229, 0.18051939797017752, 4.6426801782669085e-09
0.21683294925965718, 0.2154504086777233, 3.535578846030774e-09
0.2149516548488855, 0.12018308248876665, 2.5714521640683674e-09
0.2187080672923828, 0.11990385823454242, 4.496540254744058e-09
0.21065236127195913, -0.10312997496405002, 3.681480839780847e-10
0.21943759083288486, 0.03435583223875261, 4.870406836439405e-09
0.22244059497352445, 0.11811561082342939, 6.409387870697927e-09
0.21066136658446633, 0.20573875074861922, 3.727631309467348e-10
0.2134183935670906, -0.028859542726122157, 1.7856856706719507e-09
0.2192546690260072, 0.12492164028751426, 4.776662979170809e-09
-0.020633190740354426, -0.21584166466489504, 2.13827391130056e-09
0.16206111580595964, -0.2247489282643692, 7.415420888342972e-09
-0.07217301873279053, -0.21636844601365496, 2.450367807605002e-09
0.14455823436139303, -0.21436334919933572, 1.2624394978391704e-09
0.14037542611323878, -0.2248258802972347, 7.461011454186053e-09
0.22089752431823254, -0.22533898326319454, 7.765001533236397e-09
0.075049451976196, -0.2129101640874692, 4.014936714888647e-10
0.16700013646099965, -0.21838389666453656, 3.644430292777906e-09
0.10209383138945098, -0.21597637158251842, 2.218081609274709e-09
0.1597239243925308, -0.22253302058834767, 6.102596768642262e-09
-0.08792405282987048, -0.21393263965803694, 1.007263760816818e-09
-0.026821337405538832, -0.21452696311845687, 1.359373274307088e-09
-0.12251824566234415, -0.21500473848979929, 1.642433366604546e-09
0.17283215769311433, -0.22222950911472622, 5.9227800788550795e-09
0.08254297560254689, -0.21948497867843558, 4.296771110609537e-09
0.21808235744960075, -0.22146407628498582, 5.469296076896051e-09
-0.00027084913190671134, -0.21669458909738856, 2.643592693024339e-09
0.12004685305125554, -0.2228812281261322, 6.308893835623798e-09
0.20282142841593678, -0.22442972105965178, 7.226305194548545e-09
0.1898114294017541, -0.22502980793433583, 7.581829267832784e-09
-0.05720510123361764, -0.2168277793111274, 2.72250181319958e-09
0.16940634667159868, -0.2128085282486838, 3.412790777007716e-10
0.13751097440187995, -0.21379639162770656, 9.265430239309708e-10
0.1794110118861451, -0.21784806682814786, 3.3269755807073083e-09
0.18114836252175318, -0.22241773263138653, 6.0342939181907595e-09
0.10014420836618239, -0.22036572785089725, 4.818574780286833e-09
0.1655510307415426, -0.2126676993864772, 2.578444070890516e-10
-0.03485971198025926, -0.21633607327806859, 2.4311884399091576e-09
0.16037672879365827, -0.21338891549291128, 6.851320194246356e-10
0.06907585150045376, -0.21356540547853667, 7.896942773751443e-10
0.08411662287164803, -0.22201268862316764, 5.794323837630011e-09
0.1458877101923864, -0.21369829490740522, 8.684251962485692e-10
0.21191132029621618, -0.2223094461518648, 5.970139123434657e-09
0.11236898828833193, -0.22344798467654203, 6.6446712136381754e-09
-0.024971697721129185, -0.2149481720451146, 1.608920330952649e-09
-0.03974536275376181, -0.2142947696161877, 1.22180922616764e-09
0.14980652269818331, -0.2194410191472106, 4.2707270955508806e-09
-0.024798667944345376, -0.21361403240011678, 8.18503508106181e-10
0.028118763294333222, -0.21740274356628952, 3.0631418815158795e-09
0.0955681338091515, -0.21947077809871718, 4.2883579155248475e-09
0.004714617962866166, -0.21228486270130745, 3.103115144858829e-11
0.2079405877985675, -0.2198622337679323, 4.520277525669389e-09
-0.017111556788316634, -0.2127289436402664, 2.941288310465994e-10
0.17863502741955264, -0.21888298362852648, 3.9401165306317024e-09
0.028582132487267153, -0.21837971499313166, 3.6419528434055837e-09
0.19834795607086975, -0.21289468113684812, 3.923207301973707e-10
0.1163646824546213, -0.21822753173278148, 3.551791210335611e-09
0.2067141715288, -0.21362641193195525, 8.258378154710573e-10
0.17098644538884886, -0.22339902032044165, 6.615662068361134e-09
0.2034897088283368, -0.22159266385848955, 5.545478342888541e-09
0.04810018255762794, -0.21648357201234839, 2.5185747051778952e-09
0.12611192700444473, -0.21947173065130043, 4.288922259436879e-09
-0.1456866190817939, -0.21368496168913864, 8.60525873220347e-10
0.04926931658591642, -0.21947348198845157, 4.289959846732846e-09
-0.037324056212555856, -0.21534313489465542, 1.842917785302349e-09
0.061216262993527844, -0.21589456974451698, 2.169617755330688e-09
0.08106874094009357, -0.22077721866296476, 5.062364297766818e-09
0.05976680791874456, -0.2124693967520182, 1.4035915067017373e-10
0.17705939965988512, -0.2226121400928752, 6.1494714624783065e-09
0.1563812165543197, -0.22560095841706052, 7.920209850116752e-09
0.16865421427803157, -0.21745412870825587, 3.0935852318854378e-09
0.19617303820703583, -0.21905602089557752, 4.042633210478014e-09
0.12111693390877712, -0.21804370423969655, 3.442881814245923e-09
-0.0028633799788069375, -0.21374642134694438, 8.969379142223587e-10
0.07038169482472048, -0.21997711622328306, 4.588340134931926e-09
0.20200255286876564, -0.21897384559505717, 3.99394809704385e-09
0.17343273961329794, -0.224937609348885, 7.527205815740476e-09
0.04414685476355755, -0.21382872226735528, 9.456974517058805e-10
0.05754813487249428, -0.21958870913419476, 4.3582266693143525e-09
-0.013207160217134584, -0.21427177599365343, 1.2081865547048826e-09
0.17026417162533014, -0.22004655292020958, 4.629478207381366e-09
-0.07512456277391213, -0.21474526128830093, 1.4887049724454925e-09
0.06850320673246592, -0.21595669598500183, 2.206424716133879e-09
0.1919724625061779, -0.212649691684321, 2.471756657931748e-10
0.14800276136353183, -0.21944757789429967, 4.27461285372877e-09
0.00787695634232549, -0.21913975320465284, 4.092240780388026e-09
-0.02617956163614933, -0.22070737030868792, 5.020982337133584e-09
-0.09405655778410538, -0.21847716517712645, 3.699687627847218e-09
-0.0301354759923715, -0.226216871109744, 8.285109997958862e-09
-0.0104939960004189, -0.22202881981486955, 5.803880832163208e-09
-0.17154530263871168, -0.215348798110613, 1.8462729821747717e-09
-0.04014080893816517, -0.22692520278614156, 8.704764173800859e-09
-0.049158159350996086, -0.21829303408043763, 3.5905983604847714e-09
-0.14223263174469894, -0.21683741612424007, 2.728211184951953e-09
-0.1252574531859827, -0.21588089294951418, 2.161514878773973e-09
-0.18516473939502637, -0.21642841430109885, 2.4858962797635862e-09
-0.21971524303291318, -0.22563114215409624, 7.938092336121044e-09
0.04480687901187257, -0.22557061065190298, 7.90223018493983e-09
0.1453096543339743, -0.22787039964463232, 9.264750154769152e-09
0.011198514450198309, -0.2226751048945727, 6.186775232511312e-09
-0.13717152666204677, -0.21731451897434245, 3.010872839122026e-09
-0.12197637133626463, -0.2271817855118794, 8.85677772323357e-09
-0.2041032033154983, -0.22616271436902738, 8.253024601881003e-09
-0.15373647688377018, -0.22244354320784315, 6.049585506230422e-09
-0.13804714421010647, -0.22444709631043208, 7.236599237281906e-09
-0.19605636987406472, -0.22459498450010973, 7.324216237091349e-09
-0.04374181545848807, -0.2272231977261998, 8.881312569336761e-09
-0.08658640524690803, -0.22563038080274186, 7.937641270206871e-09
-0.16230150206492888, -0.21551864503880522, 1.9468995319181137e-09
0.012445164393225697, -0.22304500166761804, 6.405922181054429e-09
-0.1145560811857052, -0.21924106102336188, 4.1522610372582325e-09
-0.0018017069472644892, -0.22473908968071632, 7.409591976758371e-09
-0.135626935224254, -0.21716880789878382, 2.924545680021069e-09
-0.03232195076259367, -0.22506544577078205, 7.602943058703612e-09
-0.17512102074493785, -0.22704747123278624, 8.777202645660709e-09
-0.09072503804669793, -0.21800375617083806, 3.4192144074760637e-09
-0.057446815976816855, -0.21798887845092402, 3.410400037743653e-09
0.05325962159265518, -0.2270893420865535, 8.80200921469466e-09
0.15574614443082008, -0.22743044128837175, 9.004094917182794e-09
-0.1133724334455247, -0.21697735247914973, 2.811117085742134e-09
0.10613897556689073, -0.225818252547116, 8.048946700524915e-09
-0.1785964696911043, -0.22522416435413234, 7.696976572248334e-09
0.11490849908132902, -0.22597324414780315, 8.14077214701573e-09
-0.041156872969172656, -0.2188803418493518, 3.938551397094355e-09
-0.09758443828394486, -0.220125523053021, 4.676264405295959e-09
-0.12799137415553502, -0.2277205867418115, 9.175992850304784e-09
-0.20888776300709327, -0.22243189267100968, 6.042683095120066e-09
-0.1334431378404115, -0.2266061669324685, 8.515749997676284e-09
0.10489302647606087, -0.22604711608439815, 8.18453789645572e-09
-0.12503814858681733, -0.21710697709265198, 2.887913750582506e-09
0.011495167789354643, -0.22098129721776075, 5.183271523256881e-09
-0.01734631274457768, -0.2260808785767226, 8.204540631562587e-09
-0.009495527021769402, -0.22169804399913534, 5.607911264564063e-09
0.12256971031221353, -0.22681747614651393, 8.640941058619743e-09
-0.05386337051906317, -0.22136882229403376, 5.412862436554062e-09
-0.1945402154591838, -0.22765920768641018, 9.13962856254709e-09
0.0844788117652123, -0.22406934435650233, 7.012798452732346e-09
0.22098816347666406, -0.2282234282084998, 9.473903459576785e-09
0.07861988755212057, -0.22740020017769483, 8.986178439915805e-09
0.12464505790534725, -0.22475763712279584, 7.420580489314307e-09
-0.10513543758725966, -0.21643616301050989, 2.4904870362835625e-09
-0.13695773412175216, -0.21904566771623035, 4.036499424440982e-09
0.040812081978860916, -0.22471367578790669, 7.39453540566697e-09
-0.17243511960434113, -0.225945601579363, 8.12439518737458e-09
0.09583868396938966, -0.22503137439685283, 7.582757325349437e-09
0.029582864126896646, -0.22623045150105028, 8.293155759727187e-09
0.2067590023882779, -0.2280259791027547, 9.356923879948774e-09
-0.18594829587484588, -0.21562067723327877, 2.0073489483538086e-09
0.03698040283460338, -0.224562215648525, 7.304802188753116e-09
-0.09973039208656953, -0.2176210671920395, 3.1924886611162313e-09
-0.20718207690052956, -0.2256875498337958, 7.971511310768424e-09
-0.19787059859929879, -0.21606289133545659, 2.2693406123987357e-09
-0.114860502938431, -0.22645210390388626, 8.424474687759028e-09
0.00592104784057218, -0.22569359025758118, 7.975089986055511e-09
-0.1430742270786387, -0.2167875592648604, 2.6986732722336578e-09
-0.14374124254103193, -0.21916020904208794, 4.104359930054782e-09
-0.20591752373011216, -0.22598329898617592, 8.146729179647664e-09
0.03387414886448925, -0.22403317135689638, 6.991367602124932e-09
-0.12790617422771722, -0.21688795035160507, 2.758150407272976e-09
-0.11439325540677442, -0.22335938392268212, 6.5921793124864846e-09
-0.09198915746868244, -0.22011547427326908, 4.670310962120226e-09
-0.042883316361898516, -0.21852921902964728, 3.730527158686981e-09
0.0578762267313186, -0.22594730916510933, 8.125406853960916e-09
-0.05972153391413072, -0.22619807613367277, 8.273974832815264e-09
-0.051621890159072245, -0.2231552316666182, 6.471228422360392e-09
-0.002572447781417672, -0.22456869003523247, 7.308637967256802e-09
-0.12438876220472744, -0.22565918415839428, 7.954705943269738e-09
-0.056352449626906886, -0.22615342356894674, 8.247520227051142e-09
0.12422738664537192, 0.009718836190520927, 0.001454299665056169
0.1872469645256941, -0.1471292402640509, 0.001454299665056169
0.2094392306484949, 0.023777728157474656, 0.001454299665056169
-0.15051394447568509, -0.2088033312181221, 0.001454299665056169
-0.08703215629064151, -0.12906227188543506, 0.0014542996650561692
0.20419103036082614, 0.058704840273078915, 0.001454299665056169
0.19633856101706376, -0.18037997520497506, 0.001454299665056169
0.13868274980567458, 0.12125861375565361, 0.0014542996650561688
0.20967392648801714, -0.20796424217337753, 0.001454299665056169
0.12082309149327122, -0.1557905379298236, 0.001454299665056169
-0.11968814942309373, -0.13901781956609446, 0.0014542996650561688
0.12995933361312004, 0.11779437402777079, 0.001454299665056169
0.11170538871199076, -0.07435240065388571, 0.001454299665056169
0.11365049458095111, -0.018308621482983463, 0.001454299665056169
0.13554648758399915, -0.06627156483561153, 0.001454299665056169
-0.09424897029287223, -0.11573902645533576, 0.001454299665056169
0.12541251125586067, -0.20718928054047583, 0.001454299665056169
0.023025010075352757, -0.06411152292470512, 0.001454299665056169
0.0470296011968597, -0.1040007841277123, 0.001454299665056169
