-0.023243582937114496, -0.224995169371921, 0.02655106969177723
-0.18819208305929003, -0.20818233456914018, 0.02655106969177723
-0.18943094692516055, -0.21792567964498477, 0.02655106969177723
0.15396139787398283, -0.22460669785421136, 0.026551069691777226
-0.14507276185146292, -0.2235056219860673, 0.02655106969177723
-0.10109325066404579, -0.22688662927044212, 0.02655106969177723
-0.018185733168939955, -0.22777723082489126, 0.02655106969177723
-0.1902195328721969, -0.20949662631002638, 0.02655106969177723
-0.07113328271533238, -0.2263068886253929, 0.02655106969177723
-0.03758049132496544, -0.22479259464824777, 0.02655106969177723
-0.02498917072982352, -0.21719561205378793, 0.02655106969177723
-0.05303771589967284, -0.22313153306142688, 0.02655106969177723
0.0988517129672872, -0.22532214090889674, 0.02655106969177723
-0.0775360511589903, -0.22447069777742432, 0.02655106969177723
-0.05748849832688287, -0.21445124604331026, 0.02655106969177723
-0.16134772399787578, -0.2208220584149958, 0.02655106969177723
-0.20187908922286196, -0.21490880877536328, 0.02655106969177723
-0.19193716372409111, -0.21899241451579948, 0.02655106969177723
0.029887022140014846, -0.22611366291585877, 0.02655106969177723
-0.013358549495193162, -0.2258147044767938, 0.02655106969177723
-0.04873439140899381, -0.22103742917990057, 0.02655106969177723
-0.1491875368039417, -0.2216168345468843, 0.02655106969177723
-0.12245512714770787, -0.21872987978468292, 0.026551069691777233
-0.0442253690726806, -0.22515997716999336, 0.02655106969177723
-0.13830014961757062, -0.22768668211269857, 0.02655106969177723
0.03138479364910625, -0.22681300946070432, 0.02655106969177723
-0.06771029726054509, -0.22349190057905755, 0.02655106969177723
-0.1803236651840639, -0.2252166203995396, 0.026551069691777226
-0.13306453701813753, -0.2156584168294473, 0.026551069691777233
-0.1862041087756724, -0.20946084798028128, 0.02655106969177723
-0.19987896529326848, -0.2118156929363616, 0.026551069691777226
-0.13854115650387666, -0.21304743315831937, 0.02655106969177723
0.18923026419447303, -0.22676244903491055, 0.02655106969177723
-0.21495608883249023, -0.22088988065495999, 0.02655106969177723
-0.125787892152332, -0.22636050011712266, 0.02655106969177723
-0.14808761143155602, -0.21680985545540932, 0.02655106969177723
0.02071515343431589, -0.22200456372743838, 0.02655106969177723
0.01584376300623669, -0.21769761141522864, 0.02655106969177723
-0.07547649933706461, -0.21586123642451632, 0.02655106969177723
-0.1913308498028667, -0.21003302623358044, 0.026551069691777233
0.06008878148218618, -0.22457504387220317, 0.02655106969177723
-0.0028918373531965497, -0.22510760173569638, 0.02655106969177723
-0.08214616879222626, -0.22758713672978284, 0.02655106969177723
0.07062453548890957, -0.2257712708678897, 0.026551069691777226
-0.09876070824774014, -0.21306494409279414, 0.02655106969177723
-0.22045276596021388, -0.22647663151634168, 0.02655106969177723
-0.03737927786500385, -0.22504922553254264, 0.02655106969177723
0.16011726520696026, -0.225669477761535, 0.026551069691777233
-0.1355411834946829, -0.2243749021175942, 0.02655106969177723
-0.12795057730650414, -0.22069148360078403, 0.02655106969177723
-0.07400388386604356, -0.2222482138872937, 0.02655106969177723
-0.037003624516640625, -0.21398024548984923, 0.02655106969177723
-0.10205377543929882, -0.2204517158478522, 0.02655106969177723
0.13611087904046867, -0.2264807719134315, 0.026551069691777233
-0.1789336878212492, -0.21277951094638586, 0.02655106969177723
-0.1356146945494431, -0.21206523550869322, 0.026551069691777233
-0.0824200972699915, -0.22626493995430408, 0.02655106969177723
-0.032700285836975276, -0.2210100216924823, 0.02655106969177723
-0.03550114118927237, -0.22353638645385088, 0.02655106969177723
-0.12689616452495167, -0.22219725948023422, 0.02655106969177723
-0.13902192351895815, -0.2227359579491656, 0.02655106969177723
-0.17289485471718632, -0.2222361209426667, 0.02655106969177723
0.06740059413820595, -0.22485662740306278, 0.02655106969177723
-0.009936556483207223, -0.22488735287368963, 0.02655106969177723
-0.13610763707160262, -0.228073438502087, 0.02655106969177723
0.18518581141191998, -0.22698050701234582, 0.026551069691777226
-0.20650378781699866, -0.21493696549098606, 0.02655106969177723
0.08029625746419888, -0.22478143981124749, 0.02655106969177723
-0.2121055856793278, -0.2177531255394358, 0.02655106969177723
-0.18760399894918056, -0.2106201617098632, 0.02655106969177723
-0.22693225165627734, -0.22694107117884244, 0.026551069691777226
0.09233655071846092, -0.2213239857403222, 0.02655106969177723
-0.1460732096274039, -0.21319689131883807, 0.02655106969177723
-0.13341582145523748, -0.22218382077916415, 0.02655106969177723
0.10807001784561468, -0.22861903802916028, 0.026486704313071076
0.04220483858269607, -0.2288416822028132, 0.02639448000497774
0.11649674934359955, -0.22873316121741183, 0.026439431878759315
0.16386233299300984, -0.2290376396201758, 0.026313309961605327
0.19500531688131156, -0.22849585765255578, 0.026537728441915952
0.1768797763089482, -0.22942774356017998, 0.025993346802602874
0.15114326644459042, -0.22960907613359502, 0.02555557761667907
0.12636682303286445, -0.2295622540442272, 0.02566861449449858
0.03326716021092835, -0.22969267376135205, 0.025353758027627155
0.16365698647155252, -0.2292715807804829, 0.026216406183303405
-0.22006271208015235, -0.2288417367866268, 0.026394457395113917
-0.04217665752035696, -0.22906135238666503, 0.026303487591468406
-0.08063907129580111, -0.22895979847002584, 0.026345553546047635
-0.17455472475590794, -0.22875345611621378, 0.02643102526757733
-0.11747343804454263, -0.22941742996261716, 0.026018245667291034
-0.187183288651584, -0.22943103953337576, 0.02598538973523453
0.049361907811180855, -0.22938636063176193, 0.026093252575424337
0.026996116571056987, -0.22942907986295047, 0.025990120729289242
0.08480395219362324, -0.22939192997565705, 0.026079807185568588
0.04534419518724609, -0.22971510887145996, 0.019655579550853598
-0.03297017246847385, -0.22971510887145996, 0.01680421188058827
-0.14523073322231536, -0.22971510887145996, 0.012585691042018505
-0.22984568499986413, -0.22971510887145996, 0.01078270833298203
-0.009233269249530829, -0.22971510887145996, 0.021826107679881884
-0.19807707933849336, -0.22971510887145996, 0.010118214230784248
-0.07367397830183126, -0.22971510887145996, 0.020106330445126955
-0.08047741844852185, -0.22971510887145996, 0.019279550247236266
-0.18014596917458514, -0.22971510887145996, 0.014787892789365764
-0.17415881021635565, -0.22971510887146, 0.0119478108696814
-0.12592540726005494, -0.22971510887145996, 0.017320389144259804
-0.20942230670250017, -0.22971510887145996, 0.017201364315843973
-0.0010631803061528708, -0.22971510887145993, 0.0185002124095504
0.21363773813770714, -0.22971510887145996, 0.0251063711803447
-0.22669567793450107, -0.22971510887145996, 0.022221910678386348
-0.16103418159521374, -0.22971510887145996, 0.020414424554150015
0.007684703425419628, -0.22971510887145996, 0.01826916469338188
-0.04015521431652407, -0.22971510887145996, 0.020665801809307223
-0.0968652581741472, -0.22971510887145996, 0.016308269356003543
-0.0845777844606301, -0.22971510887145996, 0.017990277529663055
-0.1743855085810782, -0.22971510887145996, 0.013109041342901464
-0.1433312475515248, -0.22971510887145996, 0.02235810415818052
-0.01224921742657692, -0.22971510887145996, 0.022007351884891863
-0.13431605188381213, -0.22971510887145996, 0.017792241699969187
-0.07642687979529775, -0.22971510887145996, 0.02113838188513225
-0.11576751752065426, -0.22971510887145996, 0.020325432863385916
-0.18452530858350788, -0.22971510887145996, 0.01932365876285351
-0.21243478090997864, -0.22971510887145996, 0.02105419483740716
-0.03402690036618577, -0.22971510887145996, 0.020617670703431786
-0.16186876872043587, -0.22971510887145996, 0.01926837988649414
-0.08268748991969457, -0.22971510887145996, 0.02032113150588428
-0.030171911586916865, -0.22971510887146, 0.015233956341965432
-0.18449706092945847, -0.22971510887145996, 0.014838545838374928
-0.17972071833206962, -0.22971510887145996, 0.009880631291966596
-0.22763259990093848, -0.22971510887145996, 0.023064315528200117
-0.1174343869372958, -0.22971510887145996, 0.01708550349562732
-0.15656768407264401, -0.22971510887145996, 0.01881167590479882
0.0051372537202048554, -0.22971510887145996, 0.021109256784686694
0.06023583015718821, -0.22971510887145996, 0.025259722171358093
-0.1903044393013913, -0.22971510887145996, 0.014577538185592369
-0.20219365679946033, -0.22971510887145996, 0.014315427871252846
-0.13595053306874236, -0.22971510887145996, 0.012277861008291256
-0.12377980626427701, -0.22971510887145996, 0.02098597460958303
-0.20478952602020709, -0.22971510887145996, 0.02277144179807481
0.0666261258993643, -0.22971510887145996, 0.019064673142033486
-0.08310560992333538, -0.22971510887145996, 0.02476356923842427
0.007792845585157401, -0.22971510887145996, 0.020898628771988757
-0.13968901887235752, -0.22971510887145996, 0.021529982695948205
-0.015195434680214195, -0.22971510887146, 0.01732729413473349
-0.09578011034502418, -0.22971510887145996, 0.01818100713809071
0.03222684097850445, -0.22971510887145996, 0.022525091402085917
-0.22013556303286624, -0.22971510887145996, 0.01065510361537737
-0.02461735579098019, -0.22971510887145993, 0.02268128028992257
-0.13832918192914367, -0.22971510887146, 0.021494182867587214
-0.21025527290283536, -0.22971510887145996, 0.01946337250597779
0.0041305246671701, -0.22971510887145996, 0.019551773326664596
-0.18339616494444705, -0.22971510887145996, 0.023819038730284244
0.12416112408363295, -0.22971510887145996, 0.02370121342436076
0.0133815905058529, -0.22971510887145996, 0.019082975312448687
-0.022741461668644686, -0.22971510887145996, 0.023499674952509847
-0.08983537757477794, -0.22971510887145996, 0.0185359559578979
-0.1529467409708369, -0.22971510887145996, 0.012622670227005802
0.135475084726441, -0.22971510887145996, 0.021813036568265044
-0.20127601529487638, -0.22971510887145996, 0.022184142574563588
0.030720752231580842, -0.22971510887145996, 0.023010789056451725
-0.12910788405949072, -0.22971510887145996, 0.01267103823172654
-0.19862571292114128, -0.22971510887145996, 0.01428283588678753
-0.11661146204937273, -0.22971510887145996, 0.02478390873492055
-0.021639525491005476, -0.22971510887145996, 0.0169422532461579
-0.029477350573950442, -0.22971510887145996, 0.024476470624241038
-0.22609736132950056, -0.22971510887145996, 0.02432395505236576
-0.1252239456869823, -0.22971510887145996, 0.022327344164991006
-0.134643109077351, -0.22971510887145996, 0.017745995668731952
-0.0968651559153429, -0.22971510887145996, 0.02055628534881962
-0.16157345321634675, -0.22971510887145996, 0.0185417052597952
-0.055501257229381096, -0.22971510887145996, 0.02248768725675889
0.1319832741566756, -0.22971510887145996, 0.02305791422646568
-0.029457868632308884, -0.22971510887145996, 0.02466155712759593
-0.09541389362071583, -0.22971510887145996, 0.017930328599516467
-0.22856203498747008, -0.22971510887145996, 0.011626640932091422
-0.21936545507428623, -0.22971510887145996, 0.020488489101791386
-0.19811240359909194, -0.22971510887145996, 0.024956186841953068
-0.06938141941079642, -0.22971510887145993, 0.017942115242041496
-0.20360686492400987, -0.22971510887145996, 0.010805371027854487
-0.12850894470108465, -0.22971510887145996, 0.01697982460799788
-0.10206710137224069, -0.22971510887145996, 0.018431017903609674
-0.138345264090996, -0.22971510887145996, 0.01803156994370446
-0.19186543259367345, -0.22971510887145996, 0.012137638956329824
-0.17430926761656018, -0.22971510887145996, 0.009757107709348772
-0.2208440059810003, -0.22971510887145996, 0.011711965326105168
-0.2110762381556541, -0.22971510887145996, 0.008343825085998157
-0.1724375649422975, -0.22958908520904853, 0.006744182269343203
-0.09955872387330032, -0.2296599640803676, 0.0069152966911351504
-0.21469291164176219, -0.2294225023167467, 0.00634202102204651
-0.03188968121203366, -0.22951152166847197, 0.006556929846288189
0.019969582906802327, -0.22892193820103848, 0.0059867845738304885
0.16675371191733387, -0.22899770291669053, 0.006018168091489889
0.2036124352550891, -0.22917192166687383, 0.006090333573481366
0.20661558709554842, -0.22858054572798522, 0.005845371824971781
0.12458948968585945, -0.22910000316060386, 0.006060543245726078
-0.0972090573555395, -0.22971510887145993, 0.01180625534641446
0.20505421599396334, -0.22971510887145996, 0.007672076919835359
0.17767409873817652, -0.22971510887145996, 0.015798083843932217
-0.11676960538656568, -0.22971510887145996, 0.008689491044186181
0.015483173215230246, -0.22971510887145996, 0.012776843904755647
0.14998547336972687, -0.22971510887145996, 0.008605982888303413
0.10304151488289601, -0.22971510887145996, 0.012913616506979106
-0.056801302359320516, -0.22971510887145996, 0.010510892233001808
0.16608216828140251, -0.22971510887145996, 0.016230142864868145
-0.11277476037013695, -0.22971510887145996, 0.010585025424237665
0.17215786202041589, -0.22971510887145993, 0.012360472898361098
-0.03247145477281027, -0.22971510887146, 0.007138872270161092
0.2225400779188882, -0.22971510887145993, 0.020521736297794458
0.0072363484938128, -0.22971510887145996, 0.013953912212458152
-0.05959920954293822, -0.22971510887145996, 0.00955014626772334
-0.07337941732243272, -0.22971510887145993, 0.009546465477707865
-0.0880638684775424, -0.22971510887146, 0.011648033530487358
-0.08598571954263506, -0.22971510887145996, 0.009594524689877405
-0.09744071021579535, -0.22971510887146, 0.012262540963777985
0.17543223835760305, -0.22971510887145996, 0.020106607939140295
0.16408094150222097, -0.22971510887145996, 0.007652522571941099
-0.04636807125894431, -0.22971510887145996, 0.013381282545870307
0.103947889885731, -0.22971510887145996, 0.00847839195041666
0.12344440793930055, -0.22971510887145996, 0.014232302332103925
0.01683053472289142, -0.22971510887145996, 0.009125927442367763
0.21381876436588843, -0.22971510887145993, 0.023166612759285343
0.12095163323031252, -0.22971510887145996, 0.00843988607105537
0.19055402848500594, -0.22971510887145996, 0.020829872659258786
0.12530382970049025, -0.22971510887145996, 0.015067650036245125
0.10750402714747193, -0.22971510887145996, 0.017031913345441328
0.046810959276018006, -0.22971510887145996, 0.010073921752175361
0.20744269952684524, -0.22971510887145996, 0.011328416009113168
0.20978949234208633, -0.22971510887145996, 0.01603912220855456
0.07194944801483957, -0.22971510887145993, 0.007480944554919751
0.2152563872145505, -0.22971510887145996, 0.009963163253974118
0.0318170857932978, -0.22971510887145996, 0.013577973248212579
0.18762812200384235, -0.22971510887145996, 0.015624782878985015
0.20809077498785, -0.22971510887145996, 0.009854571860844378
0.10877897873387105, -0.22971510887145996, 0.016498273492629518
-0.056749492522964295, -0.22971510887146, 0.008727395544550005
0.22849541349782607, -0.22971510887145996, 0.015460121869046477
0.21096756506400743, -0.22971510887145996, 0.017536517791935973
0.22382248378260383, -0.22971510887145996, 0.018696801411602407
-0.03237965079311856, -0.22971510887145996, 0.012498312402533681
0.15265188097501464, -0.22971510887145996, 0.01928526795648415
0.1701163743343091, -0.22971510887145996, 0.01836645991030365
-0.13336413932461927, -0.22971510887145996, 0.008796754515012495
0.198894554354, -0.22971510887145996, 0.00887005547026862
0.02637888246143215, -0.22971510887145996, 0.01364968445517967
0.14236790633608648, -0.22971510887145996, 0.013626380439443465
0.18298789838066665, -0.22971510887145996, 0.008082639886691254
0.19650035920454462, -0.22971510887145996, 0.007547038708767034
0.20733320380886544, -0.22971510887146, 0.02288946507725839
0.06519231607773196, -0.22971510887145996, 0.014771690096487076
0.09186786677057718, -0.22971510887145996, 0.018028386275070682
0.03707453471280703, -0.22971510887145996, 0.012530787995508951
0.16723294749307296, -0.22971510887145996, 0.011370093202655172
-0.13477231204516593, -0.22971510887145996, 0.00792708446936326
0.19050515192581938, -0.22971510887145996, 0.022347314155229933
-0.012748458566227736, -0.22971510887145996, 0.007473832673917973
0.15837113532123331, -0.22971510887145996, 0.009732408007156707
-0.023814899143294148, -0.22971510887145996, 0.01297584051166028
-0.03878567854314895, -0.22971510887145996, 0.010158140606679971
0.11186632485268673, -0.22971510887145996, 0.008683811138235641
0.05522392868497725, -0.22971510887145996, 0.008396882682292937
0.0861516016655325, -0.22971510887145993, 0.007074021560135033
-0.1783884346328932, -0.22971510887145993, 0.008832729845738008
0.06526693255914412, -0.22971510887145996, 0.015430304767134185
-0.024712505772198162, -0.22971510887145996, 0.009765758239315211
0.1567529146440252, -0.22971510887145996, 0.020932513239352215
0.10816585969960141, -0.22971510887145996, 0.007629458663249083
0.11447414502276637, -0.22971510887145996, 0.0170542042891639
0.16830603237875932, -0.22971510887145996, 0.009042089138807512
0.1233203564583765, -0.22971510887145996, 0.013892917830797973
-0.023191895436776522, -0.22971510887145993, 0.012004411438831575
-0.025418093566070783, -0.22971510887145996, 0.010469133642174255
0.04883041972657995, -0.22971510887145996, 0.00846987054383235
-0.08726014202933986, -0.22971510887145996, 0.0099828253592218
0.1812190702641232, -0.22971510887145996, 0.020852121036210574
-0.023820953606186523, -0.22971510887145996, 0.007819606123670157
0.015722608363189734, -0.22971510887145996, 0.012403947131916492
0.22689500721857678, -0.22971510887145996, 0.01990870603993089
0.10286564600030527, -0.22971510887145996, 0.016768826335962515
0.14483290753531802, -0.22971510887145996, 0.00825346981892673
-0.05926692686538608, -0.22971510887146, 0.008803760593265363
0.15758782730212362, -0.22971510887145996, 0.01002118339182268
0.14775178177364234, -0.22971510887145996, 0.01911899967037259
0.21054989314154768, -0.22971510887145996, 0.01741281826227299
0.21291399569586925, -0.22971510887145996, 0.01243157840030619
0.052093930938077106, -0.22971510887146, 0.014453361890690727
-0.028860929345575555, -0.22941940278798287, 0.006334538198711584
0.2092590740021978, -0.22942299739969613, 0.006343216241877916
0.18467767332818213, -0.2295819485328984, 0.00672695304164505
0.1894021387911588, -0.22935726584918165, 0.006184528383980986
0.05303536111469336, -0.22953422940038135, 0.00661175042036862
-0.10028000308601004, -0.10506104789001108, 0.005796950776129961
0.1983936691580397, 0.09862603107712142, 0.005796950776129961
0.027336446478261608, -0.03230814922092952, 0.00579695077612996
-0.10628525026044794, -0.21895709403763874, 0.005796950776129961
0.12837357351331388, -0.10716394415556058, 0.005796950776129961
0.15609018048008758, -0.06274153271286001, 0.005796950776129961
-0.17376975028505423, -0.186013009327392, 0.005796950776129961
0.22656793795319508, 0.030370198846893195, 0.005796950776129961
0.16538150443539404, -0.06356161445977479, 0.005796950776129961
0.121263819640011, -0.09571318710917295, 0.005796950776129961
-0.024871895518787157, -0.10911297096357088, 0.005796950776129961
0.017620992161568892, -0.048790616154406004, 0.005796950776129961
-0.008738302121518604, -0.12935817237305103, 0.005796950776129961
0.19866884146516822, -0.00434132949098108, 0.005796950776129961
-0.03528115081151619, -0.06389136242025034, 0.00579695077612996
0.2168572750457709, 0.19638362390215358, 0.00579695077612996
0.07992018551869284, -0.08629745142784094, 0.005796950776129961
0.12834884079458792, -0.12069435381169506, 0.005796950776129961
0.1702220474377071, 0.07987715959073638, 0.005796950776129961
0.20662817060837108, 0.12293850480576286, 0.005796950776129961
-0.08168543241005033, -0.1459173309180746, 0.005796950776129961
0.22023479834550738, 0.20818471993197302, 0.00579695077612996
-0.07288222246708999, -0.21334591378752685, 0.005796950776129961
0.14033955284851343, 0.13417530510993295, 0.005796950776129961
-0.13608982096700212, -0.15738432317291456, 0.005796950776129961
0.014479787537092746, -0.007025096365839043, 0.005796950776129961
-0.019998901845694778, -0.14270608056902942, 0.005796950776129961
-0.06893299785234358, -0.20629972389938744, 0.005796950776129962
0.15151197571134467, -0.07107996518101323, 0.005796950776129961
0.02323490269851241, -0.14167049243845353, 0.005796950776129961
0.2008501280197298, -0.07143313051857816, 0.005796950776129961
-0.15837800391830026, -0.20526698664109866, 0.005796950776129961
0.12571615690949284, 0.09487278145604124, 0.005796950776129961
0.03564826798791125, 0.0317746658703023, 0.005796950776129961
-0.07357332861033598, -0.20474408791073548, 0.00579695077612996
0.22657430353559949, 0.2238001825628422, 0.005796950776129961
0.05627658892370295, 0.027070446446410143, 0.005796950776129961
0.06789989642099126, -0.04186189010169986, 0.005796950776129961
0.004015707675514804, -0.11748085462086108, 0.005796950776129961
0.16056418660733515, -0.10055365969438584, 0.005796950776129961
0.10800564128546714, -0.044278887527783535, 0.005796950776129961
0.19986397486344437, -0.07385333959074245, 0.005796950776129961
0.22058816078247995, -0.066201975312919, 0.005796950776129961
0.10449630177241659, -0.05693003983578082, 0.005796950776129961
0.06611439366743677, -0.18440669384353753, 0.005796950776129961
0.22141473036061082, -0.07065529193067542, 0.005796950776129961
0.0554413986301783, -0.16659178621413112, 0.005796950776129961
0.06755886627660843, -0.03446050997978338, 0.005796950776129961
0.1561304956410879, -0.2115324233508132, 0.005796950776129961
-0.024424095015527912, -0.09885926409090745, 0.005796950776129961
0.08425130933945106, -0.0009203129773032101, 0.005796950776129961
0.0031410582482803706, -0.1433857083768298, 0.005796950776129961
0.18184066382362207, 0.050486375479553716, 0.005796950776129961
0.140861599180447, -0.15582698301119657, 0.005796950776129961
0.19769120955156338, 0.14162718143539454, 0.005796950776129961
0.14813629223406305, -0.21948018944302014, 0.005796950776129961
0.045881733704177426, -0.16588404441120497, 0.005796950776129961
0.13030765423603372, -0.13150210935080706, 0.005796950776129961
0.22703343396775427, -0.11048983583766658, 0.005796950776129961
0.12504748904480228, -0.07754013612712829, 0.005796950776129961
0.02503219201367473, -0.14498183305043566, 0.005796950776129961
0.18123476939389993, 0.016164275896505126, 0.005796950776129961
0.011093757242129437, -0.17319716175979266, 0.005796950776129961
0.12486519639267445, 0.07302627637939633, 0.005796950776129961
0.217905540567698, 0.10496103771936997, 0.005796950776129961
0.05811080316874025, -0.06830787904608714, 0.00579695077612996
0.13102170727397205, 0.03578883317117162, 0.005796950776129961
0.12799159152394993, -0.09057736064309119, 0.005796950776129961
0.06262597171758966, -0.1172338054223116, 0.005796950776129961
0.13156733851621233, -0.12671381827657502, 0.005796950776129961
0.07230214359663578, -0.14537646779008995, 0.005796950776129961
0.037081736521192454, -0.20186844331112483, 0.005796950776129961
0.15732199560978685, -0.15497043094370383, 0.005796950776129961
-0.0605314892152386, -0.08790040805387636, 0.005796950776129961
0.19998573171908962, 0.03300184116346076, 0.005796950776129961
-0.19981832691034324, -0.2056689106376228, 0.005796950776129961
0.18487322450644633, 0.10581044946950063, 0.005796950776129961
0.1053223914465092, -0.03414175396484278, 0.005796950776129961
0.03874886642708393, 0.03685394887517656, 0.005796950776129962
0.21947995203154197, -0.10101007137394122, 0.005796950776129961
0.12238766112067631, -0.03479554914253995, 0.005796950776129961
-0.06951121213146488, -0.17574063621145808, 0.00579695077612996
0.15637147277741528, -0.19113858187500482, 0.005796950776129961
0.22187167217278697, -0.14879220068941154, 0.005796950776129961
-0.06184673136040404, -0.12405139723336017, 0.005796950776129961
0.22126768218543202, -0.07793348134060485, 0.005796950776129961
0.19498369214268493, 0.044663298208070606, 0.005796950776129961
-0.046685930587246766, -0.17486684096568472, 0.005796950776129961
0.19186620661259196, 0.06639986673777709, 0.00579695077612996
0.178640903643872, -0.026493314911795726, 0.005796950776129961
0.019178966861345376, -0.14631637542800177, 0.005796950776129961
0.053389358888443525, -0.15142870471939754, 0.005796950776129961
0.16558540156944312, 0.1126750944055688, 0.005796950776129961
0.2141039222171773, 0.1147233719766049, 0.005796950776129961
0.11770535650148523, -0.15065519751962497, 0.005796950776129961
0.21958346600331113, 0.08046526115569744, 0.00579695077612996
0.09707378943283851, -0.13560436265289844, 0.005796950776129961
0.10320572922741293, -0.029519982943237516, 0.005796950776129961
-0.0694889931071251, -0.2130435416769656, 0.005796950776129961
0.0012921155511246302, -0.015636014813474836, 0.005796950776129961
-0.03792151666135769, -0.14821623863083283, 0.005796950776129961
-0.06541961419029894, -0.21395818976410544, 0.005796950776129961
-0.05649830520223287, -0.06635790328846486, 0.005796950776129961
0.021769709907589682, -0.1751614140290501, 0.005796950776129961
0.09937634787036764, -0.1269103669614806, 0.005796950776129961
0.13816997521820876, -0.12348569690963981, 0.005796950776129961
0.006396301525945058, -0.17568776265386638, 0.005796950776129961
0.1832550883885884, 0.1782205488266147, 0.005796950776129961
-0.030931174142692978, -0.05752871268532621, 0.005796950776129961
0.16085917511617748, -0.21445137198266714, 0.005796950776129961
0.18005253979293806, -0.1917971283624011, 0.005796950776129961
0.0375234651565491, -0.2118445768705094, 0.005796950776129961
0.12356081045204853, -0.1310535437821864, 0.005796950776129961
0.08770180097116428, -0.053050097118927636, 0.005796950776129961
-0.10792119856195845, -0.11549357780934928, 0.005796950776129962
0.21739364093094357, -0.20449450647753228, 0.005796950776129961
0.22881005411327293, 0.13364679992324005, 0.005796950776129962
0.17131175298651538, -0.08375995501396105, 0.005796950776129961
0.17317255284273572, 0.059309344121195436, 0.005796950776129961
0.06519454110029677, 0.03625766649091994, 0.005796950776129961
0.2194401219374476, -0.15233802359454923, 0.00579695077612996
0.15653159896281374, -0.17043087219130926, 0.005796950776129961
0.06823965623094672, -0.08644021082290862, 0.005796950776129961
0.005774303591448586, -0.10094718167547456, 0.005796950776129961
0.11219083441271147, -0.031554133460335594, 0.005796950776129961
-0.09860112581923647, -0.1966906437075543, 0.005796950776129961
-0.06109409810559342, -0.07884237275261921, 0.005796950776129961
-0.0021619517240050873, -0.10183196744485469, 0.005796950776129961
0.051518483488509625, -0.010917207371636196, 0.005796950776129961
0.033630158027637504, -0.01970859213871451, 0.00579695077612996
0.16774846057750897, 0.14750346714542706, 0.005796950776129961
-0.12303471346650158, -0.19101702680296095, 0.005796950776129961
0.17276026148701093, 0.11209853761847638, 0.005796950776129961
0.12819021982687584, -0.01888678714935771, 0.005796950776129961
0.10913282492345079, 0.08498605881232374, 0.005796950776129961
-0.01790013252589978, -0.09161644041518244, 0.005796950776129961
0.11948324049459791, 0.005181216570342019, 0.005796950776129962
0.2182265890144592, -0.06146138951400486, 0.005796950776129961
0.021915280460562972, -0.1798915494734717, 0.005796950776129961
-0.061319646386560914, -0.19156531015024025, 0.005796950776129961
-0.051163365710277096, -0.10709766432034594, 0.00579695077612996
0.12810469111706174, -0.008175938576044699, 0.005796950776129962
0.1574199722304118, 0.05758427733192528, 0.005796950776129961
0.20391886972840992, -0.1353007101403938, 0.005796950776129961
-0.014170610752114399, -0.019586559958005453, 0.005796950776129962
-0.009507822354114098, -0.20048071922387373, 0.005796950776129961
0.16733501137224877, 0.003395204505715149, 0.005796950776129961
0.22716161230746706, -0.09760255223712698, 0.005796950776129962
-0.04357555256597781, -0.14163814112405626, 0.005796950776129961
0.10683224565096246, -0.14535822205058513, 0.005796950776129961
0.13395585934660545, -0.037966340743995526, 0.005796950776129961
0.020665442326482125, -0.153132656023364, 0.005796950776129961
0.1895129035762092, -0.06016806106656575, 0.005796950776129961
0.11236500078917674, -0.12486145680862398, 0.005796950776129961
0.06261768674571927, -0.22236423585548126, 0.005796950776129961
-0.05334155214067613, -0.1363889172124698, 0.005796950776129961
0.19076027268887374, 0.015065415993364653, 0.005796950776129961
0.16234346967232705, -0.14303316095362978, 0.005796950776129961
0.06553789689377479, 0.006301434469647937, 0.005796950776129961
0.000868273258341129, -0.15610929890385705, 0.005796950776129961
-0.04241429107856726, -0.11617956716761502, 0.005796950776129961
0.19186726245744445, -0.06806909838939147, 0.005796950776129961
0.02606422369371849, -0.03820863811975667, 0.005796950776129961
0.08405875586683617, -0.18334320531036252, 0.005796950776129961
0.030623740919273515, -0.1780128853854941, 0.005796950776129961
0.19724939252516321, -0.14370214796390535, 0.005796950776129961
0.214153768769883, 0.18598748137755225, 0.005796950776129961
0.21846649448717853, 0.18277973429196473, 0.005796950776129961
-0.08950178667082984, -0.19132399525321805, 0.005796950776129961
0.2056727569261715, 0.05258476782422279, 0.005796950776129961
0.12621242624351992, -0.09135327529963291, 0.005796950776129961
0.16830478933136786, 0.11334750157318113, 0.005796950776129961
0.03254546605567383, -0.11652188514745665, 0.005796950776129961
0.1520004136027454, -0.016581133335518333, 0.005796950776129961
0.10472932775931258, -0.2282167997276346, 0.005796950776129961
0.15816373193319644, -0.08852367170276296, 0.005796950776129961
-0.1365340565672451, -0.1563103517440198, 0.005796950776129961
0.13398491335033005, 0.1080325706226465, 0.00579695077612996
0.148302212399568, -0.11414069713753469, 0.005796950776129961
0.023792445229644896, -0.19590337481838183, 0.005796950776129961
0.1654928807019559, 0.014435852152131792, 0.005796950776129961
0.2094834260355917, 0.019776470037305538, 0.005796950776129961
0.14858518545235472, -0.03816467979030664, 0.005796950776129961
0.019843348359557755, -0.16170762121873639, 0.005796950776129961
0.14742889686746813, -0.1100089175635153, 0.005796950776129961
-0.017165885686579813, -0.14786893112062194, 0.005796950776129962
-0.023904772755304518, -0.15098630269803542, 0.005796950776129961
-0.04026213343458271, -0.13013484159927696, 0.005796950776129961
0.1282409531729031, -0.14730661400523876, 0.005796950776129961
0.1885028804522609, 0.031109450120948567, 0.005796950776129961
0.1838076977439203, -0.02580509127887061, 0.005796950776129961
0.22131509964944612, 0.07325784353792014, 0.005796950776129961
-0.057908773996152275, -0.11468239902408398, 0.005796950776129961
0.14537220765417663, -0.010290296027722162, 0.005796950776129961
0.016944229180560155, -0.11047378809537309, 0.005796950776129961
0.10964118808204806, -0.05013355239348683, 0.005796950776129961
0.017726020251652486, -0.10154763314962803, 0.005796950776129961
-0.19848267336080966, -0.21545356282015912, 0.005796950776129961
-0.15894624476568725, -0.17838637344826452, 0.005796950776129961
0.20439224693701874, -0.09393774733154084, 0.005796950776129961
0.13256163910867003, -0.17521754103113313, 0.005796950776129961
0.11966906363364688, -0.1452404730390795, 0.005796950776129961
-0.0009439014115734251, -0.2047635509250201, 0.005796950776129961
0.16081580382385102, -0.13730633686863564, 0.005796950776129961
0.17290189089679364, 0.0818853025614737, 0.005796950776129961
0.20018356501877044, -0.22632924219280717, 0.005796950776129961
-0.1659365209625761, -0.20934745291455636, 0.005796950776129961
0.13799270511083572, 0.028126593799833788, 0.005796950776129961
-0.07582427078869061, -0.14935501898253017, 0.005796950776129961
0.21566047241719466, -0.16836689222503967, 0.005796950776129961
0.2248161263695192, 0.010049034855559538, 0.005796950776129962
0.18939021825279395, -0.04955852536869704, 0.005796950776129961
0.126496099930046, 0.09877988530500353, 0.005796950776129961
0.22739575099646547, -0.10126464828084916, 0.005796950776129961
0.22886274565751547, 0.019493658667100594, 0.005796950776129961
0.08624728640485305, 0.05124129062328048, 0.005796950776129961
-0.073152517534238, -0.16690241888181556, 0.005796950776129961
0.13001710598081306, -0.17469091783762214, 0.005796950776129961
0.041255622835708855, -0.2154640451900475, 0.005796950776129961
0.22442880954694686, -0.10772551883737098, 0.005796950776129961
0.17906356987520325, -0.11791568569835745, 0.005796950776129961
0.19592308401621175, -0.22698364605777901, 0.005796950776129961
0.05097207272201152, -0.06332309050539678, 0.005796950776129961
0.13119134831148943, -0.017740204613645366, 0.00579695077612996
0.2113272877918613, -0.17431636507995715, 0.005796950776129961
0.11954974542951122, -0.22369150755589756, 0.005796950776129961
0.11802231122551997, -0.21451486848401208, 0.005796950776129961
0.11092657863064566, 0.10475730003830953, 0.005796950776129961
0.18107456198656485, -0.20577805723077353, 0.005796950776129961
0.16150419013029227, 0.09146414517076351, 0.005796950776129961
0.21068225560130666, -0.009815696749494729, 0.005796950776129961
-0.1184332530386383, -0.15443940576848128, 0.005796950776129961
0.06178921685742081, -0.05447394900594827, 0.005796950776129961
0.1748614377162162, 0.12187653815590889, 0.005796950776129961
0.2021275027793935, 0.047026552692715884, 0.005796950776129961
-0.07148844222511615, -0.1972133968797671, 0.005796950776129961
0.09669851820849235, 0.02876045431913383, 0.00579695077612996
0.22762454102205432, 0.06231991432872008, 0.005796950776129961
0.17960445158157026, 0.07362215168235478, 0.005796950776129961
0.023923827018493778, -0.014813642085057116, 0.005796950776129961
0.22091360399424856, 0.07969797239984486, 0.005796950776129961
0.17296635313416736, -0.09405374937746859, 0.005796950776129961
0.07125977375216916, -0.16034813729349431, 0.005796950776129961
0.12308602790484915, -0.08845291536726599, 0.005796950776129961
-0.11739045091336231, -0.1281887205820239, 0.005796950776129961
0.005635446359457796, -0.05332950491173856, 0.005796950776129961
0.09576200808706814, 0.011301982771424024, 0.005796950776129961
0.20148966635742846, -0.12967247378812025, 0.005796950776129961
0.16959384464976868, 0.09894389144336525, 0.005796950776129961
0.12461547418074675, -0.1335892976991456, 0.005796950776129961
0.14643112505195505, -0.018399260109498772, 0.005796950776129961
0.21258630590038774, 0.10837887055916681, 0.005796950776129961
0.1643279227463463, -0.0790719356791855, 0.005796950776129961
0.16214906426746473, -0.0011563748428161102, 0.005796950776129961
-0.10178094177805773, -0.10513809444704854, 0.005796950776129961
0.037994488063892856, -0.21053355642745747, 0.005796950776129961
0.22108562062852002, 0.11729278772633776, 0.005796950776129961
0.04515673620348513, -0.05243677246761317, 0.005796950776129961
0.06840618496855105, -0.1572035146925945, 0.005796950776129961
0.20045071844990348, 0.1576368307006241, 0.005796950776129961
0.15766695476038314, -0.13100745911826883, 0.005796950776129961
0.11179019656031162, 0.023138397489856584, 0.005796950776129961
0.005999178376393202, -0.1903312106552565, 0.005796950776129961
0.1406671850854039, 0.06440033568592413, 0.005796950776129961
0.22569772444994507, -0.04198934824625701, 0.005796950776129961
0.18825848852003874, 0.08239499301229009, 0.005796950776129961
-0.1657882905101887, -0.18459922631710945, 0.005796950776129961
0.21029637576382898, -0.03740084057064809, 0.005796950776129961
0.15429634819666838, -0.1780996555327633, 0.005796950776129961
-0.1131408758786995, -0.18640057911310415, 0.005796950776129961
0.13786229200192368, 0.0023529502479304604, 0.005796950776129961
0.20093574408496434, -0.08962561929187765, 0.005796950776129961
-0.15339851053884657, -0.20011334709168288, 0.00579695077612996
0.010540812467206423, -0.1755869471612291, 0.005796950776129961
0.057677057430228135, -0.21967526515157584, 0.005796950776129961
0.17707078650710786, 0.064798086552045, 0.005796950776129961
-0.04223623277029542, -0.22698160947556728, 0.005796950776129961
-0.11087268692825077, -0.13484326304553992, 0.005796950776129961
-0.07380381390517093, -0.14550857218882257, 0.005796950776129961
0.12184276535142313, 0.058348456996994306, 0.005796950776129961
0.13046258497781218, -0.13377307107017075, 0.005796950776129961
0.14535493474559674, -0.18508195970204616, 0.005796950776129961
-0.06716813428022106, -0.2107969681485668, 0.005796950776129961
0.2065884482234156, -0.1250911718951183, 0.005796950776129961
0.17826975088917046, 0.16823525438557246, 0.005796950776129961
0.142636469746019, 0.125830536110053, 0.005796950776129961
0.16421848191030727, 0.1593373483848365, 0.005796950776129962
-0.09115683818113905, -0.10606319796678262, 0.005796950776129961
0.19319495731908481, 0.06714894811991624, 0.005796950776129961
0.18416923452961761, 0.153057355144663, 0.005796950776129961
0.18847602273255754, 0.017963997680862098, 0.005796950776129961
0.1734319268915382, -0.029322561358410396, 0.005796950776129961
0.1870964495176116, 0.15743341308651038, 0.005796950776129961
0.020859918463043782, -0.07807430428656295, 0.005796950776129961
0.06401701168165569, 0.015594598076539411, 0.005796950776129961
0.07256245921232199, 0.019431599445826793, 0.005796950776129961
-0.16753735651591434, -0.1693888335494136, 0.005796950776129961
0.20072353558252348, 0.08150357727792198, 0.005796950776129962
0.18229769644821742, 0.08805792522129398, 0.005796950776129961
0.0454847085631209, -0.06187827881402856, 0.005796950776129961
0.14552871661655933, -0.02821308570027458, 0.005796950776129961
0.13170547683270892, -0.14659857365595136, 0.005796950776129961
0.0672534383046361, -0.08748860822867949, 0.005796950776129961
-0.008351148755842926, -0.1089373360542897, 0.005796950776129961
-0.10599263031888777, -0.11260012022600253, 0.00579695077612996
-0.14627420981041384, -0.20614104893555474, 0.005796950776129961
0.06936108886355048, 0.06822477064931999, 0.005796950776129961
0.11303681045099125, 0.10825801746053962, 0.00579695077612996
0.024065760590330915, -0.024766902171094226, 0.005796950776129962
0.2136920127616527, 0.1284094318381449, 0.00579695077612996
-0.003832859372840173, -0.05345193643872964, 0.005796950776129961
0.16487598457529534, 0.07789668459514912, 0.005796950776129961
0.06456288758496126, -0.12303304794860448, 0.005796950776129961
0.2003129794384253, 0.11112688768069642, 0.005796950776129961
0.09044713370976246, 0.04056980048810427, 0.005796950776129961
0.09098672099366993, -0.04915784361840286, 0.005796950776129961
-0.031111568209658387, -0.08535604955258974, 0.005796950776129962
0.22936883734366229, -0.14700818037108998, 0.005796950776129961
-0.12615269419124323, -0.18326358344545413, 0.005796950776129961
0.22020367117379672, -0.13711593267355981, 0.005796950776129961
0.16592511465240659, 0.05872862501426635, 0.00579695077612996
0.04199746860329374, -0.13662340121138464, 0.005796950776129961
0.039137769781823026, -0.17863368682948158, 0.005796950776129961
0.07736290805244957, 0.007542149649987354, 0.005796950776129961
0.16465467624616653, -0.1457466591846301, 0.005796950776129961
0.09520977668896172, -0.22040823243297514, 0.005796950776129961
0.1931742137939486, -0.15465912713815605, 0.005796950776129961
0.22283212305586458, 0.007029600330408045, 0.005796950776129961
0.1511432713377579, 0.0497832286492, 0.005796950776129961
0.20804445249077014, -0.13947511128616352, 0.005796950776129961
0.0646497101678207, -0.12111405537920406, 0.005796950776129961
0.21561146607632098, -0.22331941263874203, 0.005796950776129961
0.025541851569375357, -0.1370715038140591, 0.005796950776129961
0.20286893185765573, -0.0321337043715372, 0.005796950776129961
0.15809191267273554, -0.22471625967440692, 0.005796950776129961
0.049972724192910184, -0.08792384978720971, 0.005796950776129961
-0.03555105657086878, -0.19575038686303936, 0.005796950776129961
0.13912112036423382, 0.11162966577965512, 0.00579695077612996
-0.01698153824270915, -0.1757329567433474, 0.005796950776129961
0.08198708946211601, 0.051907694007751595, 0.005796950776129961
-0.12446370150009683, -0.16004782754440017, 0.005796950776129961
0.10125762897480547, 0.0556359438590927, 0.005796950776129961
0.09384995275102076, -0.13172176912004901, 0.005796950776129961
-0.202211543767763, -0.22610278803142114, 0.005796950776129961
0.09610017670178854, 0.08888150747467657, 0.00579695077612996
0.07308221120760547, 0.005043319522359965, 0.005796950776129961
0.11959374129364961, 0.11042038276291598, 0.005796950776129961
0.016306278488221596, -0.12281656898639257, 0.005796950776129961
0.1658346869127213, 0.14785245487597543, 0.005796950776129961
0.19321756688598138, 0.05542192038051301, 0.005796950776129961
0.08271217939327878, 0.03527371179609523, 0.005796950776129961
-0.07138647834050998, -0.11545296839498317, 0.005796950776129961
-0.16281562482998257, -0.21617300436252873, 0.005796950776129961
-0.08393608656714215, -0.08492856603433353, 0.005796950776129961
0.07163818826760357, -0.040037915012696566, 0.00579695077612996
0.019366523066653783, 0.009102402237423738, 0.005796950776129961
-0.1105901912319873, -0.21141313344717966, 0.005796950776129961
-0.0053193656399283945, -0.18153196950522765, 0.005796950776129961
0.09942159435227464, -0.1039105289983355, 0.005796950776129961
0.022519186201157632, -0.009046637442149529, 0.005796950776129961
0.014777147460664684, -0.11043835306007047, 0.005796950776129961
0.08728127914944264, -0.08058152677819586, 0.005796950776129961
0.14730509528944907, -0.02781730448841717, 0.005796950776129961
0.12458658203063035, -0.14079250741938576, 0.005796950776129961
0.0295769981470812, -0.20717364083342396, 0.005796950776129961
0.11797503996751826, -0.061641764359804445, 0.005796950776129961
0.12335904881364573, -0.0646061990845126, 0.005796950776129961
0.011360080670642439, -0.17568148788521937, 0.005796950776129961
0.05030923030650005, -0.062494499662189326, 0.005796950776129961
-0.047631862699765756, -0.2193931218980214, 0.005796950776129961
0.01628635378962215, -0.06493608939824946, 0.005796950776129962
-0.20789880052021326, -0.21577030914279824, 0.005796950776129961
-0.05749031558422714, -0.0670437145195954, 0.00579695077612996
-0.04166594083722418, -0.05190896936539602, 0.00579695077612996
0.2101199977078606, -0.12861052662013917, 0.00579695077612996
0.11124951467067584, -0.22042958066111332, 0.005796950776129961
0.13392032464955805, -0.011928397991210912, 0.005796950776129961
0.19501661702741288, -0.1867809939418212, 0.005796950776129961
0.15170878869590396, 0.06520495605190435, 0.005796950776129961
0.13041445434866067, -0.01935181611842414, 0.005796950776129961
0.17337977392352255, 0.08604512331285268, 0.005796950776129961
0.07136549500165829, -0.21348354302100253, 0.005796950776129961
0.2193628430702079, -0.2049614499832501, 0.005796950776129961
0.10750671918136973, -0.01417154699467172, 0.005796950776129961
-0.08366190749302069, -0.11341807881391852, 0.005796950776129961
0.14282361228582616, -0.009554670475951613, 0.005796950776129961
-0.008341906655319128, -0.08461667410078609, 0.005796950776129962
0.12169568155286971, -0.007533536325579848, 0.005796950776129961
0.17043295350067283, -0.012136375904656188, 0.005796950776129961
0.14904677110514303, 0.08769823248891351, 0.005796950776129961
0.1457630933759459, -0.0060316964051325556, 0.005796950776129961
-0.018650893628404275, -0.21667255394615942, 0.005796950776129961
0.06195948109384942, -0.11940983036911922, 0.005796950776129961
0.2017182968001616, 0.1821157258512081, 0.005796950776129961
0.22304022680169552, -0.18186896232879518, 0.005796950776129961
0.021276472448129538, -0.023431802424079027, 0.005796950776129962
-0.027452187205840514, -0.21565620709968436, 0.005796950776129961
0.16311556163207155, 0.09453714123315488, 0.005796950776129961
-0.17452515019722317, -0.22561955365249953, 0.005796950776129961
0.1241498429162973, 0.06436881306675173, 0.005796950776129962
0.05138310733923927, -0.19638917835358188, 0.005796950776129961
-0.03329550212156303, -0.12578189265280243, 0.00579695077612996
0.09776594586874301, 0.05852869055835802, 0.005796950776129961
0.18146212575550147, -0.13477006573644243, 0.005796950776129961
-0.13550379939313864, -0.21126313254818, 0.005796950776129961
0.2167294488242031, -0.13963223289546364, 0.005796950776129961
0.20848796843658476, 0.03327340459240774, 0.005796950776129961
0.024185146492586816, -0.09053174065632727, 0.005796950776129961
0.13857270483341394, -0.1276663069511195, 0.005796950776129961
-0.10512675423177953, -0.17064573740733516, 0.005796950776129961
0.2229947919702092, -0.21188184790683956, 0.005796950776129961
0.18627326790542265, 0.011417879274133291, 0.005796950776129961
0.10139177331662293, -0.16827724760234866, 0.005796950776129961
0.15848248807304918, -0.12711950501563524, 0.005796950776129961
0.10590760872904623, -0.12639945261802119, 0.005796950776129961
0.12845646058934002, 0.08549195039747293, 0.005796950776129961
0.027732636710680405, -0.012557669676182121, 0.005796950776129961
0.20157452670569498, -0.1205024486087093, 0.005796950776129961
-0.07030366963318263, -0.11839781802755511, 0.005796950776129961
0.22285333552112574, -0.01978524915848559, 0.005796950776129961
-0.012007113646795117, -0.12272960752023958, 0.00579695077612996
0.20609477088072362, -0.018484704930338713, 0.005796950776129961
-0.0005560227021947084, -0.21511742413924717, 0.005796950776129961
-0.11352411962384111, -0.17442210594908625, 0.005796950776129961
0.12179488149794036, -0.22823605406207698, 0.005796950776129961
0.11286380082344336, -0.06150927288676349, 0.005796950776129961
0.027086171620046562, 0.013187389166100785, 0.005796950776129961
0.18836530241851984, -0.1052733456246325, 0.005796950776129961
0.21424534264023942, -0.07092085294366303, 0.005796950776129961
0.22039417793779598, 0.07401009015451145, 0.005796950776129961
0.21711351805323814, 0.12311909662355872, 0.005796950776129961
0.0888200187445782, -0.020170636823336995, 0.005796950776129961
-0.016219924887545516, -0.05174368236706857, 0.005796950776129961
0.18751933503542834, -0.04968065588411938, 0.005796950776129961
0.1461460631467683, 0.0188138080187739, 0.005796950776129962
0.21871153816320996, 0.20826163693217628, 0.005796950776129961
-0.04804339622199705, -0.16039887733438987, 0.005796950776129961
0.02669044619198964, -0.16906176598397699, 0.005796950776129961
0.059346740870715814, 0.018307431101421617, 0.005796950776129961
0.09214325312264965, -0.12599898278263882, 0.005796950776129961
0.14541788087690016, 0.008285434103229447, 0.005796950776129961
0.06530794050701752, -0.04513935381755579, 0.005796950776129961
0.178478612828719, -0.18241851213594437, 0.005796950776129961
0.20918543221326702, -0.07485482594817792, 0.005796950776129961
0.15944357929364503, -0.20306950295159315, 0.005796950776129962
0.00969020703108231, -0.1500028485302653, 0.005796950776129961
0.22561471213814213, -0.2033303324445505, 0.005796950776129961
0.0700818267061615, -0.16359370622592573, 0.005796950776129961
0.025776174341552896, -0.20446913546164547, 0.005796950776129961
0.17491191799703484, 0.164253783663769, 0.005796950776129961
0.13832981195824223, -0.04681361494135646, 0.005796950776129961
-0.10669604794416374, -0.13251347162495675, 0.005796950776129962
0.1646026060243418, -0.09515944118912434, 0.005796950776129961
0.2275825783381685, -0.13180130239486368, 0.005796950776129961
0.029903771907376607, -0.1165222343181875, 0.005796950776129961
0.13311060443115846, -0.18173679378705454, 0.005796950776129961
-0.02236867510885772, -0.15633193078811036, 0.005796950776129961
0.19590552916325185, 0.09163753536181497, 0.00579695077612996
0.17742929411714586, 0.010851896211403853, 0.005796950776129961
0.15596348566957707, -0.18050915815202984, 0.005796950776129961
-0.041007422463050835, -0.1780519878609763, 0.005796950776129962
-0.041976685265253194, -0.21188880517222752, 0.005796950776129961
-0.03950801755611609, -0.1598413083764909, 0.005796950776129961
