-0.19002060598977827, 0.4424655431449515, -0.10570470874937879
-0.14215221252611987, 0.43562867568475655, -0.10335248746647788
-0.16976225344586388, 0.4392513707611617, -0.10459415095553035
-0.16468760133758314, 0.43924990573719686, -0.10751350867172516
-0.16182459293900814, 0.4376277524413128, -0.10147929763338874
-0.1605991488338916, 0.4379215641163015, -0.10357792158430623
-0.1591248178555913, 0.4348594565541563, -0.08775153114241485
-0.13942600335897842, 0.4336760339375198, -0.09299048664834014
-0.13226756624123687, 0.43261008460811035, -0.08865136514035325
-0.15322502868646307, 0.4346973576985047, -0.0912088472714946
-0.19178423868632444, 0.4412567594960257, -0.09834366288348642
-0.1747705606988302, 0.44018777404820236, -0.10596529890561768
-0.1873769842440399, 0.44052814818985503, -0.09860274017415678
-0.17940734063586256, 0.43734948726607875, -0.08963895083392888
-0.18240758278208496, 0.4340311163830618, -0.06465582455724196
-0.19111681085570564, 0.43476628576905285, -0.06359116995996257
-0.1925464238823651, 0.4394039400441133, -0.08737182897929283
-0.18722847708409532, 0.4377085766037023, -0.08366492878873497
-0.1910984273649192, 0.44370536846307085, -0.11181428930917645
-0.20950592380024272, 0.45229615073948004, -0.12317982714959574
-0.21471785291515522, 0.453563950281651, -0.1166852618042606
-0.2092985455430257, 0.44835245075232055, -0.106957636096771
-0.2123782349608744, 0.44834764345366396, -0.099319928706433
-0.19633915205192293, 0.4355330663979736, -0.061563862972093236
-0.19798647221405863, 0.4411098304823831, -0.09061072923614463
-0.2103999950560499, 0.4491542464829117, -0.10860365472774045
-0.20824860253873825, 0.44577663238669235, -0.09559487815896583
-0.20830192162831807, 0.4387686776086879, -0.059131096196764724
-0.22170201564556438, 0.4505144791676965, -0.07168843967413162
-0.21837962870915265, 0.44764654227462836, -0.07743481432379663
-0.21685741324437516, 0.445392149929593, -0.07050342536329858
-0.21708058767192742, 0.44948192966174116, -0.09057398063013089
-0.12651215572583463, 0.47261671364065044, -0.08115572529659269
-0.12874207639699436, 0.4740667061091704, -0.07171441369427996
-0.1299307708666505, 0.47389959480480803, -0.07425612093744802
-0.1450698927956211, 0.47793394950642454, -0.0502362943072428
-0.12522066761171274, 0.47511416538950374, -0.05456004239669272
-0.13374068149115076, 0.47652260862429896, -0.05024181570895165
-0.1362714141012955, 0.4765721052467935, -0.053544206384565904
-0.08846878853902447, 0.46989345259491216, -0.06679015383373081
-0.09430610218505726, 0.4702382625024215, -0.06878981302892637
-0.07487752069493833, 0.46814915587879785, -0.07121139839055857
-0.15614033809976868, 0.4784073914349206, -0.057918612800897905
-0.15841071708659446, 0.4785813130728942, -0.058153321163435315
-0.16419611977799756, 0.4795154971175828, -0.0751433808408076
-0.1287909968623654, 0.4731288967249892, -0.07937176717165503
-0.14548104694664685, 0.4762889780901635, -0.07556382939483937
-0.1013993273120219, 0.47055697320850953, -0.07273678884163959
-0.10111032640415105, 0.46976852696251037, -0.08083421505293281
-0.10423770721330153, 0.46953655125915794, -0.08667074256923794
-0.10491339438310887, 0.4695175983676734, -0.08829221936242301
-0.06792402602578076, 0.46562848196479784, -0.08896660549538113
-0.07166779718239, 0.4665490889963517, -0.08398029793635238
-0.0897947383010192, 0.4672843226175234, -0.09520724813999575
-0.08482800531762799, 0.4657769369014413, -0.10587539859600274
-0.07651169191718186, 0.46587799308538935, -0.09505027352633177
-0.060854718400600666, 0.4639580225299091, -0.09773186141086375
-0.08721904417910561, 0.46711255622292536, -0.09407375506745298
-0.07444060997518913, 0.464647239465937, -0.10607986968290942
-0.05185442709983388, 0.4630786741651125, -0.09682171408645826
-0.12345209252944711, 0.47227777998483866, -0.11518713276123585
-0.11253646533124888, 0.4700705617810845, -0.11633265003152804
-0.1289184694308951, 0.47328058611060414, -0.11379173568849896
-0.07411479880592489, 0.4635256027123776, -0.12447608478080373
-0.06309307004403017, 0.46221513064764697, -0.1299628576882686
-0.06000841925736434, 0.4627577086847257, -0.1112299941694048
-0.07352028458559358, 0.46381641659898243, -0.11548290274520684
-0.06806287473929984, 0.4633239256102326, -0.11465585465072162
-0.03749686364604772, 0.46059845498673135, -0.10957223613984092
-0.1196335704933363, 0.4712922360451734, -0.09670562474745643
-0.1016422138517832, 0.469382637585853, -0.08993250397542248
-0.11441769715511368, 0.4698997687520764, -0.10356368751948705
-0.10629110314841808, 0.4683446014213958, -0.10778802791242738
-0.09787577741847453, 0.466871564991769, -0.11071767600707735
-0.09655933270856726, 0.46678387945603195, -0.10967479521007344
-0.17024152851724758, 0.4804267453779017, -0.09263850257511719
-0.1501235973013865, 0.4766572788577407, -0.08721418273154194
-0.16939896644704946, 0.48040233230485563, -0.07989774946486891
-0.14190479083347912, 0.4750373780407253, -0.09249521232564108
-0.15765626739088034, 0.47804609824995864, -0.09136106237154946
-0.12964364378260998, 0.47317990552196043, -0.10991051462171811
-0.1220311344799156, 0.47163372874308634, -0.11118034640677929
-0.14676983285041761, 0.4768132254092966, -0.1111642222148413
-0.1228861527696799, 0.47186363058819525, -0.11253088500009277
-0.14392881194817547, 0.47614818136367637, -0.10930159093628888
-0.15945176498921215, 0.4787576480012596, -0.10454124372057536
-0.16987039337964824, 0.4834738220606096, -0.12130583848116973
-0.1847741993074766, 0.48461256414014, -0.11410821600071276
-0.17267379212018574, 0.480849597854738, -0.09968174222663642
-0.16716241939830437, 0.4807802220911658, -0.10778230700834938
-0.173936851825494, 0.48264826229359686, -0.11134018059876093
-0.15233700715055695, 0.476980873121204, -0.0964370706948346
-0.1849361080585791, 0.4835466361833109, -0.10634621130534345
-0.19773253731671436, 0.48488492646323084, -0.1129838487128286
-0.17743507918747642, 0.48174036811378707, -0.08778639846074109
-0.17092423733346787, 0.4804849443673527, -0.09721270216121047
-0.18242097273877456, 0.48252557633638904, -0.09294926971213313
-0.20450586319433905, 0.4837271164221033, -0.11158094226258736
-0.18403471887636388, 0.4820174773687561, -0.08387405463007627
-0.1914065792447167, 0.48123820646787585, -0.07509884366302665
-0.1437878249873052, 0.47545532423828857, -0.08712517770748437
-0.13220360881928175, 0.4732694846887814, -0.08612806041901926
-0.13088866993196294, 0.47299876014181524, -0.0879498149588202
-0.1918705591592963, 0.480306802079309, -0.0591322214375445
-0.20280399408445812, 0.47739799957890994, -0.06713567094808394
-0.18641109593697852, 0.48207670635422395, -0.0856363730467581
-0.18045562731952752, 0.48103254869790346, -0.06497160335439768
-0.17302869452495268, 0.480844845051975, -0.06105533338442154
-0.1985169611439614, 0.47885350050752773, -0.06786672913376113
-0.193650130447378, 0.48179872317418687, -0.08955150774131415
-0.2013144695868584, 0.4796461560261249, -0.08260074801689049
-0.01882064640743509, 0.5061091884285456, -0.22365275092013548
-0.009740595915603566, 0.5008256370650508, -0.22231921008521732
-0.014409881024088054, 0.5067467858837243, -0.22394437278941423
-0.03226399914116329, 0.4959139721482751, -0.2203446004941942
-0.01618394263378389, 0.503200163978044, -0.2228624525456096
-0.08012976123807801, 0.4892526805712257, -0.21477082572590772
-0.0490529344173935, 0.49087184596044026, -0.21792873131595147
-0.07043556131145935, 0.4899625065226228, -0.2158547136228221
-0.08362131316071653, 0.47430379047720284, -0.20728989179343707
-0.056892085969447434, 0.4893998947843137, -0.21661892396789736
-0.059222910617514224, 0.4884582239931444, -0.2159862541318707
-0.049492275606360873, 0.5006551180515963, -0.22112390695134115
-0.053255448611817975, 0.4957478839411634, -0.21935268993894527
-0.06021685964303213, 0.504578787357835, -0.221470615120564
-0.07571641716830622, 0.49493378094455287, -0.21735830980078377
-0.04931329187628716, 0.5117931019326252, -0.2244928323727095
-0.13130180660807939, 0.4779318933832207, -0.2016979957472226
-0.11825692384147242, 0.4859286155405358, -0.2080084068904436
-0.10095660943310708, 0.48969560220997, -0.21249748650361217
-0.11462423999415187, 0.4865101570860702, -0.20883218349942567
-0.11335436805911883, 0.487021990629347, -0.20929520839605134
-0.12563699614490725, 0.4882087017605685, -0.20829880483950436
-0.13526120482646153, 0.5018331696442153, -0.2135631247430574
-0.15426192574508937, 0.5169285727729664, -0.2168927121749328
-0.13684739293678577, 0.5006086167850706, -0.21282478841858743
-0.1375146766489812, 0.5002641894411126, -0.21258401039412944
-0.1393307952357054, 0.5094050447700103, -0.2160508682250621
-0.10725384036131337, 0.5071981990207066, -0.21857739335551823
-0.11162004344699539, 0.49791538056345963, -0.21473216580456725
-0.09315269302902303, 0.4995271229036665, -0.2176092539637644
-0.12482253363169081, 0.4981010418089083, -0.21315099915619962
-0.10755070766086854, 0.5025640622839629, -0.216892696952826
-0.100886754628855, 0.5082040134003694, -0.2197293834551211
-0.14656675697561178, 0.4931614361124134, -0.20732632435460038
-0.1586364685768945, 0.49410262779901526, -0.20538156856058215
-0.15823748616686586, 0.4968777843111595, -0.2072174864661351
-0.16896264635062402, 0.4937151235695152, -0.20296475472762146
-0.1718042165550684, 0.47984822806384647, -0.19361267572504462
-0.1281866510233794, 0.48348717315190726, -0.18108138883007716
-0.10704243939999888, 0.47672595419193375, -0.1840721271254219
-0.168358073454124, 0.5084093347405523, -0.17639928445545813
-0.16694371238295824, 0.4990099349129421, -0.1737712498118676
-0.16568072449477034, 0.506186222362319, -0.17655969713275052
-0.1011656746671163, 0.48207671983581185, -0.18910487331404877
-0.101099976196913, 0.48798598785553604, -0.19218637446382741
-0.09318192159576438, 0.4885144757848092, -0.19520063889583206
-0.10985852357808447, 0.49427322479560487, -0.19240914858278357
-0.15152769982527808, 0.5115665892001177, -0.18395710822415923
-0.16512851168898268, 0.5181006352305575, -0.18073845509496878
-0.1529025480368039, 0.5131642473541507, -0.18391253154401616
-0.1463636838071806, 0.5084094470201656, -0.18497656355577577
-0.16025739092230903, 0.5260032508547255, -0.18496006333571113
-0.07426243019795818, 0.47195296932334874, -0.19114020754409583
-0.11832745710958961, 0.4834750701452943, -0.18429457533113647
-0.11710866434751954, 0.4810453482258915, -0.1835424671654069
-0.13325623576122297, 0.4900767449908185, -0.1826661196180218
-0.1280657734967276, 0.49016730715449797, -0.184349107282708
-0.013076732100493833, 0.46408530755880484, -0.19543245200339018
-0.082746785125064, 0.48367837694020066, -0.1954685290734453
-0.08815746877900543, 0.49019843292654963, -0.19770425941911196
-0.07653886991376431, 0.48438841815244826, -0.19717887653055985
-0.07345640334020812, 0.4825265053604402, -0.19687219805851003
-0.07839492376622599, 0.4776130814266442, -0.19324167690633773
-0.12794271560545586, 0.511330567142189, -0.1936328926315435
-0.12745827926191933, 0.5153941597813085, -0.1954254436367432
-0.10637422419211298, 0.4982431615419831, -0.19528799883768724
-0.12205394624699095, 0.49941234995710354, -0.19072310575249787
-0.09793200530478048, 0.49690424186636994, -0.19746003587217048
-0.052428596748045245, 0.4761984417584816, -0.1980557471854626
-0.0506677753672127, 0.48574345218140286, -0.20328697789626593
-0.047465094917433434, 0.4731855966595207, -0.19755961227148464
-0.06698192852065564, 0.4850457122122461, -0.1995172756165994
-0.061119561184370536, 0.48803751521075855, -0.20226833597084576
-0.015107487426320551, 0.4746944730058726, -0.20126328958340034
-0.004077296296566043, 0.47401579997708987, -0.20169759542057142
-0.027930503650146855, 0.4813905268522989, -0.20362293716173077
-0.01148268621050321, 0.48533022299070805, -0.2066718143229255
-0.011605993854571747, 0.47286489177518265, -0.2006184060799907
-0.07869808743005002, 0.5038398708959221, -0.20586841114637675
-0.08040147133705641, 0.5074459425536264, -0.20715832654933253
-0.08794667653578597, 0.508552220378924, -0.20612717151107776
-0.07768930791966258, 0.4979608230124718, -0.2034061535492157
-0.06616128291364828, 0.4904441110302419, -0.20233824334014128
-0.18190395633936535, 0.49801266899093966, -0.20257657787558797
-0.17838921871384789, 0.494749807919258, -0.20134730764165928
-0.18936753894663275, 0.4902306349534017, -0.1957018455545062
-0.17750082563898523, 0.520787588328724, -0.21473282013456557
-0.18279295487171196, 0.5198622435260994, -0.21328000530654073
-0.19939342932294407, 0.5237175959368131, -0.21088969955697345
-0.19801506635947125, 0.5257719736377215, -0.21231814223051604
-0.2015183463294315, 0.5030191801151875, -0.19995079461621745
-0.2022362084321402, 0.5146634785806516, -0.20544264857425962
-0.2025527236564952, 0.4862513861954227, -0.18861728075097348
-0.21236024875131249, 0.5216214951337307, -0.20189797843873653
-0.2177251629671214, 0.5114554078680315, -0.1918349948889641
-0.21389631033834292, 0.5006601259457318, -0.19008125384136523
-0.16044598520307632, 0.5080395320351706, -0.17924303657308654
-0.13611189576448973, 0.4957662859953673, -0.18417409494059295
-0.13645261566971256, 0.5005297885047741, -0.18619002010034197
-0.17229845453107864, 0.5145753501240548, -0.17711334744568225
-0.18247558575960987, 0.5318190676221128, -0.17844927182770728
-0.1755576215167975, 0.4971806571926917, -0.16963589413342386
-0.18974213331940817, 0.5175372718465899, -0.17295718921880807
-0.2047427769994477, 0.5103154510532182, -0.1669900654156117
-0.2043159118547232, 0.5124957313808555, -0.16796337039841286
-0.20328672653022192, 0.5162310400831264, -0.169452781116147
-0.20828673376890056, 0.5195406450644691, -0.17016935953313067
-0.1941853854057365, 0.5111371362169468, -0.17022528839804668
-0.18383556629827832, 0.5129773804880299, -0.17312301234559663
-0.1936486500639026, 0.5244368787026639, -0.17411938337595328
-0.004769204377037364, 0.47505145528424253, -0.2121071120655679
-0.013882642591310765, 0.47965394896405045, -0.2139311470768278
-0.0027138298377035125, 0.47990636378152846, -0.21430451079726126
-0.01334918099343441, 0.48277952665857415, -0.21532732673206187
-0.008164586144041672, 0.4733372650648922, -0.21126871118028262
-0.013626177305958687, 0.4722556061856041, -0.2106619307052108
-0.036768778718380205, 0.4667435737123258, -0.2065247836413436
-0.033834894436900485, 0.4651855402204169, -0.20539846992640484
-0.01751854654555924, 0.45682611434891307, -0.19936615367185212
-0.037651390286632946, 0.46240773110946454, -0.2032208511202221
-0.06201501909316105, 0.4635301948528906, -0.20236931696325414
-0.08298198957133655, 0.46856457415336367, -0.20431602578737493
-0.05069575512643176, 0.46868343817219404, -0.2072845731917432
-0.07412925676908358, 0.46782067149636064, -0.20454141370978954
-0.058450170976681946, 0.46031357842763515, -0.2002489805175908
-0.041477306942477185, 0.4512020931937089, -0.1921075544225407
-0.018314198130869652, 0.44460775684790127, -0.18112157836479892
-0.022215978953352387, 0.44634122673279314, -0.18398765965146865
-0.025748979004270294, 0.44949067965357264, -0.18915940456374047
-0.03990750964481118, 0.4394906971205915, -0.15687044794300295
-0.030322140732543756, 0.44248237834151866, -0.17058331051736475
-0.011110440038388661, 0.44120184181072164, -0.15932123093495276
-0.011341015298344928, 0.441046032112612, -0.15854491654743763
-0.038895761707651695, 0.4400414760708617, -0.15956918751720026
-0.03506260178700266, 0.44157663202198605, -0.1668568954052953
-0.05473371002435894, 0.45108281426302343, -0.190963030802709
-0.05431069037662267, 0.4515339872563051, -0.19173784315573267
-0.04683060565710838, 0.45265729139079747, -0.1942772081247286
-0.06644961818557793, 0.44887880532811963, -0.18626173339702914
-0.0674514573899466, 0.4490528596449241, -0.18645001285759757
-0.002002074284842609, 0.4617398053650461, -0.1562422174867977
-0.007040379450721682, 0.46186711063341934, -0.15529359767966783
-0.018825546697685682, 0.4623451700181779, -0.15561842971977288
-0.06848973566962027, 0.4667664836030311, -0.15673076104893346
-0.07810184720720437, 0.46996516061032223, -0.1637052120160586
-0.0609479774387524, 0.4666683520710575, -0.1604176336019275
-0.05677755041186483, 0.4663723246040208, -0.16153818725467808
-0.06366775826131359, 0.4653707833403684, -0.1540255160205051
-0.02993162006258536, 0.46916301441371716, -0.18620539538823896
-0.008043156116058032, 0.467819415283511, -0.18483061021227154
-0.014065036476824885, 0.46860478477586354, -0.18716674119192356
-0.06268608130382136, 0.4701189068718103, -0.17488448089188713
-0.08253621326863561, 0.4727789294480711, -0.1728251621283546
-0.08503626726296283, 0.47421285147956815, -0.17694571136287737
-0.032209630001063326, 0.4661355669216092, -0.17218978864828657
-0.012067484150845683, 0.46430424430593514, -0.1683042791930093
-0.011885131234326001, 0.4660501684738269, -0.1759137263588879
-0.0012270531838229001, 0.46480100852657025, -0.1726427172815903
-0.0852217181839042, 0.4384955763152069, -0.15638087483833557
-0.0878526825858005, 0.4414437543670797, -0.1685325668342183
-0.0857047918942063, 0.4423895453179678, -0.17220848840079664
-0.08355618482985414, 0.43962559494730225, -0.16083977431498508
-0.08626273607184216, 0.4385642402472536, -0.15673672063214464
-0.07864698440308444, 0.4407499213245326, -0.16503447060852705
-0.09439903944043063, 0.4494194081163041, -0.18392740354694184
-0.12142503029794477, 0.45566846788928195, -0.18595910196993692
-0.10332606778397972, 0.4488970343064491, -0.18063270420753785
-0.10157704671905017, 0.4537969280882863, -0.1886340875838032
-0.07114390408365213, 0.4616326484438189, -0.2000611744576324
-0.047180004053870454, 0.45413137787357316, -0.19654057861810767
-0.08806080432812356, 0.4585077378537689, -0.19590768035047848
-0.061410748547701094, 0.45492831351114527, -0.1957474799071012
-0.08090897169864548, 0.4648501885125524, -0.20162259670525726
-0.05464753462146765, 0.4786014320392349, -0.21185788542019968
-0.08446882041147737, 0.47053343541270853, -0.20545470537652946
-0.04878834887581311, 0.4770780607519412, -0.211715282951365
-0.06010110582269167, 0.48329992944391525, -0.2134688133673471
-0.06812656012511781, 0.47009451163870797, -0.2067737168528706
-0.10802033191219065, 0.4647972523042543, -0.19711041686846797
-0.10908763379033448, 0.466396890793639, -0.19816472031566662
-0.08923826184823899, 0.4593266650715615, -0.1964204975990712
-0.09364433333793282, 0.4654444364694316, -0.20039018179460988
-0.11820934919443932, 0.4707914982135448, -0.19986853088071213
-0.0775657176460049, 0.448776789085931, -0.1852404927634403
-0.06533997174209627, 0.44535664008789744, -0.18088566585382063
-0.0740084322521137, 0.4454847072891151, -0.1804300110548686
-0.07011378295293502, 0.44723368368939087, -0.18342156086186315
-0.08686666749636614, 0.4497768316812404, -0.18608233270340238
-0.11622403639006382, 0.45958179214873446, -0.19102547727593902
-0.11553351414073501, 0.4609376775252993, -0.19234230293694957
-0.13389107514887416, 0.46805939744528574, -0.19436961374429435
-0.13348431032740035, 0.4603393032517092, -0.18783676476210112
-0.09918020646379408, 0.45489040931435964, -0.19079106136801044
-0.12082831427419169, 0.47760019539446014, -0.2030399208486547
-0.09859978881533996, 0.47611389946243593, -0.2061200881406834
-0.11075708148935764, 0.4775909725814706, -0.2047570673679186
-0.12455068784629822, 0.47557839309428174, -0.2014246607542527
-0.1050087131601981, 0.48082813614969516, -0.2073071287139965
-0.1352381566208583, 0.4628258659979656, -0.18955630223111183
-0.1561445513088479, 0.47023946696666974, -0.19005990856720617
-0.14155597415530569, 0.47005139457420586, -0.19398222658565062
-0.13780467077069117, 0.4617703752415985, -0.1879330369718747
-0.11048863569853401, 0.4471544751781914, -0.17591692869644976
-0.11638817835350355, 0.45170432977295544, -0.1812878377254004
-0.12761183868063486, 0.4500924156242533, -0.175597625023376
-0.13168280962034307, 0.4533888543646736, -0.1795467744056496
-0.1071592714834777, 0.44754120615914833, -0.17746321705262846
-0.14708946807830997, 0.45382602710586034, -0.17423310874156844
-0.14071813168627095, 0.45824992808829007, -0.18371860912617852
-0.14092081418717872, 0.4502151206364802, -0.1712526484946355
-0.1329858327537026, 0.4416039815597619, -0.15067501592920224
-0.1305088123534303, 0.4460598980596421, -0.16648809219768118
-0.12939762967840093, 0.44521800906651954, -0.16408996984942092
-0.1192631315985162, 0.4404495872801303, -0.15194100388548315
-0.10578628040766892, 0.43935572566877745, -0.15331746321593986
-0.1603395918164472, 0.4484775009804809, -0.1556947906031105
-0.16894640930956384, 0.44968202537683033, -0.15443355799082395
-0.1526843604201316, 0.4446595146725931, -0.14916699998762747
-0.17165951558454023, 0.4519599350804099, -0.15932263444072745
-0.1771066754381497, 0.46453101227023186, -0.17794980530257515
-0.17483639738271298, 0.4559701717804917, -0.1660127434679231
-0.1520386467447711, 0.463448852999504, -0.18512046497624127
-0.1632224998649403, 0.46410609935051156, -0.18216122368136556
-0.1609979781770702, 0.4713639931261468, -0.18959658801534549
-0.1429789984411617, 0.4611835454045308, -0.1859118344452631
-0.14473806846940487, 0.48406143554049297, -0.20235765454148885
-0.14405775635268356, 0.48572894801116573, -0.20346849062307565
-0.14631055967316725, 0.48614582179293925, -0.20317172743377654
-0.16091749267592742, 0.4778677942585151, -0.19499463303105546
-0.14808141512602202, 0.4796242703752335, -0.19903828266971424
-0.1804093812372601, 0.4760830178604765, -0.18780948908270886
-0.17618812468870967, 0.47365714539502146, -0.18689133764824828
-0.1676341137588403, 0.4533127643512288, -0.1650233904034277
-0.14363391508066725, 0.4491849067978836, -0.16857009983192583
-0.17181829558580175, 0.45624124130434196, -0.16775938979971267
-0.18340573054559975, 0.47082167491798393, -0.18187299890220981
-0.18853224278347339, 0.4717062921561965, -0.180945578017162
-0.17392188369853592, 0.4963737995377829, -0.20352545052594073
-0.177390411006601, 0.4893503660567792, -0.19818302502810714
-0.17729346194393766, 0.4851806325459848, -0.19557150269579313
-0.1988319715666637, 0.4803201205675721, -0.1850325110862609
-0.17674178020210055, 0.4551508870633513, -0.16390833195484872
-0.18411979505846987, 0.45719204488279086, -0.16365036228467972
-0.1869066347555469, 0.45407261644599767, -0.15470744471923686
-0.18182454466438253, 0.4508942024713056, -0.14950608628879133
-0.19309325919754258, 0.4665738868620972, -0.1735958143603103
-0.20509768136154147, 0.46724032684866035, -0.16678947710346848
-0.2010689529777269, 0.45770098034377593, -0.15269545349377894
-0.19254938072618372, 0.4834388066330198, -0.1904435809596028
-0.20790824636378638, 0.50625984895438, -0.19830179223442065
-0.20097123808179243, 0.4713934220746816, -0.1754847668337262
-0.2009475706227778, 0.46359753491518746, -0.16440457500098105
-0.20798604086389647, 0.48388960067660675, -0.18314392127389423
-0.21053452530032316, 0.48424333945363196, -0.1818953105434724
-0.2107676869377335, 0.506899964160687, -0.19678991074161262
-0.22052351314880114, 0.48987898252936696, -0.17379145469378604
-0.21501482917036452, 0.477828748605398, -0.1714904839183013
-0.2185052199151535, 0.4671244854768766, -0.15138907735646964
-0.2106998690072089, 0.48627509990195283, -0.1836656413118058
-0.21072889599349637, 0.4721607212071146, -0.1695445357178058
-0.21982520993517524, 0.4798118976239746, -0.16651878642045806
-0.21615598694421562, 0.47172241661230574, -0.16197295423883207
-0.216176177876076, 0.47413479508957007, -0.16546073731545077
-0.060878959283990106, 0.4720889316161668, -0.18467574149327076
-0.0515786482518965, 0.4690035748418398, -0.17771623645406015
-0.04892810139753151, 0.4694930190557984, -0.18183585751265763
-0.0444203200676104, 0.4657766497958564, -0.16777106653900856
-0.05643034097518458, 0.46792800992025513, -0.16935933089857988
-0.04373979948580098, 0.4641127062970259, -0.16003254505774064
-0.07595332765746399, 0.47074485627093127, -0.16856678693218868
-0.12640967492242813, 0.48189080024535663, -0.1646864338751129
-0.13387384717915596, 0.48449503388908766, -0.1664875747410453
-0.13303359074408605, 0.48489973423225674, -0.16873640687150243
-0.11443914746705147, 0.48020935018422034, -0.17056294540548605
-0.11467986176014802, 0.4740416950775672, -0.1463141864320202
-0.11724435030805339, 0.47601281751306934, -0.15120684557138303
-0.09867189859583456, 0.47107657327352254, -0.15086210661701596
-0.10977160336129821, 0.4736510494943198, -0.14965677439891079
-0.06005958102843413, 0.4649425415875781, -0.1540603389408508
-0.05754863289502518, 0.46481376599453905, -0.15517186620979007
-0.04694172088893388, 0.4629662628557453, -0.1505770051824246
-0.06787213038813458, 0.46529434098174394, -0.15025362502725392
-0.09135737293431023, 0.4676480626117918, -0.13988961221484864
-0.09143588642200134, 0.46758562271502435, -0.13906391577997082
-0.09230411284571001, 0.4672156621741645, -0.13317233963656272
-0.08888985437950304, 0.46702206881088815, -0.13968116132887837
-0.16354809388894637, 0.4897588044901113, -0.14898232282358365
-0.16801662717887247, 0.4882932876727998, -0.13962430436884132
-0.16469597001020858, 0.4859929713238769, -0.13568885681037812
-0.17215991528243768, 0.4927460903252935, -0.1496194426045802
-0.11848465482735555, 0.48245671663295436, -0.1748788021645073
-0.11073183496944759, 0.47941857929568005, -0.17157200671932504
-0.11839698494725395, 0.48220590197174623, -0.1739863354379202
-0.15887148499988565, 0.492226565057285, -0.16237064717997177
-0.15914640610315045, 0.49078605690773286, -0.1578974235676967
-0.15253730319608483, 0.4883297727530567, -0.1576274962198345
-0.09151461376944624, 0.4716451790142282, -0.16177336558765498
-0.10160585614154481, 0.4735003671107242, -0.15795972869734715
-0.08666987716434081, 0.46750014934111644, -0.1492100393522553
-0.10371957627205623, 0.4742522996038242, -0.15876800653760442
-0.10569132857693353, 0.4752604723156849, -0.16087873931594
-0.15262586894428665, 0.49061076832748973, -0.1645325480264559
-0.1546389097224706, 0.49167197905485593, -0.16566179919711718
-0.15951430152403262, 0.49382635880807235, -0.16692354291460568
-0.13833509786234505, 0.48074107170726876, -0.1463024416789163
-0.13537740070631776, 0.48135469183296165, -0.1531204212985271
-0.1384540264380114, 0.4809232272525243, -0.14690191330961289
-0.1826444239314366, 0.4969989575774889, -0.1527412214792112
-0.18185601040472915, 0.4975243638447565, -0.15475209101121365
-0.1418118882768443, 0.47951404843992124, -0.13693679709145615
-0.12522687400048274, 0.47450594419425385, -0.136122379878414
-0.14422612577711635, 0.4805245460619022, -0.1384977034020047
-0.18521263030779006, 0.49391760589108635, -0.14140990287160418
-0.19176260450660296, 0.496905984476309, -0.1447788713453541
-0.17459093962557648, 0.48730972862776845, -0.1308380088758333
-0.19193398484580787, 0.49116321945911834, -0.13090244035936827
-0.19490059944541854, 0.49394557377755915, -0.13692881557182787
-0.1796352884935005, 0.4927927283046279, -0.14256016207824362
-0.1708807224387248, 0.48778475462756454, -0.1350925799389785
-0.21123032500457922, 0.5032445184977188, -0.15493667758882546
-0.18535364706547647, 0.5015060664226862, -0.16266051276729712
-0.1886695868090535, 0.5030533636498221, -0.1639570722935304
-0.20211118703872377, 0.5004976441720493, -0.1502136486556444
-0.1979807461928537, 0.5051535380663068, -0.16181885995306755
-0.2067496629487488, 0.498580381597752, -0.1469070523479158
-0.025258086169726243, 0.47709119918533777, 0.223952128872103
-0.038469996859757216, 0.4779526140290674, 0.22003337349652563
-0.052101896280512365, 0.4779297232973272, 0.22486914698966565
-0.05636710932105275, 0.4789690479649135, 0.21780862278548763
-0.04922311484618236, 0.47836492263985964, 0.22073114734839488
-0.07868955636073331, 0.4798316432658262, 0.21881312786728677
-0.12529059640791723, 0.48064550514642634, 0.21690195325895256
-0.10048323196473635, 0.48082526605955833, 0.21349389737471328
-0.0947112582519183, 0.4824786411992509, 0.18155113675952067
-0.08795890312905086, 0.4820437214695271, 0.18736837308053506
-0.1398060327217296, 0.4827717065720041, 0.19107242151867732
-0.10396207458259446, 0.48282526664104275, 0.16542550534329886
-0.10061083639494939, 0.4827559411535016, 0.16427959625481003
-0.0998788915391266, 0.4827184529908123, 0.1677954597560416
-0.0988561047844129, 0.4826808570297571, 0.1702160678146096
-0.15117667574700092, 0.48269232181047383, 0.18544881844876973
-0.1522056433151745, 0.4826952939847703, 0.18734677774335406
-0.15880553813352846, 0.48227953979414423, 0.17935258118540126
-0.0996348044896692, 0.48273594048243884, 0.1601519150872258
-0.14063730525661652, 0.48337278557522056, 0.17176893617346617
-0.13010018168388218, 0.4836470035089782, 0.16178428241424692
-0.11714136950087703, 0.4833892817304033, 0.15901500652081985
-0.05315512638327849, 0.47991513646807227, 0.18866215551970786
-0.04488103798539507, 0.47943949924456697, 0.18579087680040515
-0.016469748264987594, 0.4783702964280644, 0.19400698765839697
-0.031100265834420538, 0.479258426399929, 0.17557878309529168
-0.03474312485066868, 0.47944905885743466, 0.1771817969207603
-0.026358462416653, 0.47891358583312094, 0.17143928340412173
-0.0225383268541353, 0.47879785544850595, 0.17154535113624242
-0.08280543709685681, 0.48178433287199957, 0.18534589061305876
-0.0712480812315974, 0.4811387899202241, 0.18133955788803074
-0.0727445416332802, 0.48134859179154343, 0.1759753213925584
-0.11537952760939682, 0.4831923815423044, 0.18231047460071617
-0.06848518598478591, 0.48110291622777435, 0.17194306622334354
-0.08639889661402969, 0.4822153234030674, 0.1642661313228692
-0.08965894238116813, 0.4824203910326749, 0.166221501633117
-0.04378040946624484, 0.4795261939144037, 0.16342650239986029
-0.049886800682322, 0.47984933538035, 0.16434972462970152
-0.05667722904109611, 0.48018178093494457, 0.16474839190552767
-0.04359219533159807, 0.4794213486097771, 0.16118249206307977
-0.18107780346085448, 0.4326069965333397, 0.1642205957852717
-0.1775221679795806, 0.43395576065517516, 0.17938242217784078
-0.15725646786964728, 0.43364975700471686, 0.18169386068481158
-0.1772379089142499, 0.43552716368518474, 0.19126938304208246
-0.11088780352723059, 0.4358372256872083, 0.2138975254243246
-0.12146724787787455, 0.43557563275390127, 0.21311674927354304
-0.11629832920003293, 0.43567589121437356, 0.21731761788848947
-0.10322312473756333, 0.4373683730011288, 0.22795154891640412
-0.1359150528194041, 0.43519570144013975, 0.20861472997048203
-0.116183212633804, 0.4366233750970504, 0.22539849688923416
-0.11594012783326875, 0.43649523865513207, 0.22401133911196536
-0.12620756900294128, 0.4371387595561174, 0.2278649545973921
-0.19406161611594183, 0.4365349408980166, 0.16824967735349122
-0.18604247791941259, 0.4334979750830264, 0.1681642567979097
-0.17544582541803996, 0.4345254271648561, 0.18610293086756785
-0.19488701453104315, 0.4413414511668082, 0.189863662700191
-0.18172974075557236, 0.43668134872212694, 0.1914833336072338
-0.17888824840637474, 0.4389152882263954, 0.20696206231141634
-0.19837954009928066, 0.44392182023228877, 0.1897305985588393
-0.12767883461614649, 0.4362025358338415, 0.2223544985624722
-0.09880247884816372, 0.43907176830418365, 0.2347224190597334
-0.13464079166808576, 0.4383539092302332, 0.2308898327647209
-0.11525941166544525, 0.43772909727144876, 0.23189840180322308
-0.10949592806522057, 0.44056121968078266, 0.2401506125765546
-0.13260257004789477, 0.4392641332440121, 0.23537349451599462
-0.11367148793029565, 0.44466022792807947, 0.2478815844669533
-0.12379852686017426, 0.44188131330887975, 0.24329402370116188
-0.13158696571076844, 0.43773970574072313, 0.22967227320336497
-0.15201205733297765, 0.43891695402372277, 0.22671677882326738
-0.13196986962576124, 0.44132686284978273, 0.23986749447366507
-0.1590883206643135, 0.48285993969896535, 0.16060206516608758
-0.1691944545314835, 0.4824450976097189, 0.16034400987275613
-0.15453547050011474, 0.4827553873582913, 0.16817975007570005
-0.15543093227378468, 0.4831674653955671, 0.1566658343267486
-0.15570517997416217, 0.4824659821625918, 0.17650100231814964
-0.1754796273735903, 0.4811470849964541, 0.1682958961600006
-0.16011154224944385, 0.4824933107862224, 0.19153035550714087
-0.17205281500222272, 0.4816763083799905, 0.1815599354108394
-0.18397011732156035, 0.4798815111699871, 0.18729882828247613
-0.18630411372180428, 0.48000194910241667, 0.1787739360979705
-0.17833987915844657, 0.47979904385142946, 0.20089003965296995
-0.11360233946674864, 0.47923382334647313, 0.2235108991502231
-0.11761630335205855, 0.4792548927685869, 0.22301612532821974
-0.12152548474348523, 0.4793346400127001, 0.22243846455783076
-0.13284468875976801, 0.47513439408127206, 0.2352056447247416
-0.13895613412279223, 0.47769932328099013, 0.22773753961114218
-0.045974849050772766, 0.4783775387525304, 0.21804635674528328
-0.050520005631668696, 0.4789221915527708, 0.21398297364543864
-0.02863228006326277, 0.47867710244532374, 0.20158165403148356
-0.03487366742941649, 0.47885795596810005, 0.20471688190197748
-0.07560039031204029, 0.4808157967498434, 0.20486549146515676
-0.041680066392617905, 0.4793815305707466, 0.1973632447831458
-0.0320059932852627, 0.4789808504997467, 0.19636265601232128
-0.06742793432769717, 0.48055416423129094, 0.1983878056640572
-0.1699782491211187, 0.4362845237519527, 0.2041085416583361
-0.14973498548717135, 0.43520160672875974, 0.20547968714235565
-0.16634484250261505, 0.43696529365776726, 0.2104185626853768
-0.15411880663138106, 0.4363102852344721, 0.21342712603764763
-0.1403574187903604, 0.4371664485820651, 0.22429105731885557
-0.1669692174815711, 0.43875552470034923, 0.21770198765278817
-0.15044339392244205, 0.4403111976156105, 0.23189315677839925
-0.1647552421308332, 0.44125884706549756, 0.22755846224467213
-0.1473698589348214, 0.44147304987934866, 0.2359454697923033
-0.16221574724196325, 0.43586613954878184, 0.20519356031983205
-0.17096317116649265, 0.43456898374915276, 0.19203322885028695
-0.1754465928872628, 0.43887140986871565, 0.21075681402197535
-0.1869140918115747, 0.44025069764067876, 0.20168398316865485
-0.17798256204151414, 0.4405686996580514, 0.21521235519847232
-0.05251250666067204, 0.4792161042112555, 0.21099692683799665
-0.0871694040812191, 0.4803046618945922, 0.21578252264682987
-0.08465542943349615, 0.4806732514181853, 0.21026023218744427
-0.092371704248162, 0.4811999454175224, 0.20621527415051089
-0.08635219506935549, 0.481167835418553, 0.2045176485291987
-0.057342853654569606, 0.4799938203823462, 0.20029140756352254
-0.05724030464077081, 0.4800912531475443, 0.19288984386562497
-0.07738401541317072, 0.4810558856546599, 0.2016827968068355
-0.09748419035140071, 0.4814273429883109, 0.20335661091219884
-0.05704103026490699, 0.48020507667638024, 0.1834244058631928
-0.11578998435161166, 0.4826606660833974, 0.1905818959006711
-0.10628917537380969, 0.48272426366393995, 0.18606226523304184
-0.13803695484684136, 0.48159392621358227, 0.2053412982995525
-0.12401239710889941, 0.48213893731222746, 0.2004462890616671
-0.0966417130707788, 0.4816545920909558, 0.19831187467692687
-0.10652473005220912, 0.4816855574454256, 0.20108595134113982
-0.09947896492723494, 0.4820515599292637, 0.19289740065792252
-0.0975830622719195, 0.48202706541398627, 0.19253522231345552
-0.10956428921297126, 0.4818659721136138, 0.19911117561298325
-0.14482407231722502, 0.4817130305347318, 0.20426078945087447
-0.12489429529268059, 0.4810962618240883, 0.2140292820771343
-0.11030066561590035, 0.4814428610542533, 0.2070948781263266
-0.11708885398568877, 0.4815394985039412, 0.2064600541237719
-0.14855932504929273, 0.48116221436996365, 0.21086899374054208
-0.15449638269687604, 0.4791810567355018, 0.22028655911706396
-0.12440859924543207, 0.48188616438786797, 0.202562099441353
-0.16638056443351565, 0.48202749436198833, 0.19038145563733064
-0.1327405447095636, 0.4831660674420374, 0.18240224606283292
-0.12656472244730574, 0.4832569670323934, 0.1806578054301711
-0.13923552826241753, 0.4827041564469382, 0.19273499943917388
-0.13957609262251444, 0.48263467467810484, 0.19408694706579604
-0.16164562523818526, 0.4756364795803808, 0.22783649271821454
-0.15713314540735995, 0.4814712096471375, 0.20431103531690592
-0.15914907378782453, 0.4810912770839214, 0.20723963567662929
-0.16306018556639054, 0.47966500237755694, 0.2148239928502108
-0.16976242075566508, 0.48080345298292426, 0.20150113033572226
-0.1739212281807288, 0.47922791046219676, 0.21009307459154725
-0.1818411076069277, 0.4789605366909041, 0.20336290794311176
-0.14981575081672044, 0.43553521860681, 0.20853223069496962
-0.1308555245591781, 0.43514123773948443, 0.20728866763535325
-0.10121385558643597, 0.435941122390755, 0.19791148341787265
-0.12535641880595733, 0.43529888753580537, 0.197097894414908
-0.1269058944103381, 0.4352844541007047, 0.20307313030498073
-0.15477607250807096, 0.4341820266872107, 0.19069688605399537
-0.13080984369572202, 0.4348162452576887, 0.1882974477224364
-0.16385920589400005, 0.4338954572658314, 0.18694150013050523
-0.1323580327122736, 0.4349899650701028, 0.19340512048493586
-0.10843525914073956, 0.43552698614396934, 0.1901884080027792
-0.09109036381018627, 0.436077337516303, 0.19209011626434624
-0.1510452354995894, 0.4338292514812542, 0.18229019184376205
-0.16676916786049267, 0.43203320927718236, 0.1553412681816081
-0.15614487434244148, 0.43288973770059724, 0.16653820063045338
-0.157052281782366, 0.43344271247002986, 0.1779795129285049
-0.13443005154209894, 0.43433926255234667, 0.1795926907879032
-0.12806358422843628, 0.434386076080988, 0.1734278394879192
-0.08050412572441172, 0.8190868548409652, -0.2842062469428932
-0.09631021538319173, 0.8153157568976146, -0.2833452258843743
-0.01720052383022877, 0.8390672865271397, -0.2882549956369733
-0.006828706877854713, 0.8007990369998571, -0.2788390367838895
-0.002343725060636722, 0.8007017777827262, -0.27881029653724787
-0.013559074120016222, 0.8053458608919557, -0.279956030308524
-0.0738323356085635, 0.818727668828902, -0.283948400602535
-0.07062072359126549, 0.8279302930910568, -0.2863635864726964
-0.08845457872464305, 0.8010207144327799, -0.2791248186538769
-0.0688171887614609, 0.8149962972609088, -0.2828707871953289
-0.0592193490247459, 0.8069452550499647, -0.28060199124131874
-0.057492689281419374, 0.8386438162326973, -0.2888701399102843
-0.0401884661371032, 0.8390381628937524, -0.28859036635383944
-0.0448604868169595, 0.8333151067139504, -0.2872067919688346
-0.03572462880260089, 0.8040722457135409, -0.27972226920008175
-0.04446870567195536, 0.8152228437143852, -0.282549966068182
-0.03802255933557719, 0.8147786670513616, -0.2824161454654171
-0.05297378336884666, 0.8029329260140696, -0.2794963667473741
-0.0754133996803076, 0.42538683728569254, 0.10031739463067789
-0.090284424122236, 0.42401721964662653, 0.08786399280623074
-0.061265408207453284, 0.42671429792628573, 0.11237903011518476
-0.07120902090633738, 0.4259384537658314, 0.10527618324759043
-0.06197101838477803, 0.4237439126430001, 0.08637512949089694
-0.06421272990170508, 0.42631508212641434, 0.1087932968084713
-0.06284862574686267, 0.42925834273105334, 0.12881672682865364
-0.06394021945448268, 0.42784169658212096, 0.12106610599983154
-0.060246908900044874, 0.427757135007322, 0.12038385802121594
-0.048194580135305906, 0.4301365483535776, 0.13280480375451137
-0.03388150279540422, 0.42753432461891483, 0.09735372804907055
-0.04837941773174138, 0.42401518492725243, 0.07759545815551845
-0.026891933080663608, 0.42679881635538, 0.08499356684893214
-0.056289881360365876, 0.4241938530536703, 0.08570126865948427
-0.03616550159096791, 0.4264786187718519, 0.08972997245221564
-0.042366662233904145, 0.42850054991125386, 0.11301858376392467
-0.030507832863747447, 0.4288634203584735, 0.10654251906444208
-0.05891704157410491, 0.42452507144913126, 0.09083986774608942
-0.048176983637909225, 0.42909840832470364, 0.12317138880918409
-0.026774879239812324, 0.4275701448402822, 0.09183833911036245
-0.04497653301978046, 0.42630871783689595, 0.09543889685789239
-0.024401051866306325, 0.4275719670229906, 0.08990476011403517
-0.03822187944555823, 0.4268346144233338, 0.0946226656049593
-0.03768223615104126, 0.429695907310483, 0.11992719010881885
-0.0374441569265755, 0.4257162181266086, 0.0839197342696224
-0.04489887392019478, 0.4269749797257365, 0.10137057085483538
-0.02999330670739213, 0.43335203346178075, 0.14790462815868405
-0.022625084228273442, 0.43424402007450125, 0.15145788017386008
-0.09258847397912155, 0.4236602886250212, 0.019448486796967944
-0.09382690142857564, 0.42459677172496774, 0.0058686892933096195
-0.09024294850369585, 0.42294479726501294, 0.02997479876947524
-0.09441386325551573, 0.4234702417478763, 0.02198011266505923
-0.08669233031699342, 0.42248134890662303, 0.03701236915990448
-0.08072989513576785, 0.4235194311132905, 0.022751254458513823
-0.09149976027691517, 0.42363322104859313, 0.019954669220315985
-0.09062544629869287, 0.4227736248055713, 0.032391207958857623
-0.06367242747347328, 0.4226407213228024, 0.059135915348812185
-0.03644564829683283, 0.42459057248202703, 0.06451099544685258
-0.054813848569131164, 0.42346340817178124, 0.0715460802457761
-0.05512034181218903, 0.4232813178176974, 0.062417538133429075
-0.053996807535943936, 0.423321932232986, 0.060382952582929666
-0.03681208935957509, 0.42472871154021147, 0.07374683745095732
-0.056341540884872504, 0.42306289429907545, 0.054760386562450664
-0.047036403783782044, 0.42375180989201666, 0.057872960502055884
-0.059538968424536556, 0.4230755178565947, 0.06781029970644528
-0.06134477850460707, 0.42261751221399474, 0.048842040189883446
-0.05630847299886411, 0.42336486212619, 0.07173186341754927
-0.05505040415570412, 0.4281636270612939, 0.12136955875041039
-0.05988054949217331, 0.42500525156867297, 0.09639950480469275
-0.06396592701746448, 0.4227628230120436, 0.06642754277128715
-0.08683293138924662, 0.42212949437042724, 0.04968767213220841
-0.08588733963020019, 0.42210185141281054, 0.04810746378952345
-0.07267042432910738, 0.4222009340272427, 0.04651305976957394
-0.06591066086089822, 0.4228787466054933, 0.07217107758403146
-0.03697304556017692, 0.521301963930345, -0.22744333068151146
-0.017809801318056956, 0.5192147560105732, -0.22738152133838482
-0.02572907281787354, 0.5199031911510164, -0.2273691692397817
-0.027830604909824943, 0.5178731407565316, -0.22688428939759508
-0.022211132066559537, 0.5165941069618615, -0.22672099717315813
-0.062460821439082374, 0.5486609325638625, -0.23186866551775256
-0.04414425515291293, 0.5498711659193747, -0.2325492979712202
-0.06020216274920697, 0.5436363693148412, -0.2311839761476295
-0.0551231040840005, 0.5538101036312737, -0.2328342657363905
-0.05818597757779845, 0.5424108415478834, -0.2310570414210918
-0.04989485340695129, 0.5277874560304046, -0.22851451798559952
-0.04689969104379252, 0.528790262319492, -0.2288357184152443
-0.06998361541862501, 0.5304929165797644, -0.22841057288775035
-0.060861604858117736, 0.5242368064026427, -0.22736477644694764
-0.06303230181750104, 0.5096818229417207, -0.22297172715697947
-0.07823872494680303, 0.5094646080132184, -0.22214928161710243
-0.0704401182952498, 0.5042794560757771, -0.22069117548129105
-0.07928897475039054, 0.5053053027970686, -0.22062154702462297
-0.07218213849274185, 0.5151075676904608, -0.22444899539187274
-0.07651257311927626, 0.5145577940855243, -0.22404160682240626
-0.0477717932118503, 0.5911744683163986, -0.2374635034560184
-0.0704714193834132, 0.6098115436953389, -0.23924156787306478
-0.0644333549558361, 0.610135318923871, -0.2393416037023749
-0.0611311495310308, 0.6015841169213882, -0.23844931667284802
-0.05241645625064266, 0.592058530136453, -0.23750949355865458
-0.047464123970891337, 0.5978825927626765, -0.23819462591609486
-0.029177769556740778, 0.5646206722414941, -0.2346148412906619
-0.04124613817618275, 0.5600079355512566, -0.23397142633167384
-0.030210743536208746, 0.5720491664838794, -0.23547376116599777
-0.024392648750834352, 0.5574813695226504, -0.23382220112797608
-0.0193247355474605, 0.5584745751369878, -0.23398212485161307
-0.023725971538904534, 0.5580174183685733, -0.2338906007565386
-0.02059862944061723, 0.542090118160332, -0.23179908069031063
-0.02711950006872112, 0.5431078362082793, -0.2318386514463008
-0.04191995310178635, 0.543387306813744, -0.23162588251022806
-0.04222447770996433, 0.5535558037993751, -0.23313598397691151
-0.05571504986604333, 0.5683765064037661, -0.2347154108971257
-0.05698536880773656, 0.5661664270708043, -0.23443680310055506
-0.05364724319293594, 0.5710709203946731, -0.23506387745770374
-0.05513233208242385, 0.5733734659054359, -0.23530651694704535
-0.058694862937892375, 0.5719655523807929, -0.23508234449188464
-0.05637705376184103, 0.5674250245214424, -0.23459351297895303
-0.008080374337538191, 0.6175072988481792, -0.2405384137753799
-0.01103506470043453, 0.6184324852782092, -0.24066833601399362
-0.03073113845010801, 0.6242411454528181, -0.24148533271530534
-0.03823854069757425, 0.6331362183908775, -0.24271078295618537
-0.03535411344051912, 0.6379049419156215, -0.24335993270997908
-0.03605746777720428, 0.6184173342087691, -0.24069460018728311
-0.01197688004016028, 0.6165438884489481, -0.24041102080255955
-0.046160338783732636, 0.6686367887410571, -0.24840741786367135
-0.05157863180927528, 0.67632633709875, -0.24968763525308812
-0.0611629032449572, 0.6739618922633208, -0.2490955578084889
-0.037215856989062254, 0.670009035148047, -0.24881069116575516
-0.04725850404737331, 0.6549035752723985, -0.24593096046282714
-0.04892955232359472, 0.6687799114775581, -0.24838418325431638
-0.04094108283146261, 0.5859703018473758, -0.236967309167273
-0.022669065007336613, 0.5927152570636701, -0.2377514869441927
-0.014148406769415872, 0.5819886137825847, -0.23660512376968948
-0.027665082307745226, 0.5942024291457394, -0.23790019663843284
-0.037209091635493026, 0.6080726377844696, -0.23938646497929575
-0.03236202455519164, 0.604796783437918, -0.23904238985422321
-0.05452106660243408, 0.6399223065836596, -0.24345155649474592
-0.05965659971217501, 0.6295182187138115, -0.24197516972988015
-0.047368379154359555, 0.6196685165954673, -0.24077808195878247
-0.04401141864416005, 0.6296101216579759, -0.24217070441705765
-0.05907120223698837, 0.6424302579303431, -0.2437397346601502
-0.047707529965431504, 0.62816973805332, -0.24193138623640126
-0.04467659530211886, 0.6360549341625044, -0.24304025562766216
-0.046566102489589076, 0.7381719572711439, -0.26367993054099803
-0.043073638775315976, 0.7358416293708088, -0.2631969554750847
-0.037197252931770126, 0.7262303434853045, -0.2610446704198122
-0.04253993764183398, 0.7366659345630053, -0.2634010481132755
-0.0567694148073682, 0.7399749674668183, -0.26391263087107397
-0.043131301736980696, 0.7261806173866023, -0.2609214325087812
-0.04283342539079556, 0.7358037819180883, -0.2631925600961271
-0.021647776744611658, 0.6846292925577213, -0.25182155756674895
-0.030208354351759364, 0.6795403646317166, -0.25063068973835523
-0.019339424851499882, 0.6970675058490609, -0.25458671110791514
-0.029102916735936082, 0.6884217114479095, -0.25260086853701647
-0.018212944884545154, 0.6963902588800231, -0.254445940890887
-0.00594637643478187, 0.736992042057997, -0.2638745689338755
-0.008305091289721496, 0.7125344495123399, -0.2581711510443709
-0.000193911350493534, 0.7341410133619841, -0.26326661690271214
-0.009918837625294162, 0.7255601056442965, -0.2611815931821833
-0.005138575376497402, 0.7257087758035604, -0.26126125140231515
-0.05294087224098528, 0.7059941405510033, -0.25591565068952526
-0.04211035146954945, 0.6905165381074082, -0.252803792207248
-0.034498866242084356, 0.6925908565904957, -0.2534289307342804
-0.0333845136440231, 0.7023876724314684, -0.2555816189397614
-0.03707148732534728, 0.6912220153855058, -0.2530726583680484
-0.035058168026018445, 0.703713338547949, -0.25583102315159867
-0.027560910134112097, 0.6455868162473983, -0.2444174082582775
-0.033433338056870834, 0.6519068767273104, -0.2455647072245832
-0.027607876377543986, 0.6629034697835489, -0.24754979208927583
-0.02115496746660806, 0.6494409613655516, -0.24511011601239602
