-0.006323667062491795, 0.43087005615234375, -0.08293985719389523
-0.044827646296044237, 0.43087005615234375, -0.19003711841702023
-0.054600576679945875, 0.43087005615234375, -0.08273659066054151
-0.14015741115494026, 0.43087005615234375, -0.20695834990364492
-0.03275201680774893, 0.43087005615234375, -0.10403448883404376
-0.04837957129056196, 0.43087005615234375, -0.14707886545345059
-0.1163790829020632, 0.43087005615234375, -0.20078684157105237
-0.1191123472447651, 0.43087005615234375, -0.1291371815039478
-0.01779783146139786, 0.43087005615234375, -0.0953249293791899
-0.05683067656560074, 0.43087005615234375, -0.066543325864758
-0.02199537582227015, 0.43087005615234375, -0.16002248351309784
-0.010884199746598341, 0.43087005615234375, -0.026815794707929837
-0.1328962391444208, 0.43087005615234375, -0.20052802865777766
-0.06234580217736757, 0.4308700561523438, -0.08927407650416029
-0.12390085223408863, 0.43087005615234375, -0.1905746549967495
-0.02388487241689007, 0.43087005615234375, -0.05536017124129231
-0.08616118184472436, 0.43087005615234375, -0.19159803220376545
-0.0001013838967902204, 0.43087005615234375, -0.005831956123372029
-0.08218250693790254, 0.43087005615234375, -0.15118091049774462
-0.07142529357575286, 0.4308700561523437, -0.09674311039163737
-0.05872334211969193, 0.43087005615234375, -0.1841497003028271
-0.014656613593134879, 0.4308700561523437, -0.08042046837371492
-0.017865394218172837, 0.43087005615234375, -0.099679044865858
-0.10106067370175528, 0.43087005615234375, -0.108727034615098
0.0007717368799496184, 0.43087005615234375, -0.04619554842857867
-0.11886703759113845, 0.43087005615234375, -0.1803862700887798
-0.06251958731923757, 0.43087005615234375, -0.1298942710504289
-0.01965206383182173, 0.43087005615234375, -0.155667889652061
-0.10218545180596911, 0.43087005615234375, -0.17230700270567104
-0.0482065651720255, 0.43087005615234375, -0.07122056560330074
-0.04755766063831639, 0.43087005615234375, -0.14606419143527616
-0.18196702696817654, 0.43087005615234375, -0.19966333536913697
-0.1677534718643138, 0.43087005615234375, -0.19635886402869168
-0.07729458795570725, 0.43087005615234375, -0.2036280426590417
-0.00650526564909025, 0.43087005615234375, -0.12035403381874575
-0.012470795769972091, 0.43087005615234375, -0.17349921004897367
-0.15430452633209057, 0.43087005615234375, -0.1632454692553729
-0.0007878358961850246, 0.43087005615234375, -0.18515462425542875
-0.04011934130438017, 0.43087005615234375, -0.11047909037386283
-0.15544933680143652, 0.43087005615234375, -0.19631558852001807
-0.05740101176443898, 0.43087005615234375, -0.12573174111598187
-0.11759320520306372, 0.4308700561523437, -0.18012358300382847
-0.08816319080880432, 0.4308700561523437, -0.10378021045713706
-0.10691970711297913, 0.43087005615234375, -0.15252256213734966
-0.0007578588700141669, 0.43087005615234375, -0.0827849596632266
-0.06252637773762167, 0.4308700561523437, -0.09954688981601348
-0.0551909886942832, 0.4308700561523437, -0.18255332678347802
-0.11207313588981538, 0.43087005615234375, -0.18299700118402645
-0.005750585197329879, 0.4308700561523438, -0.1810705150722515
-0.04926761039619859, 0.4308700561523437, -0.0803759557431951
-0.05036502693533956, 0.43087005615234375, -0.060374617203247896
-0.07744206810198079, 0.43087005615234375, -0.15001363953871105
-0.05097100717834731, 0.4308700561523437, -0.06423049840356612
-0.01821636245174157, 0.43087005615234375, -0.19119652929347397
-0.15570240940872768, 0.43087005615234375, -0.18836353902522793
-0.06672385657748105, 0.43087005615234375, -0.17635687929332342
-0.15378688760632164, 0.43087005615234375, -0.20787898013868353
-0.032980068309305395, 0.43087005615234375, -0.07454934350547057
-0.03425724595659573, 0.43087005615234375, -0.11064870549176509
-0.12021084781478766, 0.43087005615234375, -0.1945303747505763
-0.025546922087276748, 0.43087005615234375, -0.15568993893935046
-0.06118688256741561, 0.43087005615234375, -0.12542679792903713
-0.08366486168358868, 0.43087005615234375, -0.16997629729998295
-0.07800408370445541, 0.43087005615234375, -0.14834320718176575
-0.009773310230173997, 0.43087005615234375, -0.13704214398924647
-0.02400673793820047, 0.43087005615234375, -0.11250003623210185
-0.15836793407026417, 0.43087005615234375, -0.16434494010840422
-0.010398352015091764, 0.43087005615234375, -0.02489845992382498
-0.10313264653858684, 0.4308700561523437, -0.1915633128239888
-0.06043587670896584, 0.43087005615234375, -0.1811284579578853
-0.08487120868155716, 0.43087005615234375, -0.15727391807431954
0.08530777487749111, 0.4308700561523438, 0.11290941289316421
0.029213774262048398, 0.4308700561523438, 0.028011731420450228
0.008970120450690717, 0.43087005615234375, 0.09311418950119978
0.10857500322491911, 0.43087005615234375, 0.15248563883853453
0.04293412248746058, 0.43087005615234375, 0.18670654598614955
0.056554338137016776, 0.43087005615234375, 0.16040362456711513
0.12946267024737607, 0.4308700561523437, 0.1415696167805363
0.1302632610040722, 0.43087005615234375, 0.1512222832789262
0.04645080062359461, 0.43087005615234375, 0.1451096883737581
0.06556871125505079, 0.4308700561523437, 0.08258379149028322
0.1385495559710985, 0.43087005615234375, 0.16140446647328469
0.054937101002211795, 0.43087005615234375, 0.17449757233599
0.15830608516328779, 0.4308700561523437, 0.15551489713717112
0.14098433655334822, 0.43087005615234375, 0.14629265783523138
0.022078173165026357, 0.43087005615234375, 0.14994777770869439
0.04648687261363148, 0.4308700561523437, 0.07794523220499247
0.023946698666581456, 0.43087005615234375, 0.12924252344420512
0.006286681339616631, 0.43087005615234375, 0.07358028892966235
0.009597863875459618, 0.43087005615234375, 0.11107917899284137
0.12406056621307195, 0.43087005615234375, 0.14807139330027763
0.03178381519788578, 0.43087005615234375, 0.0743175390550101
0.060376960252412015, 0.4308700561523438, 0.06372315489310454
0.014381504654006417, 0.43087005615234375, 0.08427525898193448
0.10876123206897008, 0.43087005615234375, 0.1592800130613881
0.02767475123951204, 0.43087005615234375, 0.11758987747266243
0.16257310228378966, 0.4308700561523438, 0.16273213920002927
0.04492303778092849, 0.43087005615234375, 0.09403874326769872
0.1488154994859918, 0.4308700561523438, 0.20141968301417174
0.08600612304943683, 0.43087005615234375, 0.11135023107890009
0.021657458196627802, 0.43087005615234375, 0.10745063900302354
0.044561931030188524, 0.43087005615234375, 0.05155166013482162
0.006695124764688362, 0.43087005615234375, 0.047355604842430815
0.022210536699895034, 0.43087005615234375, 0.11806374947989856
0.06432272598984698, 0.43087005615234375, 0.1297377336966483
0.1314157325771804, 0.43087005615234375, 0.15019247908819888
0.05328554664219449, 0.4308700561523438, 0.06507850950639477
0.08707533803840832, 0.43087005615234375, 0.1248946119221529
0.06448133978121975, 0.43087005615234375, 0.19437390449331038
0.02625880175116113, 0.43087005615234375, 0.06881738545311197
0.0957283314115583, 0.4308700561523438, 0.1411757173110194
0.10525167468682417, 0.43087005615234375, 0.18651320607599087
0.04169715311114347, 0.43087005615234375, 0.14231689540115602
0.1108008779987692, 0.43087005615234375, 0.11790608386172349
0.14761215826821814, 0.43087005615234364, 0.20052379055952904
0.017510543035584022, 0.43087005615234375, 0.09335351736135555
0.10384398403653261, 0.43087005615234375, 0.17234524140967272
0.08344306352475803, 0.43087005615234375, 0.1348739822345379
0.06403349148185107, 0.43087005615234375, 0.10148901780930517
0.08992426072790206, 0.43087005615234375, 0.13673082706519157
0.01702045112975582, 0.43087005615234375, 0.05863445830152415
0.017749947910336634, 0.43087005615234375, 0.13846659995913857
0.03402957949916585, 0.4308700561523437, 0.043568598543708995
0.01552174974826326, 0.43087005615234375, 0.09784058681297442
0.17472515865410354, 0.43087005615234375, 0.1828479892852368
0.07163239353916112, 0.43087005615234375, 0.07940068518688262
0.04248566815190474, 0.43087005615234375, 0.11583614969238051
0.005646152231075916, 0.43087005615234375, 0.11514537226126516
0.046252896669899256, 0.43087005615234375, 0.10433439312251556
0.03705014648346608, 0.43087005615234375, 0.1028047714032106
0.04982158684704893, 0.43087005615234375, 0.0793283157427272
0.06371017561702576, 0.4308700561523437, 0.12068389690330636
0.024797190761312607, 0.43087005615234375, 0.09543158335914201
0.02946538449636569, 0.43087005615234375, 0.13486687734736905
0.0960653922996616, 0.43087005615234375, 0.2027195942386113
0.09376961534505363, 0.43087005615234375, 0.1738131306852363
0.01685882433426869, 0.43087005615234375, 0.11991036001803446
0.10544895491661241, 0.43087005615234375, 0.1936201362431798
0.05159733570989652, 0.43087005615234375, 0.11000991245937278
0.05756242846161688, 0.43087005615234375, 0.16200035942325777
0.1163238210738264, 0.43087005615234375, 0.14455653410902697
0.06647273062143882, 0.43087005615234375, 0.1952039953258583
0.010218315549634954, 0.43087005615234375, 0.171767077848623
0.08870241878101849, 0.43087005615234375, 0.1398175480121279
0.06150528176853689, 0.4308700561523437, 0.06203427845846904
0.04612613482754301, 0.43087005615234375, 0.0953327716208755
0.0037350765372281994, 0.43087005615234375, 0.14386928662267284
-0.015998579194548564, 0.43087005615234375, 0.19784145197068298
-0.17558425436969108, 0.43087005615234375, 0.11023768861362813
-0.182340878995648, 0.4308700561523438, 0.031243539943073037
-0.0732905354915043, 0.4308700561523438, 0.1586685876009784
-0.15129985764059134, 0.4308700561523437, 0.15909395931196618
-0.06068020645708978, 0.43087005615234375, 0.18527088573168377
-0.13472220482523978, 0.43087005615234375, 0.12080335905961663
-0.15849815708487228, 0.43087005615234375, 0.190128688632774
-0.17201134004480387, 0.43087005615234375, 0.17897908272147178
-0.13660963525972997, 0.43087005615234375, 0.12703336685165378
-0.19569042572377132, 0.43087005615234375, 0.03311863903391937
-0.19776637478448822, 0.43087005615234375, 0.18081921139611867
-0.19842591474136728, 0.43087005615234375, 0.08135897081219556
-0.18114944079163392, 0.4308700561523437, 0.05447403587096906
-0.1530275266539278, 0.4308700561523438, 0.04882049375464299
-0.17663110106546523, 0.43087005615234375, 0.1819787146975096
-0.16600505762145346, 0.43087005615234375, 0.12834467460864235
-0.13273442170706787, 0.4308700561523437, 0.08203138029907125
-0.1870484759894414, 0.43087005615234375, 0.09959988695121232
-0.1930114141148525, 0.43087005615234375, 0.1114486117389626
-0.1632919378630354, 0.43087005615234375, 0.06076671138457494
-0.1983245959628413, 0.43087005615234375, 0.07081691310854021
-0.11349629109312201, 0.43087005615234375, 0.09300565547025053
-0.14929002186875184, 0.43087005615234375, 0.1575762885036537
-0.18716231431182093, 0.43087005615234375, 0.1866159396917842
-0.053887160408701916, 0.43087005615234375, 0.1645945337988035
-0.11020055919978175, 0.43087005615234375, 0.11967489549096183
-0.0910426535848123, 0.43087005615234375, 0.15830681659685555
-0.04990329983949818, 0.43087005615234375, 0.2022030020086847
-0.04995983093910602, 0.43087005615234375, 0.19364635314111445
-0.1891807827731743, 0.43087005615234375, 0.14152763113379818
-0.18457975491954776, 0.43087005615234375, 0.016296101015177356
-0.143030324512611, 0.43087005615234375, 0.13505823817638837
-0.19637882419467712, 0.43087005615234375, 0.11667932288612783
-0.06951472932140508, 0.43087005615234375, 0.17311744255315362
-0.15505524691957479, 0.4308700561523437, 0.056669512261346394
-0.1833518837768527, 0.43087005615234375, 0.15712250295281638
-0.14150325468265273, 0.4308700561523438, 0.1877952737963868
-0.18544996831979763, 0.43087005615234375, 0.07927053380305658
-0.18620449000477146, 0.43087005615234375, 0.10768586735283829
-0.12243157632850991, 0.43087005615234375, 0.10541759511804857
-0.046401890148484524, 0.4308700561523437, 0.16215878562688127
-0.06842736329955913, 0.43087005615234375, 0.17046954403026593
-0.18019965552244793, 0.43087005615234375, 0.08011829880156923
-0.11982853464384749, 0.43087005615234375, 0.17118384655538438
-0.07684376803336385, 0.43087005615234375, 0.1646041550189764
-0.18657328827611408, 0.43087005615234375, 0.08732674261693109
-0.17674144082788346, 0.43087005615234375, 0.20177195645940757
-0.1659590625623654, 0.43087005615234375, 0.05329417405448406
-0.1421704576167867, 0.4308700561523437, 0.17744837311522207
-0.11472314564506118, 0.43087005615234375, 0.09167842397819054
-0.09327209994699606, 0.4308700561523438, 0.19020126243916435
-0.061378219631236616, 0.43087005615234375, 0.19266383002029183
-0.14815907441762355, 0.43087005615234375, 0.1230105420713904
-0.014170204503993724, 0.43087005615234375, 0.19558432855427627
-0.10158634634622835, 0.4308700561523437, 0.10166271355315121
-0.17285071648992745, 0.43087005615234375, 0.0446852431978392
-0.19106644882745613, 0.43087005615234375, 0.0447783355033276
-0.09893833048216347, 0.43087005615234375, 0.1375983915813458
-0.19660871011159808, 0.43087005615234375, 0.10182424879692585
-0.11077549226186814, 0.43087005615234375, 0.16641331620886787
-0.14631532360026797, 0.43087005615234375, 0.17279606323446683
-0.1669603269566762, 0.4308700561523437, 0.048382748549780946
-0.0820297824875595, 0.43087005615234375, 0.17802046878981614
-0.14124681558593574, 0.43087005615234375, 0.07232102679968377
-0.1382015385392127, 0.43087005615234375, 0.12457004504113706
-0.07169363161506952, 0.43087005615234375, 0.13609815125559635
-0.16438068190340016, 0.43087005615234375, 0.07918455461993866
-0.046196184016606245, 0.43087005615234375, 0.18785450169376688
-0.045713564877463225, 0.43087005615234375, 0.1564868073426005
-0.17552458353434564, 0.43087005615234375, 0.13092345639655
-0.02930078314029321, 0.43087005615234375, 0.17286704191779814
-0.1993316780889299, 0.43087005615234375, 0.15836916052076647
-0.03460507751261598, 0.4308700561523438, 0.17621319442301456
-0.08163944613553986, 0.43087005615234375, 0.16768390165325292
-0.1765283147173456, 0.43087005615234375, 0.13446758706185294
-0.1713410718684107, 0.43087005615234375, 0.04812926663770966
-0.26824291751702223, 0.43087005615234375, -0.12518722469785867
-0.2336938680933321, 0.43087005615234375, -0.17643106994755894
-0.20414835797681835, 0.43087005615234375, -0.12909251728842197
-0.2694807142650276, 0.43087005615234375, -0.0757887763178263
-0.33624067311655886, 0.43087005615234375, -0.1850934656931038
-0.24736915832420328, 0.43087005615234375, -0.19767366355980592
-0.2539631894482205, 0.43087005615234375, -0.0934748919769401
-0.25559718614541427, 0.43087005615234375, -0.1994114365427555
-0.31492388272966015, 0.43087005615234375, -0.19181031142678445
-0.2770072769217343, 0.43087005615234375, -0.1702263489732682
-0.33297042167705493, 0.43087005615234375, -0.1610590156930201
-0.2729224595964129, 0.43087005615234375, -0.14171603646072461
-0.26645711935390565, 0.43087005615234375, -0.07804673982490015
-0.220602111720502, 0.43087005615234375, -0.06964067697718279
-0.23685911087231526, 0.43087005615234375, -0.1483021906796914
-0.2525987385265545, 0.4308700561523438, -0.09572881518853552
-0.25798079170161126, 0.43087005615234375, -0.1427565553062519
-0.275998730758962, 0.4308700561523438, -0.08288173255060566
-0.2870874714808832, 0.43087005615234375, -0.17752201968778525
-0.22288105795086144, 0.43087005615234375, -0.11671929262586378
-0.26367024376383064, 0.43087005615234375, -0.20835912859126696
-0.2442365198754365, 0.43087005615234375, -0.13211401478790735
-0.24672543178648865, 0.43087005615234375, -0.13342103010707107
-0.2996522755585342, 0.43087005615234375, -0.15252650443972227
-0.27448343838975137, 0.43087005615234375, -0.1306314893326191
-0.29482937511637736, 0.43087005615234375, -0.1668905201390411
-0.31851394328636845, 0.43087005615234375, -0.20654993139841282
-0.32895820031042966, 0.43087005615234375, -0.19296170267997717
-0.27522479690647145, 0.43087005615234375, -0.18463220359502747
-0.31621147169061914, 0.43087005615234375, -0.13519763592946965
-0.24297184270127464, 0.43087005615234375, -0.13171210499741787
-0.29890694688786573, 0.43087005615234375, -0.18221497514824664
-0.2814478542715743, 0.43087005615234375, -0.11311601247388174
-0.24009443290557766, 0.43087005615234375, -0.10273983651406007
-0.2570643891338145, 0.43087005615234375, -0.16959242825563176
-0.20519425258166918, 0.43087005615234375, -0.13543255536129054
-0.2585861781665167, 0.4308700561523437, -0.11875291397758592
-0.23582402509620692, 0.43087005615234375, -0.12204460941247024
-0.21535608494522615, 0.43087005615234375, -0.07484239101290885
-0.24147903890143774, 0.43087005615234375, -0.13430582201583535
-0.2252241848485215, 0.43087005615234375, -0.04268900723439667
-0.2839172031493109, 0.43087005615234375, -0.16639583651169082
-0.3153292749623625, 0.43087005615234375, -0.18246509514967557
-0.2649695118100574, 0.43087005615234375, -0.07829286954496652
-0.2912808528381566, 0.43087005615234375, -0.0948681081875735
-0.23970825427922432, 0.43087005615234375, -0.13307885282496526
-0.2932869890107043, 0.43087005615234375, -0.143434888545843
-0.24240742283430441, 0.43087005615234375, -0.16362842354417761
-0.31565068064394974, 0.43087005615234375, -0.1838880942128475
-0.21088981058917824, 0.43087005615234375, -0.06766732029820041
-0.23242179905774965, 0.43087005615234375, -0.043601996181656714
-0.3640461977210166, 0.43087005615234375, -0.1877687067542509
-0.2843212950609883, 0.43087005615234375, -0.16282031831304639
-0.31985071447453206, 0.43087005615234375, -0.14156904548485005
-0.20996034904693112, 0.43087005615234375, -0.20087139990103633
-0.34924707180020687, 0.4308700561523437, -0.16463413524809964
-0.252321725203549, 0.43087005615234375, -0.07822470974909385
-0.2514486210924606, 0.43087005615234375, -0.19514109982092137
-0.25055439822088155, 0.43087005615234375, -0.127892033560557
-0.3157555610702377, 0.43087005615234375, -0.15330487596525733
-0.24489412201109548, 0.43087005615234375, -0.10383340674735811
-0.24914570611216047, 0.43087005615234375, -0.12960811959638802
-0.2764491973786616, 0.43087005615234375, -0.18109813245307382
-0.34841615797482556, 0.43087005615234375, -0.19637227903104196
-0.2589389897000361, 0.43087005615234375, -0.1782092508869275
-0.3211347286247264, 0.43087005615234375, -0.1877143406623067
-0.32335958408997645, 0.43087005615234375, -0.17507032418299678
-0.21783528115250306, 0.43087005615234375, -0.1889244351698363
-0.21137876360477517, 0.43087005615234375, -0.11746894447178056
-0.2529625169721836, 0.43087005615234375, -0.09971526962488864
-0.2057961426737259, 0.4308700561523438, -0.15908582730078294
-0.2539361452172066, 0.43087005615234375, -0.18128974355425806
-0.31390770495154735, 0.43087005615234375, -0.19987582418038657
-0.22408668370746349, 0.43087005615234375, -0.12140919024393794
-0.28698602574410326, 0.43087005615234375, -0.10689349411545493
-0.27288826006474415, 0.43087005615234375, -0.11039357352413354
-0.027042510908409003, 0.43087005615234375, 0.033953505907910936
-0.04008489489114114, 0.43087005615234375, 0.025220860065068545
-0.10101214304407524, 0.4308700561523438, 0.07603509933993004
-0.03549865754062964, 0.43087005615234375, 0.02424052162676183
-0.04583730057027508, 0.43087005615234375, 0.03299761480807003
-0.11532625630469814, 0.43087005615234375, 0.06719436985760202
-0.022586742060260588, 0.43087005615234375, 0.11631403172750227
-0.079441631299697, 0.43087005615234375, 0.08938053296785745
-0.11756621988739753, 0.43087005615234375, 0.014568135217251962
-0.07644336078310138, 0.43087005615234375, 0.08100580614374042
-0.08207139212822408, 0.43087005615234375, 0.024933495162079027
-0.17772993057200817, 0.4308700561523437, 0.011872739770975001
-0.1290193666942508, 0.43087005615234375, 0.02278462685003655
-0.14713989502506447, 0.43087005615234375, 0.007340132132721535
-0.10151637760341434, 0.4308700561523438, 0.0673699177663907
-0.058636274411260285, 0.43087005615234375, 0.03707143354749315
-0.03645585216768198, 0.43087005615234375, 0.02012604968537943
-0.014505232550313328, 0.43087005615234375, 0.15421723908426374
0.0005912074479279745, 0.4308700561523437, 0.14866366928013466
-0.10661073390210155, 0.43087005615234375, 0.07923239514383186
-0.11484338411586245, 0.43087005615234375, 0.0632030378167662
-0.16216048104620157, 0.43087005615234375, 0.006489437465287173
-0.07164703584048235, 0.43087005615234375, 0.004949695590009124
-0.14936002420432917, 0.43087005615234375, 0.01115664684050562
-0.11344308965951796, 0.43087005615234375, 0.054038639861801366
-0.0245292262214124, 0.43087005615234375, 0.17597524356165553
-0.0029281954099435476, 0.43087005615234375, 0.02591770649263844
-0.12834358767181317, 0.4308700561523438, 0.05874313367812801
-0.08508053717403881, 0.43087005615234375, 0.09123669845181817
-0.14701206615454698, 0.43087005615234375, 0.01775301456003103
-0.07999628973989399, 0.43087005615234375, 0.048756780256528805
-0.19214437141998708, 0.43087005615234375, 0.006479301339887116
-0.10747116295332969, 0.43087005615234375, 0.026856349899427687
-0.09939976453679128, 0.43087005615234375, 0.089231594008683
-0.1446746094940199, 0.43087005615234375, 0.00994553307263855
-0.086903385797897, 0.43087005615234375, 0.04642754198076435
-0.06477766552005512, 0.43087005615234375, 0.07727525798872922
-0.11322969571050012, 0.43087005615234375, 0.010121702891958784
-0.19488971307719033, 0.4308700561523438, -0.0005415744219419327
-0.010133819473284057, 0.43087005615234375, 0.14291307517089863
-0.12289030608966156, 0.4308700561523438, 0.05399754748487732
-0.0611896179188702, 0.43087005615234375, 0.004098872023377593
-0.1452206646530794, 0.43087005615234375, 0.008601779531216405
-0.06335553829632112, 0.43087005615234375, 0.07291352716085912
-0.09314305898735831, 0.43087005615234375, 0.09162788162189427
-0.041155085331348984, 0.43087005615234375, 0.05446073094446162
-0.045084940670478475, 0.43087005615234375, 0.04178379336946608
-0.07082856089909269, 0.43087005615234375, 0.04450013465428728
-0.008928871974223008, 0.43087005615234375, 0.1478325302006641
-0.027703500356679726, 0.43087005615234375, 0.15033399313524617
-0.06325913838124109, 0.43087005615234375, 0.011657221281740114
-0.006033677466059461, 0.4308700561523438, 0.15933109785846397
-0.06037389236671897, 0.43087005615234375, 0.03158330534712411
-0.03551463634468032, 0.43087005615234375, 0.04141386695546797
-0.047161534306186, 0.43087005615234375, 0.042334547176952224
-0.009284735492566577, 0.43087005615234375, 0.11547896245941824
-0.15961240725152814, 0.4308700561523437, 0.010252795082715397
-0.0167333058687167, 0.43087005615234375, 0.16213800481641916
-0.001221759089606426, 0.43087005615234375, 0.06901074350369538
-0.057868521059713796, 0.43087005615234375, 0.055025711838928154
-0.194046156964667, 0.4308700561523438, 0.004350676650075949
-0.1269307985317327, 0.43087005615234375, 0.006553557020605167
-0.13293290396709811, 0.43087005615234375, 0.025113757966474193
-0.01901214900397998, 0.43087005615234375, 0.010733841979153677
-0.048052376457712265, 0.43087005615234375, 0.1040146527552843
-0.07359443150012586, 0.43087005615234375, 0.017716868134996
-0.06259530942131539, 0.4308700561523437, 0.10514314775726724
-0.005238144434810705, 0.43087005615234375, 0.1771790349123195
-0.07558936818364534, 0.43087005615234375, 0.06693589961080476
-0.08917524712790441, 0.43087005615234375, 0.051068888972638136
-0.029380788770050244, 0.43087005615234375, 0.05462913282982782
-0.11917449394875641, 0.43087005615234375, 0.07868813852030708
-0.03794214916998369, 0.4308700561523437, 0.01963264060647484
-0.038957031818481494, 0.43087005615234375, 0.055223496980199016
-0.09525867929615946, 0.43087005615234375, 0.05822702232543562
-0.034166066924958244, 0.43087005615234375, 0.053482458310206836
0.11315028944093058, 0.4308700561523437, 0.3384773641273536
0.0033994085525169016, 0.43087005615234375, 0.2720402114427226
0.00205470639911084, 0.43087005615234375, 0.24894988817490438
0.09133589976894137, 0.43087005615234375, 0.33436493940847845
0.09670961294991039, 0.43087005615234375, 0.3579905480555443
0.08353345000222093, 0.4308700561523438, 0.348644199620603
0.09834186361750208, 0.43087005615234375, 0.36400959788978815
0.034348045962140646, 0.43087005615234375, 0.4067244821583799
0.12981134121894966, 0.43087005615234375, 0.3719357269850794
0.009072851179681284, 0.43087005615234375, 0.3608366411641839
0.0875685801514488, 0.43087005615234375, 0.39828012978426464
0.02319776862706318, 0.43087005615234375, 0.39403627031333754
0.09615823793099987, 0.43087005615234375, 0.3914172170359401
0.11350212654594986, 0.4308700561523438, 0.37926468684291637
0.019889401106290044, 0.43087005615234375, 0.40391372562236477
0.06183961249280471, 0.4308700561523437, 0.283864958016544
0.09032122381699655, 0.43087005615234375, 0.318235084954097
0.03484917955274834, 0.43087005615234375, 0.3108277797364517
0.015295727554635775, 0.43087005615234375, 0.33212609432630186
0.11251733834762924, 0.4308700561523437, 0.3295858705894203
0.016948993797875067, 0.43087005615234375, 0.23434514121277342
0.018941840090560203, 0.43087005615234375, 0.2799077128161288
0.17417828560793447, 0.43087005615234375, 0.3781841310621627
0.06295375560136282, 0.43087005615234375, 0.2731932283547742
0.02312845388852943, 0.43087005615234375, 0.3519757336440801
0.08207189633360394, 0.43087005615234375, 0.36702708550958707
0.02840428813106836, 0.43087005615234375, 0.36486420329471464
0.01668309170909964, 0.43087005615234375, 0.36705445608516474
0.03954095967754501, 0.43087005615234375, 0.40259266600916
0.11007909396389196, 0.43087005615234375, 0.3958767287894531
0.04537014515300327, 0.43087005615234375, 0.30670097591728773
0.08681618348933244, 0.43087005615234375, 0.323712130599513
0.16470952734817282, 0.4308700561523437, 0.36982089913542754
0.004952172632871719, 0.43087005615234375, 0.2619936747079669
0.01850771133853052, 0.4308700561523437, 0.2945926821703259
0.0027042292784256418, 0.43087005615234375, 0.24797479127867783
0.050936962244847936, 0.43087005615234375, 0.29709312730577886
0.03643538440134919, 0.43087005615234375, 0.3646886933245021
0.07713202037235714, 0.43087005615234375, 0.37515529076304344
0.05238769211866243, 0.43087005615234375, 0.339879669872939
0.07826958437392807, 0.43087005615234375, 0.30204493414842476
0.05710779220127568, 0.4308700561523437, 0.2939153854400253
0.05797694116457192, 0.43087005615234375, 0.2693465144037594
0.1268981005753626, 0.4308700561523438, 0.3890095662175968
0.04575640635292395, 0.43087005615234375, 0.3722466394380708
0.10681447677059355, 0.4308700561523437, 0.3237360021246075
0.07185490992238118, 0.43087005615234375, 0.37331828906002507
0.13288315974242498, 0.43087005615234375, 0.3526245379719638
0.03207053315452099, 0.43087005615234375, 0.3049454535210396
0.05143899047021937, 0.43087005615234375, 0.30104891245672216
0.13365540944697138, 0.43087005615234375, 0.33810982733964423
0.06398742611752785, 0.43087005615234375, 0.35307340410438437
0.11608679650007048, 0.43087005615234375, 0.3416529385576156
0.10424610155940357, 0.43087005615234375, 0.3099130496531752
0.10284280216897558, 0.4308700561523437, 0.3992958403068253
0.16283385987192425, 0.43087005615234375, 0.39374726914781844
0.14333863526220866, 0.4308700561523437, 0.34638756401663334
0.024242847973332957, 0.43087005615234375, 0.23898251674480375
0.012086868763451998, 0.43087005615234375, 0.37261207188517526
0.1222842950875674, 0.43087005615234375, 0.4068743088902006
0.0417472436356906, 0.43087005615234375, 0.3328015772368961
0.003915693028351323, 0.43087005615234375, 0.2807127252435624
0.022506475132074287, 0.4308700561523437, 0.27810229071443593
0.07885023733779316, 0.4308700561523437, 0.31700874207790347
0.022692410484075717, 0.4308700561523438, 0.2479079300817978
0.06575514820513836, 0.43087005615234375, 0.3697858278066488
0.11611138740570405, 0.43087005615234375, 0.34961463287059613
0.018176139056815192, 0.43087005615234375, 0.3540382193769486
0.04849124080650383, 0.43087005615234375, 0.2687440205913749
0.031283912020572346, 0.43087005615234375, 0.3096342620142948
0.08953586542478788, 0.4308700561523438, 0.2990104180636216
0.03083672430880885, 0.43087005615234375, 0.35049712642264536
0.00398890006223925, 0.43087005615234375, 0.3016493911032402
0.12454146740489674, 0.43087005615234375, 0.37043258254335865
0.05574525500685192, 0.43087005615234375, 0.39565311294521344
0.041207488281115284, 0.43087005615234375, 0.2497900409959487
-0.2605341390012467, 0.43087005615234375, -0.31142477133740365
-0.20691272751318956, 0.4308700561523438, -0.384791347598967
-0.20345768468080455, 0.43087005615234375, -0.40704784772457087
-0.2270846522772477, 0.43087005615234375, -0.3519150404585037
-0.279012380734032, 0.43087005615234375, -0.3455849283362318
-0.22180194721731616, 0.43087005615234375, -0.3299780098684116
-0.325079158289845, 0.43087005615234375, -0.34987612075950897
-0.2574331701578692, 0.43087005615234375, -0.31775105786113644
-0.2034138461301064, 0.43087005615234375, -0.25967707908922066
-0.2544801897609601, 0.4308700561523437, -0.3772576538500166
-0.2815590821719086, 0.43087005615234375, -0.3559539475131983
-0.25800022214654295, 0.43087005615234375, -0.3226121357841489
-0.27687985819177807, 0.43087005615234375, -0.3445460295583365
-0.2833276569303363, 0.43087005615234375, -0.302785411092579
-0.31961855242442855, 0.43087005615234375, -0.36641037925557385
-0.34939732166832527, 0.43087005615234375, -0.40613890829206295
-0.24378812692739593, 0.43087005615234375, -0.35587703222692135
-0.21098342619624405, 0.43087005615234375, -0.31366876421018497
-0.22440407260459355, 0.43087005615234375, -0.37423791053235855
-0.376473870573526, 0.4308700561523438, -0.3963356436749119
-0.20642280171159444, 0.43087005615234375, -0.22573314550504997
-0.23650510520120832, 0.43087005615234375, -0.36900328469848104
-0.32253255487217514, 0.43087005615234375, -0.3841169643678406
-0.30238425611181075, 0.43087005615234375, -0.34138620227247385
-0.212322735273285, 0.43087005615234375, -0.2655689150923581
-0.20714757355084418, 0.43087005615234375, -0.39747552209515497
-0.3548970076129612, 0.43087005615234375, -0.4068225504375964
-0.22636074842492612, 0.43087005615234375, -0.3555376903515161
-0.263387549847481, 0.43087005615234375, -0.28942495957751496
-0.2586203801406973, 0.43087005615234375, -0.34229566613733076
-0.3074282848011031, 0.43087005615234375, -0.39491258719323613
-0.24023795880224827, 0.43087005615234375, -0.3242929463584817
-0.2835685944265287, 0.43087005615234375, -0.3321771424014752
-0.34528254433012145, 0.43087005615234375, -0.3910338673408775
-0.20788915105706096, 0.43087005615234375, -0.3520767090559378
-0.21264483316988816, 0.43087005615234375, -0.37809679841861354
-0.27294994800324623, 0.43087005615234375, -0.40771214426529356
-0.26401767273122057, 0.4308700561523437, -0.3179292294028
-0.2363362714722756, 0.43087005615234375, -0.3819083034224433
-0.3489570622293202, 0.43087005615234375, -0.36233114175587566
-0.2465363018568986, 0.43087005615234375, -0.2557780693303174
-0.22125381170917327, 0.43087005615234375, -0.4094190400090837
-0.33558288980215734, 0.43087005615234375, -0.36357608342964653
-0.302138373860216, 0.4308700561523437, -0.313079177294529
-0.3826948808154148, 0.43087005615234375, -0.4087781858201819
-0.2572579942536665, 0.43087005615234375, -0.39606257911471
-0.2681441607697219, 0.43087005615234375, -0.3837540385134435
-0.29038453074708537, 0.43087005615234375, -0.35712033261264253
-0.3006846289310768, 0.43087005615234375, -0.3899698180629546
-0.32439695791727996, 0.43087005615234375, -0.38120491047224936
-0.2397613482403449, 0.43087005615234375, -0.4088535499342814
-0.3176953600366573, 0.43087005615234375, -0.4001702226576081
-0.269540745913724, 0.43087005615234375, -0.37360135486183044
-0.2527649841423244, 0.43087005615234375, -0.30021028593177124
-0.23430773700348634, 0.43087005615234375, -0.2911376979234046
-0.2364642791830727, 0.43087005615234375, -0.38884142642553926
-0.26866121697174994, 0.4308700561523438, -0.2920642285271262
-0.2900861968606071, 0.43087005615234375, -0.36610517539581894
-0.20360813972793612, 0.43087005615234375, -0.36673155479181846
-0.2777563372791282, 0.43087005615234375, -0.3817685793172602
-0.31036892019782025, 0.43087005615234375, -0.3985741571111739
-0.21204000062537465, 0.43087005615234375, -0.3684277934716812
-0.23733721305340577, 0.43087005615234375, -0.2857690793607188
-0.2706048080135299, 0.43087005615234375, -0.3294669780699634
-0.2196838190856645, 0.43087005615234375, -0.37961366055374685
-0.34555364460856736, 0.43087005615234375, -0.3779067512423521
-0.2922387550156174, 0.43087005615234375, -0.36539070728617407
-0.21505727503625235, 0.43087005615234375, -0.22440512090175949
-0.29851630177199, 0.43087005615234375, -0.34642006759638805
-0.29571497441989564, 0.43087005615234375, -0.3295953121837984
-0.31029569638545995, 0.43087005615234375, -0.37280560135939095
-0.28244120831162883, 0.43087005615234375, -0.3947530800893195
-0.31374389176097534, 0.43087005615234375, -0.4099471872404962
-0.32994500575078795, 0.43087005615234364, -0.3780472853215945
-0.27471092996986574, 0.43087005615234375, -0.3764305961968425
-0.20461510774750405, 0.4308700561523438, -0.379528894329594
-0.16598980789210077, 0.43087005615234375, -0.07961244520393325
-0.14338176603102112, 0.43087005615234375, -0.1229351472431154
-0.16183908145480444, 0.43087005615234375, -0.08420020349897919
-0.1420891555257293, 0.43087005615234375, -0.1184440395876972
-0.08098922618614483, 0.43087005615234375, -0.004455725925105085
-0.13449344691357554, 0.43087005615234375, -0.12312463626517409
-0.15634154816601856, 0.43087005615234375, -0.09567163803745925
-0.09538562345646746, 0.4308700561523438, -0.08370411020015457
-0.09926796943168145, 0.43087005615234375, -0.047086491689351535
-0.19945567293622907, 0.43087005615234375, -0.009490466694802017
-0.16329994374819012, 0.43087005615234375, -0.09390448102175421
-0.19515086072806248, 0.43087005615234375, -0.13313870983086362
-0.13703013653990423, 0.43087005615234375, -0.0690064412689613
-0.14981053281060394, 0.43087005615234375, -0.15180825040524046
-0.11724013537846233, 0.43087005615234375, -0.04141467332764081
-0.18449689489370621, 0.43087005615234375, -0.06574655632962866
-0.07811041311089255, 0.43087005615234375, -0.0766330156955858
-0.18104159765318598, 0.43087005615234375, -0.10085421217409375
-0.1461035292780601, 0.43087005615234375, -0.11574801630695178
-0.13946965988996662, 0.43087005615234375, -0.08408036144593839
-0.040111640456658784, 0.43087005615234375, -0.012858540985420254
-0.04165677008554128, 0.43087005615234375, -0.015373939348995145
-0.137499568210958, 0.43087005615234375, -0.08740109499468114
-0.13699362283371497, 0.43087005615234375, -0.00830670817749556
-0.16424472170975013, 0.43087005615234375, -0.11477548153025764
-0.06573471488766672, 0.43087005615234375, -0.0062101023716172815
-0.15124377940306205, 0.4308700561523438, -0.03243083563789948
-0.12325760301798233, 0.43087005615234375, -0.11252321821464197
-0.18673645082732332, 0.43087005615234375, -0.08825259000343638
-0.11706862826289172, 0.43087005615234375, -0.03660677608050907
-0.05594409030402503, 0.43087005615234375, -0.033226676201190346
-0.16713178614712038, 0.43087005615234375, -0.09741644000147111
-0.06304425481429096, 0.4308700561523438, -0.03873579362453622
-0.15319355303756943, 0.43087005615234375, -0.04881957617666522
-0.19179513644363083, 0.43087005615234375, -0.1280828225011107
-0.16812381708844865, 0.43087005615234375, -0.06117755407413201
-0.1690755975787516, 0.43087005615234375, -0.1037429366364282
-0.04855277582574222, 0.43087005615234375, -0.030265558278651614
-0.11136323970268719, 0.43087005615234375, -0.07609368789467942
-0.16662451549562285, 0.43087005615234375, -0.1041718555056721
-0.10012400598843377, 0.4308700561523438, -0.08433771061537904
-0.051620255995469363, 0.43087005615234375, -0.011621391172234269
-0.1285585662133632, 0.43087005615234375, -0.1061759816971456
-0.09775133263843402, 0.43087005615234375, -0.06986921422447331
-0.11023854298513645, 0.4308700561523437, -0.10281580606756527
-0.17803245067743018, 0.43087005615234375, -0.07180442957861953
-0.20252778115509926, 0.4308700561523437, -0.012230251013174886
-0.0358298657886086, 0.4308700561523437, -0.033961264127355915
-0.11775515618293636, 0.43087005615234375, -0.08740708111462818
-0.16546065345100272, 0.43087005615234375, -0.02892858498109075
-0.1467062880793653, 0.43087005615234375, -0.06589892984021004
-0.14454640292523302, 0.43087005615234375, -0.02596027796045447
-0.10854690159733763, 0.43087005615234375, -0.04154033640916569
-0.07337962127731482, 0.4308700561523437, -0.038721432406997124
-0.164820073201075, 0.43087005615234375, -0.03458117874659602
-0.10832819810204809, 0.43087005615234375, -0.058325571198277706
-0.16421888062915224, 0.43087005615234375, -0.06823817426525103
-0.023093058114603663, 0.43087005615234375, -0.0037275316689299467
-0.1640595145235631, 0.43087005615234375, -0.10061023645328988
-0.09860335487711908, 0.43087005615234375, -0.016365037310786514
-0.08158208793984131, 0.43087005615234375, -0.06522620918223487
-0.19157675794882567, 0.43087005615234375, -0.047063997200769564
-0.10351590127489355, 0.43087005615234375, -0.05406950378374879
-0.1609024506777064, 0.4308700561523437, -0.13529793909174956
-0.15968208103117337, 0.43087005615234375, -0.056860372958476055
-0.12778929873814282, 0.43087005615234375, -0.029799897026056975
-0.19600219070678182, 0.43087005615234375, -0.06646126996992298
-0.11389398521629336, 0.43087005615234375, -0.04792599241370713
-0.15684149944496292, 0.43087005615234375, -0.017515232988722616
-0.12393247353556584, 0.43087005615234375, -0.05971197134506267
-0.19125741820023, 0.4308700561523437, -0.14185491870788872
-0.1128934885245466, 0.43087005615234375, -0.07422510985075063
-0.19681093256607046, 0.43087005615234375, -0.03420845207551341
-0.09826302485131852, 0.4308700561523438, -0.10069309888601904
-0.08540307996107857, 0.43087005615234375, -0.05688199782127539
-0.16889856406584144, 0.43087005615234375, -0.13250746096289917
-0.20101384985215637, 0.43087005615234375, -0.10197082454345184
0.0648541311059551, 0.4308700561523438, -0.1139179477039347
0.0354806411236508, 0.43087005615234375, -0.03195381881318676
0.06815087996239681, 0.43087005615234375, -0.07958866953973254
0.13506967894992608, 0.43087005615234375, -0.016714733250747647
0.03214045995131867, 0.43087005615234375, -0.1637265781383418
0.07460286257489793, 0.43087005615234375, -0.011139267692391453
0.1413004736014479, 0.43087005615234375, -0.01950496207460961
0.028163609854000272, 0.43087005615234375, -0.06663820083441503
0.030827818902024046, 0.43087005615234375, -0.05645326719969091
0.044957783514103726, 0.4308700561523437, -0.01407270510689735
0.056060170571019016, 0.43087005615234375, -0.11307657938153026
0.09673511197309308, 0.4308700561523438, -0.10432423916865091
0.11042028407001431, 0.4308700561523438, -0.087809382345365
0.002906967993731729, 0.4308700561523438, -0.16590248621537654
0.06333077264074212, 0.43087005615234375, -0.09161822478573299
0.06945455285842816, 0.43087005615234364, -0.12497682954314142
0.11845938224107483, 0.43087005615234375, -0.05372220613195687
0.010308273270758159, 0.43087005615234375, -0.11577358643260957
0.1281573286010883, 0.43087005615234375, -0.03846070211175722
0.12678797966185304, 0.4308700561523437, -0.07688593586324416
0.036557753413599174, 0.43087005615234375, -0.15674977524696684
0.07096123513472913, 0.43087005615234375, -0.08730291491517472
0.05354491333668333, 0.43087005615234375, -0.10056157131308575
0.15503827942275442, 0.4308700561523438, -0.02023063820602623
0.1678948315653647, 0.43087005615234375, -0.040327909359939663
0.02654367377955704, 0.43087005615234375, -0.04530411028437324
0.04903254517950967, 0.43087005615234375, -0.04215183449950009
0.03638065821358934, 0.43087005615234375, -0.0959569817199663
0.015667901972782155, 0.43087005615234375, -0.17163200306757118
0.05026629993206003, 0.43087005615234375, -0.061369055088113834
0.018221043913309046, 0.43087005615234375, -0.11014974240334871
0.13258150997276447, 0.43087005615234375, -0.0720457621362968
0.08116063141206109, 0.43087005615234375, -0.10121368624718854
0.07068812050581781, 0.43087005615234375, -0.046268803014035575
0.03455359125568704, 0.43087005615234375, -0.15943681931055212
0.11660510341677018, 0.43087005615234375, -0.025166728127728022
0.1221974419822762, 0.43087005615234375, -0.05203518374303763
0.10026181580807837, 0.43087005615234375, -0.004004605453908201
0.04561337529380291, 0.43087005615234375, -0.10871931976195234
0.023628072678865703, 0.4308700561523437, -0.11938444981685135
0.012045719537331884, 0.43087005615234375, -0.151323733805661
0.022137210833155476, 0.43087005615234375, -0.019049271355033422
0.023193385412293956, 0.43087005615234375, -0.08341432169348774
0.12991442444750015, 0.4308700561523438, -0.012839660855179146
0.019740551781363396, 0.43087005615234375, -0.09419689729377706
0.07701337367589856, 0.43087005615234375, -0.0047313646167209625
0.055999732419984447, 0.43087005615234375, -0.05393607791674184
0.05852474913097104, 0.43087005615234375, -0.0034831624581074506
0.08581837274473722, 0.43087005615234375, -0.054679154620025816
0.03256363774585083, 0.43087005615234375, -0.0893958576781999
0.1447942828186786, 0.43087005615234375, -0.03415172995719626
0.03970342969893358, 0.43087005615234375, -0.08179034702892383
0.03762238911081002, 0.43087005615234375, -0.16665363472891592
0.06233100576955783, 0.43087005615234375, -0.021455842601649743
0.04500493016916149, 0.43087005615234375, -0.15759462964796933
0.13532168535201497, 0.43087005615234375, -0.014408295646297751
0.03255389079564377, 0.43087005615234375, -0.041593358527732154
0.07655856881569348, 0.43087005615234375, -0.022863223944051346
0.010816502793852805, 0.43087005615234375, -0.006819378805918052
0.16650851358767768, 0.43087005615234375, -0.012647677742885888
0.03617330667811543, 0.43087005615234375, -0.15297352008333448
0.04263199070879987, 0.4308700561523438, -0.14727921698663668
0.02773053166278581, 0.43087005615234375, -0.16756022670346768
0.021657500960990936, 0.43087005615234375, -0.048428239414479615
0.10461725671103922, 0.43087005615234375, -0.01129949991135886
0.014034670897449157, 0.43087005615234375, -0.01674045828630202
0.15517327434744624, 0.43087005615234375, -0.017220168494752896
0.12694678793404218, 0.4308700561523437, -0.06776287897044724
0.09794124345320526, 0.43087005615234375, -0.045683817648402736
0.04950028710323997, 0.43087005615234375, -0.10341205608247486
0.0832668776786222, 0.43087005615234375, -0.04589441187884666
0.019135709635578646, 0.43087005615234375, -0.14683275826377287
0.1548101696836179, 0.43087005615234375, -0.02708023291101617
0.029196377724490137, 0.4308700561523437, -0.13633997744978946
0.1164683724344666, 0.43087005615234375, -0.04945377396817797
0.10828873074986281, 0.43087005615234375, -0.06229952033547991
-0.05814451851977151, 0.4308700561523437, -0.27455790973922906
-0.014563953074160526, 0.43087005615234375, -0.23248597848776753
-0.1141204021393885, 0.43087005615234375, -0.4078875826371125
-0.04186431757080481, 0.43087005615234375, -0.2975317460361352
-0.14599959779367644, 0.43087005615234375, -0.4026166039220568
-0.08902767403768258, 0.4308700561523437, -0.3711617449184741
-0.11346410947228557, 0.43087005615234375, -0.35620504613784193
-0.14688929591445138, 0.4308700561523438, -0.39507772687527165
-0.04743639572770363, 0.43087005615234375, -0.2586727914606776
-0.0669176895939208, 0.43087005615234375, -0.4094192800661234
-0.04196035979651887, 0.43087005615234375, -0.371019554559898
-0.018764722424513346, 0.43087005615234375, -0.28535400214262807
-0.0346764149390782, 0.4308700561523438, -0.4115811031420507
-0.10109714796290724, 0.43087005615234375, -0.3210863590642643
-0.022936747629970316, 0.43087005615234375, -0.31557734155042605
-0.03370355064512183, 0.43087005615234375, -0.3547732696528375
-0.16173654850450883, 0.43087005615234375, -0.3745254470963418
-0.011951664300146683, 0.43087005615234375, -0.40020077139583765
-0.06986934942890222, 0.43087005615234375, -0.3233612495697071
-0.010932357167767004, 0.43087005615234375, -0.2374752682923404
-0.03680294105430023, 0.43087005615234375, -0.35950922176502015
-0.07498510793913336, 0.43087005615234375, -0.3559144770413402
-0.06274871521837978, 0.43087005615234375, -0.40493347140888303
-0.04143239776473428, 0.43087005615234375, -0.28815736469289943
-0.15838817445797013, 0.43087005615234375, -0.382366233727855
-0.11243218628611125, 0.4308700561523438, -0.3893715916419985
-0.03772365105991182, 0.43087005615234375, -0.3312755380177299
-0.03605727119328253, 0.43087005615234375, -0.39786227761999005
-0.07975108631369474, 0.43087005615234375, -0.39798902277047343
-0.17319700696918647, 0.43087005615234375, -0.4113139768558812
-0.09616884304538681, 0.43087005615234375, -0.371438147510791
-0.11187808757870611, 0.43087005615234375, -0.3423722137749127
-0.047488431965309975, 0.43087005615234375, -0.2927632343936784
-0.11915677071729926, 0.43087005615234375, -0.35729380023969937
-0.13234388427905186, 0.43087005615234375, -0.40347732245729584
-0.030707839533758358, 0.43087005615234375, -0.3519996031665955
-0.13497138196374636, 0.43087005615234375, -0.3828859458726766
-0.051183756429614605, 0.43087005615234375, -0.37727619370283644
-0.020687264559268555, 0.43087005615234375, -0.41204794721906696
-0.011116881563138503, 0.43087005615234375, -0.31376065642147144
-0.11523236915635092, 0.43087005615234375, -0.3802028355598833
-0.004896041076867632, 0.4308700561523438, -0.36132047928671984
-0.01669230566932908, 0.43087005615234375, -0.23012379816489226
-0.14294622965147305, 0.43087005615234375, -0.36257042645297843
-0.04996867151540192, 0.43087005615234375, -0.2718901891600042
-0.027914947781644828, 0.43087005615234375, -0.2640042616966483
-0.1370139975533178, 0.43087005615234375, -0.36134192694145006
-0.010653107053001076, 0.43087005615234375, -0.2694116847549106
-0.14400007070557372, 0.43087005615234375, -0.3571736104103368
-0.09696880085799622, 0.43087005615234375, -0.38291327021992405
-0.00775306377860195, 0.43087005615234375, -0.4093661788509741
-0.14870030775187293, 0.43087005615234375, -0.3881193301386606
-0.14655658718790926, 0.4308700561523437, -0.3626002658421641
-0.019006466327410005, 0.43087005615234375, -0.33637151336618937
-0.16775805226446355, 0.43087005615234375, -0.3891411997252642
-0.11505556669838422, 0.43087005615234375, -0.40609746058996465
-0.09439475801285743, 0.43087005615234375, -0.37426950267600584
-0.051322030069765164, 0.4308700561523438, -0.2976794581439348
-0.08301917890815264, 0.43087005615234375, -0.37563124084423605
-0.10714434655619252, 0.4308700561523438, -0.3782544894698826
-0.03490834347448572, 0.43087005615234375, -0.338723404728818
-0.1615976020402394, 0.43087005615234375, -0.41048776576412727
-0.021509163649602283, 0.43087005615234375, -0.29909166835803813
-0.08109967408178188, 0.43087005615234375, -0.39363306732820075
-0.02216034002189711, 0.43087005615234375, -0.40408416336603403
-0.14496906323652695, 0.43087005615234375, -0.3900873636146424
-0.007195269455402463, 0.43087005615234375, -0.34093740335565725
-0.007280874999146153, 0.43087005615234375, -0.34398007822997256
-0.007130976663113783, 0.43087005615234375, -0.270115388205856
-0.007507077213883349, 0.43087005615234375, -0.2824347029219009
-0.11901852655791181, 0.43087005615234375, -0.40571168721847645
-0.1455984632944626, 0.43087005615234375, -0.3627821370650295
-0.01820302475018242, 0.4308700561523438, -0.2455411265474071
-0.04801524528428147, 0.43087005615234375, -0.36159766363332674
-0.03305723764363504, 0.43087005615234375, -0.27244550850331634
-0.11644167040544073, 0.43087005615234375, -0.3974465979151734
-0.06705586184473962, 0.43087005615234375, -0.22759102098104708
-0.14486907258669426, 0.43087005615234375, -0.26229825559830805
-0.12221291937129161, 0.43087005615234375, -0.2434060762976579
-0.1036126469842598, 0.43087005615234375, -0.21471379976580246
-0.18036590061326402, 0.43087005615234375, -0.3722911037978335
-0.1407082480322142, 0.43087005615234375, -0.25169442240437917
