0.04068154168492326, 0.06925694589156087, 0.04158508361121641
0.03179257783912073, 0.05669846662175711, 0.04474881956753616
0.03426631642776149, 0.058008421846488384, 0.04315370106006597
0.03177113861063136, 0.05345607652102764, 0.04365841343744111
0.03617186644374309, 0.048110054222382334, 0.03819726437097938
0.03369534928927001, 0.06639126742314054, 0.04649010277229653
0.030892482940881358, 0.053180085604236385, 0.04428968252191768
0.0162055708791323, 0.03492559243986429, 0.04486779106502416
0.016554235862054255, 0.03560935774181708, 0.04500497810337523
0.013989646049431424, 0.03127526365055535, 0.04427583226080597
0.016118376185162795, 0.029635122632628755, 0.04277242005887752
0.02268530774386794, 0.027731645782419163, 0.0386699825345571
0.020681607888015163, 0.026642188248607694, 0.039186726692665846
0.02411528794968083, 0.02275229434853803, 0.03475938806704515
0.020653142612979344, 0.026849787637611207, 0.03933131171151291
0.01687239810464175, 0.02751198911189675, 0.041464347448135486
0.01627055089611703, 0.026404412008089354, 0.041071478713805815
0.01747042447243623, 0.020178941560014037, 0.037048219734061694
0.007071496031687593, 0.03597444592020109, 0.04773873756827479
0.0071008771765909305, 0.0383595262323904, 0.04864796757481728
0.007829125663046475, 0.03201773689188744, 0.04604919806096646
0.007967535573160564, 0.03660451745692747, 0.047779347481529566
0.006390762051149933, 0.02869780823259251, 0.04509757975252061
0.012996484416620959, 0.05400486095716193, 0.05263477449991274
0.013895249955598286, 0.0481282667227844, 0.05084123003499515
0.009491366715847544, 0.06476959919210949, 0.056337428248087816
0.01428570336263171, 0.04857662271159892, 0.05087503025833661
0.01219437985406414, 0.0548938243428103, 0.053055619147478764
0.019652084160396766, 0.030038396976201295, 0.041535213977170096
0.01937308970719451, 0.0343238174763706, 0.043370983252716516
0.020499558572648444, 0.03520171948769736, 0.04327825597743458
0.019717981515809654, 0.04086774884472594, 0.04586890312370027
0.02041625574959358, 0.032983201029572404, 0.04241809639424095
0.015824487475485056, 0.05212917448953261, 0.0514357511310995
0.0168145219356612, 0.05225794274005436, 0.05108018061057544
0.01948554031039447, 0.054562322263107144, 0.050676414533336704
0.017425455709599177, 0.05021998907452954, 0.05025969062236534
0.017059129225868563, 0.05787288280104612, 0.05257721947134235
0.01972611182469603, 0.053770591871959164, 0.050356381487861215
0.028566876922011524, 0.045653185320009206, 0.043101467442375814
0.026248824466499673, 0.04612712648549794, 0.04468067611415362
0.026416360935799847, 0.04181371769881301, 0.042706867744516125
0.02600437827376834, 0.04590071185028323, 0.044727091473519345
0.0255204653522821, 0.03801982070703767, 0.041588821858689784
0.011040666107029909, 0.02535054603591299, 0.04227468374493487
0.009924075712815655, 0.020741215575850683, 0.04001951888729641
0.006550930834638824, 0.02816847749558509, 0.04481554355688637
0.010010136829333927, 0.02413406359820956, 0.041844839551367294
0.004399768028050911, 0.01977786423845264, 0.04055829141185774
0.005126348503899836, 0.025146455435981055, 0.04336919393988273
0.004986609130932763, 0.023777230575748237, 0.04264943489526248
-0.0019661956150361774, 0.018547075808233518, 0.04012952632386929
-0.001204297396050487, 0.024486548925863365, 0.043372398210786665
-0.00021631685298982245, 0.03421567721711561, 0.047626494600696
0.0038758658178285614, 0.044849209077184385, 0.051365720738242526
0.00014890770979778423, 0.041415873907378775, 0.05030924675364966
0.0012714289360441712, 0.04294143466881332, 0.05081212997461744
0.003465960960264378, 0.04231230413020381, 0.050438117576720676
1.5982051045845824e-06, 0.04148165430015741, 0.0503432019308189
0.006069420545196758, 0.028635866501724075, 0.04513551288031994
0.00068441928245824, 0.03204526682801845, 0.04675442902764377
0.003806856200489812, 0.030186321399236046, 0.04586004441900439
0.004338710824521513, 0.036214891116024654, 0.048092109923199455
0.012952717995463995, 0.03635004779482294, 0.04656196639476945
0.01110015506441382, 0.04627645276925643, 0.050790009504667936
0.013971002585642413, 0.041253872925522066, 0.04821663001222455
0.008793894476877938, 0.045379648020060136, 0.050963354966578334
0.01160080010513516, 0.04262819838580857, 0.04927653677082523
-0.0009579699891888067, 0.05772323727109739, 0.05541260654294707
-0.0011515541748587722, 0.05665628758320924, 0.055141906577880415
0.0035555893978256926, 0.06455900511357758, 0.056941706587923774
0.0003297409855913061, 0.06845410169558859, 0.058176510610169506
0.0026210912768555934, 0.0639593977430462, 0.05684134805803789
0.005142636715663497, 0.06614030340210629, 0.05726138767379596
-0.0039076811014145925, 0.03256641010748988, 0.0467830784264372
-0.0034036527098411135, 0.038096659796112854, 0.04891582096141915
-0.0018192544177834454, 0.04548187875753445, 0.05184997664987108
-0.00201421094198373, 0.04267357028154469, 0.05077271046873031
-0.0012655863389406073, 0.04563255985981579, 0.05195906634643811
-0.00893461412841207, 0.021655226961165508, 0.040881639782789136
-0.00861483647211217, 0.023576932765491106, 0.04202004009885579
-0.008058472545938876, 0.021387265677281758, 0.040961063190093655
-0.007492177313110178, 0.0450283915314358, 0.051143379238080766
-0.005858078964297606, 0.04259196459916942, 0.050379018582859834
-0.004488936314036756, 0.042548192470287995, 0.05049178269456028
-0.004117946712185085, 0.04705726538773208, 0.05222693728720182
-0.006373847609147699, 0.03962896633594111, 0.0492131357176451
-0.01428329381342024, 0.042706962157931905, 0.04876022141548829
-0.014846096422905974, 0.03458046706502273, 0.045461695194548415
-0.015918603070995244, 0.04589859445087692, 0.049575557294283285
-0.014197438112602994, 0.03433185742060531, 0.045533012622773636
-0.01543913173278234, 0.03682061414220481, 0.04617745124781332
-0.013965908373097982, 0.016507355097201352, 0.03655519544633054
-0.013873150969311555, 0.019985291921148257, 0.03861335637877198
-0.014163577220846086, 0.02195166208120824, 0.03962788716005626
-0.022075204900330055, 0.03396326671049006, 0.04221376595042152
-0.021171390273343922, 0.03797519787758013, 0.044250782844191816
-0.017629237984852577, 0.047694482422468265, 0.04977393877007992
-0.020355537324301592, 0.03811684122408284, 0.044663668943855504
-0.021727864002951333, 0.039432470921271355, 0.044605876305073504
-0.02431602745369675, 0.058745601269914634, 0.05007762410181514
-0.019822718791160723, 0.07086354881364926, 0.05553481875742722
-0.02519749068706545, 0.05518897858523386, 0.048666145839202125
-0.023688503154083208, 0.06615229789971606, 0.05249157350746901
-0.024283453621718264, 0.062789711240125, 0.051260800449067986
-0.02428539370773048, 0.05397181431405487, 0.048711015634990314
-0.005501339184670518, 0.06165447724967074, 0.05606589719117827
-0.00820100411903682, 0.06425918592038399, 0.05650384264323045
-0.004275047102340454, 0.07035485297812355, 0.05849586395012542
-0.008887146314160113, 0.06414435307237959, 0.05640851994181308
-0.006241115919851447, 0.062179291500257576, 0.05613564910567919
-0.009491316662539497, 0.06474064247796002, 0.0565100859447445
-0.008286359987525145, 0.06303365681298276, 0.056169808570838295
-0.010055023304326033, 0.028873136505762058, 0.04448652254726465
-0.009037810353204577, 0.03693867521106801, 0.04787893533837401
-0.012838001281322358, 0.035581201842831624, 0.04636935518687587
-0.00954182273950438, 0.04508959780390129, 0.05091101890340788
-0.01844780026005656, 0.030988581098618684, 0.04257257321227827
-0.01830553456017857, 0.042852776918373615, 0.04749587368488735
-0.017970973844193924, 0.03782501487779898, 0.04558123249667374
-0.021121300160629183, 0.02929118732586275, 0.04071424556559406
-0.016314985216479085, 0.06660556722164554, 0.05536250996055361
-0.016692133447949592, 0.05361424678475811, 0.051709155328339425
-0.016644368970450588, 0.06147172775355399, 0.05387215169266503
-0.012333559421507084, 0.06733856174800927, 0.05659291667957695
-0.01413759931638788, 0.05921266418670019, 0.053902198667912175
-0.01307343792809159, 0.06838996159835585, 0.05668932455269329
-0.01656517726571676, 0.06538378921308509, 0.05496339031488934
-0.01847783269454808, 0.014432702639287255, 0.03327673381794423
-0.020489228720268458, 0.023791920149270625, 0.0379014056694686
-0.02079225288599023, 0.023729843963595555, 0.03766819457301895
-0.025378305718819973, 0.021469388218294118, 0.03325759090330557
-0.027249040975437788, 0.025038606426166767, 0.034134622958257255
-0.028114389937811995, 0.03563213414476123, 0.039164307484196414
-0.029996657398477383, 0.043256294106445964, 0.04136088341242079
-0.029154435725432904, 0.038332383304700644, 0.03970322509705142
-0.0278902862711923, 0.0412338113468693, 0.0418069911936739
-0.025364438263258657, 0.04686387604557727, 0.04593586259020238
-0.02995389514304001, 0.04188909644665137, 0.040778276353771056
-0.023147738880285835, 0.02928670591922233, 0.03951280381015061
-0.02482821098249134, 0.031660256525721756, 0.03949597268445426
-0.02529476357985148, 0.040374919458415044, 0.04308538580213872
-0.022759185260502697, 0.03241094838066925, 0.041155443879453656
-0.0319355788982583, 0.03420238279843266, 0.03528459969428634
-0.03159763312395515, 0.04595772996244427, 0.04149258092866811
-0.029293368531274608, 0.035778242567447084, 0.03842494346076691
-0.02884073176125499, 0.031386776858283526, 0.036620329671556186
-0.031751231129418155, 0.06558701034978497, 0.047868415893838306
-0.03411593410351739, 0.06763709829788743, 0.04699984584921573
-0.03193763186683115, 0.0651783028900367, 0.04762044945865568
-0.028993215893082562, 0.0684221634655956, 0.050526367332341164
-0.031042975307716394, 0.0584992292822125, 0.04609099600585697
-0.03106416411594972, 0.052678373989213934, 0.044245360528681235
-0.03395879350236079, 0.06997722676749508, 0.04783698113877071
-0.02927763207051172, 0.016016933038661873, 0.025476863593538325
-0.02960553756907139, 0.01635841540057979, 0.02536244319729255
-0.031793884109544784, 0.024236192732632656, 0.02930127689056099
-0.03271784943319475, 0.032911865631162496, 0.033940770451770796
-0.03627595886291589, 0.044569741659547864, 0.03663693598541469
-0.033174408354199596, 0.0399170652555915, 0.03705541995796037
-0.03368107635190637, 0.04765090569580737, 0.04049170845113919
-0.03364467086314275, 0.04584859614600194, 0.0396183207978417
-0.03331926057139026, 0.017382223389974645, 0.021237291580918152
-0.03173182098569662, 0.014402224694398136, 0.020817544144890468
-0.040181426519397934, 0.04123165929050421, 0.030156485572387974
-0.03798314109314303, 0.03525588419913135, 0.029301492474360844
-0.04099922225138426, 0.04369921617468983, 0.03061956707004349
-0.039995547030127324, 0.04565829975521049, 0.03300955098109685
-0.038990279846849746, 0.035207865931940675, 0.028040813832694494
-0.03872039503251746, 0.047508076047441714, 0.035666841318379376
-0.03809107292363434, 0.06522808888448572, 0.042831602041559676
-0.03994620750127182, 0.07090843991435486, 0.043196564097763165
-0.03886414120333406, 0.061444951769641695, 0.04080327556493512
-0.03863650211676363, 0.062032145103235736, 0.041213778043231876
-0.038556238266163896, 0.057124434864996486, 0.03954521296274147
-0.03773619061927309, 0.0532458373566728, 0.0388990211501556
-0.036455198848285124, 0.033033403901170176, 0.029852613169019753
-0.036190014483538126, 0.04000572269964306, 0.034312665603829035
-0.03548650703714015, 0.03292790254728789, 0.03097519161944748
-0.03691012551935394, 0.037071446533813945, 0.031691181091753166
-0.03868641663492477, 0.030547398691454924, 0.025257218913363536
-0.0409816697917925, 0.03440617556605694, 0.024196236017783132
-0.040049616493021904, 0.03026165550886291, 0.02270985865915898
-0.04173024530411276, 0.036908389226121746, 0.024775294628659024
-0.041792168681424005, 0.03653501575640979, 0.02439151499144921
-0.04399150606986368, 0.055762923592964767, 0.03272994488336155
-0.04439940366240736, 0.05736766066156391, 0.03290237926241837
-0.04629380053469016, 0.07002130625718231, 0.03587941775791848
-0.04422380130383717, 0.056023425306364394, 0.03255474334712272
-0.04333718917541824, 0.07047052549508748, 0.039684703018007486
-0.046536143435926665, 0.06512314406998956, 0.033533340880586154
-0.04635043205861265, 0.04668045647353861, 0.024130891594723362
-0.04216284603827414, 0.033198381330584725, 0.02127485325030953
-0.04447663778399302, 0.0395149262971972, 0.02201034453828278
-0.042504647561479106, 0.03616048707046532, 0.022892686582703825
-0.04465155115051843, 0.042986537715581925, 0.024292977407624573
-0.03916460127589219, 0.019608179313959154, 0.010851180238026583
-0.03925253732967622, 0.019287819503944103, 0.009647219911366415
-0.03947469337859673, 0.020469384385472363, 0.011573112989689688
-0.04108339209926096, 0.026439153790147885, 0.016428946450662896
-0.03631041856773889, 0.018745035154316844, 0.01744753019009846
-0.037938045526928955, 0.020822722332366258, 0.016299307158983818
-0.03809702572461113, 0.0211631262803458, 0.016388757651663775
-0.04568225484183889, 0.03649001334394376, 0.015846958426570044
-0.04546879461084817, 0.03674417761449394, 0.016660076611491208
-0.04692264596975198, 0.04180069858906128, 0.018150778852632263
-0.047646174244279, 0.04672083459716076, 0.0213817357325894
-0.04982919914776005, 0.04769450494509424, 0.01676600969689124
-0.044389288512529546, 0.028911971448311535, 0.009675732416612294
-0.047057829677417284, 0.03578197225519593, 0.009505149115763863
-0.04660028048172795, 0.03310278677822445, 0.006888386973643979
-0.04441852444120191, 0.02962985513122285, 0.010806499765742125
-0.04973663284224724, 0.06626369908171938, 0.02886099302233026
-0.051993952230504015, 0.0684846212402426, 0.026160280275394486
-0.049973770474719265, 0.06325408528090352, 0.02687567519762652
-0.0479223119604955, 0.052001321035766435, 0.02448470650562979
-0.048279892258941345, 0.06197225024994859, 0.029104145614697045
-0.05030345896252175, 0.07086462980160457, 0.030304363672044428
-0.04173584809638737, 0.030157018286652577, 0.01945858485272174
-0.04484034758080063, 0.03983755774865139, 0.02148360272631751
-0.045134513108176885, 0.04057123383286978, 0.021485309198017118
-0.0450769168002637, 0.03984261356444616, 0.020879060022212917
-0.04352742200986476, 0.03295349821437554, 0.017737243734996015
-0.053111889863192624, 0.06717422457219524, 0.02258019201461478
-0.05390251562756872, 0.06742695696098942, 0.020726900342744835
-0.055631164039779114, 0.070442039866244, 0.01847366774204764
-0.05279960723757511, 0.06552719695571821, 0.02218197376159998
-0.05140633111657596, 0.05619663675659865, 0.018957285685642623
-0.05187460319300243, 0.06123333183100123, 0.02142958402602944
-0.042712789500345016, 0.02368855422193357, -0.0015295845253380594
-0.041374491734025326, 0.021032929052315887, -0.0007952103305469747
-0.041255176533990245, 0.02078646334743199, -0.0006778944657324595
-0.0438649716905231, 0.02601485809508056, 0.0022798869875789805
-0.040591510352272125, 0.020083292623099786, 0.004566385778828637
-0.040513400331140634, 0.02003031995164222, 0.005454384358982494
-0.04405214013655489, 0.026191774527779967, 0.0006224157061559732
-0.048543495948399025, 0.03759278561670305, 0.0028885472028030647
-0.050567516140143286, 0.042460430888460216, -0.0006811773004618146
-0.05154562852082119, 0.045896105765977274, 0.004795519750901523
-0.049891978722747504, 0.04113385526107113, 0.0024915591297523963
-0.048272706392331735, 0.0366204841860592, 0.0012318136941116271
-0.04900303720759975, 0.0395988499925665, -0.005786552069378395
-0.050692289632529045, 0.04487107965573112, -0.008701301646775116
-0.04618293590887443, 0.03254439694876716, -0.007512707157015092
-0.049986362331169085, 0.04177082660957855, -0.004098806447589899
-0.04919833320482484, 0.039859335505446625, -0.004806605720894273
-0.05736204208451232, 0.06843282153665672, -0.007680610450504746
-0.05662417095046325, 0.06562658814984174, -0.007627563736549424
-0.05762133698216434, 0.06867248182387772, -0.0057125771052024725
-0.055697332490459654, 0.06214294917155687, -0.007670755101598821
-0.05542196313214136, 0.06119644245463025, -0.007919131348740872
-0.05571424816024014, 0.06212582448287898, -0.0074551800739081145
-0.04927017188341244, 0.04155727867367554, -0.009362297485177584
-0.044479375864876367, 0.031190338112542584, -0.012375895414025435
-0.04418815361300919, 0.03071225112481219, -0.012783053332021916
-0.04982798592663843, 0.0429838332331655, -0.009334608720790267
-0.0485305620425151, 0.040198957821734306, -0.010184102540899173
-0.04846468032568884, 0.03762010302884837, 0.004469168214171418
-0.04592709836383891, 0.03048008534589431, 0.0020492399345815563
-0.04622503974230139, 0.031899819560170316, 0.00619834481778182
-0.04853762460279963, 0.037798915169883485, 0.004363023479538909
-0.05694502499374182, 0.07024355907085886, 0.013111522790494634
-0.05708661417027886, 0.06987624276069199, 0.012004715713869761
-0.05771107196010157, 0.0692149511119239, 0.008313793757442197
-0.056374638511205596, 0.06451739642567553, 0.008622224149649728
-0.05640687707281996, 0.0683439714118923, 0.013225784156281731
-0.05613975474766854, 0.06674281532009174, 0.012465105649143908
-0.05661745079442198, 0.06681739452610973, 0.010362420697091557
-0.047869669226013906, 0.03958953844442782, 0.012480590673494135
-0.04665196893481732, 0.03608529250601352, 0.011907359222829423
-0.04698907043711778, 0.03751903245094798, 0.012883285093446318
-0.047751460636517765, 0.039138829226957876, 0.012230113444410886
-0.04941521551026214, 0.04301394009042797, 0.011404438796414468
-0.0529602802368302, 0.049294238289983326, -0.0005704876663874686
-0.05735221718015174, 0.06621633122799273, 0.0008217923555163955
-0.05612965782052154, 0.06144694188516227, 0.0001581468544124703
-0.05802519370535349, 0.06972571167710541, 0.005332155529958785
-0.05811238556347083, 0.06914148931927443, 0.0010451238047001522
-0.05576343944420638, 0.060450042760803804, 0.0019839347451364783
-0.04540664525983961, 0.028714930718514164, -0.0008660444309647026
-0.04732094468194047, 0.034614366502590775, -0.003885494096181623
-0.04660923756594748, 0.032310968604607804, -0.0023475851782137434
-0.04846819072334862, 0.03733457595373843, -0.00261878582896995
-0.04607352153310143, 0.031304941893158175, -0.003935898972777815
-0.04993217895282748, 0.2066397979061984, -0.014646142460390284
-0.048757673195673736, 0.21378503576359562, -0.009550977513414369
-0.04832370717323972, 0.2139913783574669, -0.01093020158776013
-0.05354986620011978, 0.185489454730125, -0.022082954176551123
-0.053045067593666874, 0.18263337279838088, -0.025032657227628867
-0.05259050573780964, 0.18831566978350173, -0.022508040330980743
-0.0533088586347617, 0.18709394444299773, -0.02162830614222934
-0.05368550048413012, 0.1836158993022522, -0.022948012380002998
-0.05569050830474845, 0.1669213572786556, -0.025166461066448678
-0.05486443463034256, 0.1626585395098745, -0.028701573098402756
-0.05783509688387853, 0.16585670930876859, -0.020660817933275268
-0.055914916144833224, 0.16770911199254174, -0.024348719621384636
-0.05674186674735436, 0.17283265772318876, -0.020480122605647293
-0.054965324550886895, 0.16297288131576834, -0.02834926533343911
-0.05359830678093497, 0.1947597873749694, -0.014821416622103917
-0.05481258342580131, 0.18954554595553932, -0.015352080424276037
-0.051798777299945774, 0.1989888735973747, -0.017499354163667265
-0.051820042605336375, 0.19950161712015235, -0.016910446867065554
-0.05411427491244734, 0.18939504194002604, -0.01816548332078826
-0.041345339749297605, 0.21352704185531926, -0.027518213811112007
-0.03995256586308158, 0.21322042359219437, -0.02989269548637185
-0.042852456390332465, 0.2138973306481572, -0.024924497201160592
-0.04341281204297144, 0.1938849695165375, -0.035175353106032516
-0.044186667186818525, 0.185562879568764, -0.03745564031014462
-0.04508281954099782, 0.19045251353689074, -0.03458613086400748
-0.043416515880149, 0.18243578260237764, -0.03951391846889146
-0.04461760662438023, 0.18673839858617186, -0.036521745793731346
-0.04813236109982926, 0.19477319364893547, -0.02790001415176511
-0.0504914555789088, 0.18487269689548783, -0.02882270693112364
-0.04841971657135246, 0.19436229898588075, -0.02764164730647162
-0.04905711403997282, 0.18687029859850052, -0.03013724758428448
-0.047259183500446424, 0.18535499023178237, -0.03365930563301475
-0.04749658644121148, 0.18347474068808975, -0.03416436004671943
-0.046075801273389345, 0.2064685860504472, -0.024564703976468892
-0.047136261021310015, 0.20667522680697972, -0.02195843713664367
-0.04608962941068383, 0.21043376920836956, -0.021164737753790092
-0.04835608253154181, 0.1990274301008691, -0.02549061473437886
-0.05127876795623543, 0.19025732598946218, -0.024296025905595816
-0.05170931300971609, 0.1920244553819778, -0.022200004942543216
-0.04866791914344922, 0.19816873742548557, -0.025314805828757638
-0.05134754190122903, 0.1895670878864812, -0.024571619129579045
-0.052203374745345366, 0.16687899603609185, -0.031802892691284466
-0.05328634078934375, 0.1636327490543698, -0.031035865889547043
-0.0518338830231466, 0.16938167993553846, -0.03166541371695453
-0.05319002877391453, 0.1663382960033858, -0.03041255970920429
-0.051730387754457166, 0.17059283304570913, -0.03148093972720223
-0.05309528467843559, 0.1620278475550977, -0.03179425093404063
-0.04469005293278158, 0.1959747703326479, -0.03273009216802024
-0.04612589979484737, 0.1943139047786901, -0.03125616582396165
-0.04705784793402246, 0.18323722715555762, -0.03496215175457885
-0.04411179676901, 0.1997761005211543, -0.03186293810637371
-0.046536574080665395, 0.16873731535558897, -0.039228386450118
-0.043581810458562714, 0.16415150392307107, -0.04364171495902558
-0.04743661084225283, 0.1663783880054877, -0.038758158484533886
-0.0448626100064423, 0.16751361290458794, -0.04140882750241217
-0.04747398639762168, 0.1735971867898945, -0.03703578221584677
-0.04629852189347997, 0.1766059994218422, -0.03766666292260722
-0.02993271509725217, 0.21449490831673196, -0.039318775343208726
-0.030195919973122876, 0.20938311724130462, -0.04135554882154528
-0.029340390225429835, 0.21302544398142126, -0.04045589966111339
-0.031103500090793004, 0.20153695531548133, -0.04406596433979944
-0.03019595643908927, 0.1928796484015948, -0.04739078175582709
-0.029134317018231107, 0.18577306337243776, -0.050096754948316606
-0.0319920805019383, 0.18900685166569534, -0.04745864547391633
-0.029806507953105164, 0.19312223267030615, -0.04755059460975899
-0.03274100149690647, 0.18663867260422246, -0.047707126864221364
-0.03522110645270885, 0.21321863034218327, -0.03531803662129761
-0.03762650073128721, 0.20930762280591778, -0.03460179644248222
-0.037873562906281265, 0.20637946660679396, -0.035825180453840394
-0.03532482908541522, 0.21342386392427914, -0.035095221095734694
-0.03553256440943551, 0.18471963434580202, -0.04608953102597488
-0.03701746064721871, 0.18866706624959861, -0.04357713900299279
-0.03595367992988927, 0.18455833814147565, -0.045794329877776895
-0.036550431075806945, 0.1843534485810731, -0.04536829335624076
-0.0374617747675024, 0.19786762117537568, -0.04021245799597807
-0.039617928778010916, 0.16968928637826464, -0.04605947245466715
-0.03884103267525436, 0.17079824873686028, -0.046479333123018524
-0.03894772868473044, 0.16239495121320552, -0.048071179725283644
-0.040053743567399165, 0.17472459265029086, -0.04469293710546877
-0.03919564459767459, 0.1656074329522324, -0.0472242234757636
-0.04162037663194089, 0.16595483996678595, -0.04515242896259791
-0.04134023018833928, 0.194292227279591, -0.03736794309301497
-0.03986543220642717, 0.1963338373648778, -0.038263658333734726
-0.04102788594840676, 0.18899833582468215, -0.03972966528840729
-0.0410034082562804, 0.18891621431300432, -0.03978853399220924
-0.03071750822408857, 0.16916688888651693, -0.05255970794574603
-0.030305068385564002, 0.16168875828322327, -0.054145088425546134
-0.03349283476112766, 0.16842685604701668, -0.0510482951635777
-0.03284879282788334, 0.16247665343038825, -0.05249687597236648
-0.033113956701732505, 0.1617428317374484, -0.052471386850457144
-0.030338261625395907, 0.16433643162139605, -0.05365061898381513
-0.033771597470485686, 0.18393721026940554, -0.04779866346717371
-0.03589921330305997, 0.19195097413767212, -0.04343060464289707
-0.035360235203948646, 0.1933314840314913, -0.04342588672054375
-0.03491252680484873, 0.19165649976909974, -0.04434135376574057
-0.03446290900984206, 0.1974880950228246, -0.04281256933114008
-0.01286788104784369, 0.1916664862670578, -0.05511097278534376
-0.014592806140233073, 0.19172987866046745, -0.05470703286500011
-0.008903928003808594, 0.18317805459642006, -0.05819407860322478
-0.01622538426574769, 0.1881334822269089, -0.055269122090112956
-0.012579499722607414, 0.18673966104894177, -0.056448308578621306
-0.017205074717140015, 0.21120435082169992, -0.047604361013292615
-0.018670876224505722, 0.2137105011783832, -0.04610547201320491
-0.016756070433741437, 0.20927244815634083, -0.04849010520353897
-0.019905918362830257, 0.21381937565368217, -0.04557641350717891
-0.02317272863325381, 0.20879709227682236, -0.045968531774814914
-0.023820448549961327, 0.20510720781909403, -0.04704437173307887
-0.027583918479069547, 0.21417549221307527, -0.041227848809629694
-0.025321619433508503, 0.18223321798175998, -0.053326086597934405
-0.02521755944045852, 0.18322681161675278, -0.05309828530074536
-0.022985713612579884, 0.18294031112866913, -0.05405982354433894
-0.021745010944004238, 0.19323017385264668, -0.05176523944955301
-0.024224502443528535, 0.18662636254827342, -0.052571174249998055
-0.026114525278302624, 0.19829599447434365, -0.04822562505496998
-0.02570433417709494, 0.1965943107233583, -0.04896597878153652
-0.02514199473980596, 0.1919005585383951, -0.050670960522595704
-0.028091182811634828, 0.1904878376928633, -0.04933672717597819
-0.02722129585188191, 0.19620198180914297, -0.048181980883907585
-0.02432980991180416, 0.17153006809577792, -0.05551836328990012
-0.021332926546136468, 0.16916743177590252, -0.05709784012725688
-0.02402150909594493, 0.16610981703755032, -0.05654090976830499
-0.025022117432331643, 0.1716278988142827, -0.055227906810724904
-0.023416637019482926, 0.16409086347665214, -0.057115881103324787
-0.023139232927320393, 0.17448273113428692, -0.05549940897734396
-0.018164912171659164, 0.18714031916442136, -0.05483204219044177
-0.02225461879946387, 0.19855664363322467, -0.05012124992162187
-0.01652713025606783, 0.1936477983628479, -0.053718803220378676
-0.017123307336249314, 0.1951386558254622, -0.053079024226979715
-0.012235917904944332, 0.170518835542757, -0.05956632921467205
-0.015126251513460837, 0.17237797575581895, -0.05862228802550091
-0.01554976271635016, 0.1629384068209836, -0.06002309497354466
-0.013191698085170754, 0.17194543645614943, -0.05912549706235362
-0.016458545329810535, 0.16813816151231023, -0.05899486103519498
-0.011945912459727238, 0.16872566587241133, -0.059915666180468466
0.0004917150762891281, 0.21370557344279412, -0.049979727833089044
0.0006263486865832877, 0.2067231677585794, -0.052376803685708115
-0.0007600805231175057, 0.20383279950900907, -0.05327865478075057
0.0006769179818949705, 0.20821795848026226, -0.05186861621335368
0.0032188083734283296, 0.20074918208887316, -0.05426111874603474
0.008736484345328996, 0.20027972208673936, -0.05390128984685061
0.006570841827258794, 0.2055945967959194, -0.052281439771277645
0.008707749299871673, 0.2125540535623392, -0.04969084780383276
-0.01180682285947668, 0.20938875988417693, -0.04989547821084862
-0.010307568479102636, 0.2138750068897072, -0.048664124683512014
-0.007553235082741744, 0.2077553774065135, -0.05142217488258624
-0.009911119874893473, 0.21145549350648238, -0.04959896982784394
0.00020370575748571162, 0.18386601050229825, -0.058747538640063504
-0.006325617157459646, 0.187500935678989, -0.057419355009617104
-0.006745189344455519, 0.1966017318760167, -0.05509264334341526
-0.00279426404661522, 0.18748611407019788, -0.057644515387111774
-0.006853896084923483, 0.18762486250247362, -0.057354907272313724
-0.010662758424427154, 0.19398742805362243, -0.055006963765008174
-0.009468114724802083, 0.18731194812820032, -0.056999578938234485
-0.008269182592304471, 0.18624286180984603, -0.057545095230507645
-0.010414748995123686, 0.18963238514246647, -0.05618754221826965
-0.007422853247578095, 0.16239254729495725, -0.061779157620027295
-0.003326964915961071, 0.16910758025010925, -0.06099453269571942
-0.003036731594190156, 0.17040569728327087, -0.06081140431302868
-0.005444104598934292, 0.1648011746273298, -0.06152967072776984
-0.002541408059136819, 0.1681500166892218, -0.061192297461260835
-0.004432256644022514, 0.16272359416717722, -0.061915328765138666
0.009478295801086601, 0.19457711103094813, -0.055321798948799045
0.007856036138610937, 0.18241033650222976, -0.05856077115510297
0.009952343367209602, 0.19271550176966062, -0.05574919192528757
0.002970412142917868, 0.1839264098080991, -0.058637544552171655
0.008413309524410488, 0.1838853448588711, -0.05813405530435346
-0.000731973914070647, 0.19627757460990397, -0.05555159823229131
-0.006795516345402522, 0.1986513658542656, -0.054571402645266276
-0.0012825432783487702, 0.19685004495533537, -0.05537237514178536
-0.0010054976183003009, 0.19601258018735357, -0.05560143159886683
-0.0015845854122904714, 0.19202463023471994, -0.05657315953366179
0.008177236742542079, 0.19899028326765622, -0.05432535040902671
0.0013069318162889036, 0.1955401902478898, -0.05584906364346957
0.0056864803825365205, 0.19334600235910573, -0.055992053814793004
0.002468873583553022, 0.19121285815284456, -0.05683687381520888
0.0013477290045945003, 0.1864202502090792, -0.05815825509756839
0.017060494600077185, 0.20685028017083706, -0.04958066210341003
0.015061085637427137, 0.20984773540294852, -0.049039065902753434
0.01694433591922894, 0.2054309583284729, -0.05011202412380187
0.023789164807333597, 0.20852317574593793, -0.04605208081680555
0.01988630656517968, 0.20479602232862965, -0.0491399584330871
0.022002852253513037, 0.2025867958375126, -0.04904351380843087
0.0218241425177512, 0.20848726627731268, -0.04692014269066243
0.014645391933212796, 0.19483813468231823, -0.053991773790303906
0.014068743508222509, 0.19344893370347227, -0.05450347979924882
0.011405895675108323, 0.19403351749907616, -0.05503964104885165
0.010244039622061647, 0.19453656024081603, -0.05520886138247093
0.014074617918160698, 0.1922313534004593, -0.05481972973404226
0.0029184927017587943, 0.173058987557891, -0.06051957665166973
0.004331143865602542, 0.17740363373688162, -0.05971010118353416
0.0015746191174262798, 0.18067996222184704, -0.05946051592958551
0.008459237674215206, 0.17994659424467618, -0.05892461177839849
0.0031030637954651413, 0.17204625967566442, -0.06065974661457749
0.001427823470443536, 0.17842406540526937, -0.05982542969890195
0.017764848408378955, 0.1892684739973244, -0.05463852940276392
0.014274659644181682, 0.18504143648231475, -0.05664443898060453
0.01806351239290848, 0.19075145230686347, -0.05417424871511204
0.017749826444889424, 0.19694189546112664, -0.052639780820520635
0.016868639493139926, 0.18947058771040803, -0.0548175821049806
0.026413908393729944, 0.19193152873799135, -0.050334667529022326
0.025983238206884716, 0.194442035120135, -0.049830013123047176
0.02475371953051654, 0.1859625991287694, -0.05270195472300742
0.026156777523187905, 0.1886127401784091, -0.051361257746378106
0.021016515361217, 0.18234106340152725, -0.05532560153497607
0.016961270199510464, 0.17895628333627456, -0.05722780816722667
0.014338384128694422, 0.17658422601856186, -0.058286044790987424
0.01307666731981445, 0.1679100214080901, -0.06000138230810178
0.011820126937524945, 0.17442821262556713, -0.05928262447090106
0.01152200020955917, 0.16361189230343887, -0.0610917498545842
0.028284056393463354, 0.20074691458335503, -0.04646063478703577
0.028845879807732084, 0.21025771142378713, -0.04223801467986333
0.029005976127788345, 0.20007152576287657, -0.04627279780610666
0.030234940231578848, 0.20827416524511827, -0.04215441749276966
0.02164744871032299, 0.19871400289409197, -0.05053833992614924
0.022097211143098563, 0.1963578835299899, -0.05099213258982543
0.022369965852520848, 0.19345450901792416, -0.05167375173043858
0.023369510522312373, 0.19295834938036105, -0.05137576546898357
0.020597603217425917, 0.19131875623002098, -0.05303329571519222
0.03510635275112708, 0.20197094818350453, -0.04096579890215365
0.034566587138478086, 0.20289176734563105, -0.04102427068969289
0.03511236903092811, 0.20430286823929067, -0.03989358905289559
0.034179358795366974, 0.2022212046167195, -0.041675228938490634
0.027420631082912983, 0.19655044225325238, -0.048374674605001
0.029890929524435447, 0.1929312699281815, -0.04787941033697331
0.03166433838508027, 0.19740165093110135, -0.04540249164436594
0.030190672541548468, 0.19738373454795088, -0.046351275450194115
0.027141051553122228, 0.1887388004054088, -0.05089803692477814
0.022574076146610753, 0.16870870256369738, -0.056986887356700926
0.020400785818186697, 0.1770289027747523, -0.05652504295173645
0.021163615494472265, 0.17866597279936783, -0.05591640411140855
0.020768884888501087, 0.17971618316831858, -0.05591047837490322
0.023831331955876157, 0.17834362111606913, -0.054810632185335086
0.032454577609150256, 0.18828700283331876, -0.04763201902353424
0.03265450049784041, 0.1961582994052733, -0.04514175681124544
0.03098295651254329, 0.18313902623989708, -0.050119095973873276
0.0308987303154866, 0.19022006630294558, -0.048047906627841495
0.030314945372748273, 0.1823684480212907, -0.05077800443981983
0.0423120243585962, 0.18352509735061892, -0.04105783816311834
0.03932905090376723, 0.18993626366151545, -0.041541867464903307
0.036731017710727454, 0.18436250347659044, -0.045735216246412705
0.0412440526125898, 0.18707752724778492, -0.040806177829636414
0.04053869784665555, 0.19000538972280814, -0.04044335217124108
0.03025154991436295, 0.17885647429445767, -0.05150466620483113
0.03218683937806473, 0.17483282015719115, -0.051006634079142785
0.030833354021867217, 0.17273076158281578, -0.05226017702349432
0.028084173334195845, 0.18041058235554117, -0.05260601118940707
0.03254011093176849, 0.17543767338627192, -0.05066910032816607
0.03534494046130042, 0.1817462062144017, -0.04771186607471277
0.038054410985855144, 0.21288633963895295, -0.03272697471205985
0.042612974411066235, 0.2035018726797451, -0.032217191847180165
0.0397866043391883, 0.21295853023053277, -0.030568736248257126
0.0508422126595298, 0.18423556871713778, -0.028996032576003087
0.04924015204110762, 0.18205273833503632, -0.032831993570150306
0.04916469677786393, 0.1838712071229839, -0.03205139492426812
0.04951716279237568, 0.18265576823518026, -0.03205584796912011
0.05128635528404494, 0.1832293220042498, -0.028738807536807725
0.035243148279035255, 0.19722183830230922, -0.04271060553618246
0.036593338969108546, 0.19458908040554662, -0.04240053308980027
0.03516929215288569, 0.19306206102327203, -0.0441824457087866
0.0363470191654638, 0.18932322936269694, -0.04439956482747073
0.03618916468228119, 0.19391298355435233, -0.04298831985496381
0.04016059857049927, 0.1978704169116509, -0.037988325877733035
0.044889282838076784, 0.18794456168813686, -0.03616329924369603
0.04601680792808355, 0.18216036855160928, -0.0370916457832436
0.04273060472237963, 0.1872082270470632, -0.03909812494213179
0.043535505673748295, 0.18621709936322622, -0.038508814979930486
0.03700597339380861, 0.16899623060750985, -0.04898288153042389
0.038355842001354876, 0.1811666351308951, -0.04525878175696031
0.03817931031539976, 0.16520499611580425, -0.04872636483533108
0.036847522492955004, 0.17820908056966556, -0.04721283322331096
0.03608259513610378, 0.18151677836069868, -0.0472066436665548
0.040757077612908865, 0.1745471102034887, -0.044497524442192474
0.04703787904806872, 0.17102242650690372, -0.038589317618251115
0.048632156619653144, 0.16678463490629544, -0.03767622578972673
0.04319196912437178, 0.17870402626073922, -0.04141411447912666
0.04538686377154926, 0.17283531714572198, -0.04016545236509997
0.04657166874963028, 0.16791441016081196, -0.03992056063613848
0.0477977487095295, 0.1628361728458368, -0.03966368612287888
0.045900919272908305, 0.1881582662194961, -0.034840342623461557
0.04425827195049755, 0.19878366716530438, -0.03261061973953741
0.04590990319530091, 0.18981000896965144, -0.03417032179227834
0.04367152485541378, 0.1960610067897466, -0.034414795085106836
0.054605411352182595, 0.16435899822249683, -0.029079255826690024
0.05147019542810746, 0.17216974066946258, -0.03205115164220715
0.050359337085083763, 0.17297687648095578, -0.033705930528051625
0.05227945296588653, 0.17077312399841635, -0.03109388079261059
0.049638571643921166, 0.17518280237171366, -0.034263199001553904
0.05211227662145, 0.1648065662248166, -0.033211824664163586
0.042122795161875275, 0.21217426941401368, -0.02776101544675454
0.044432574466878656, 0.2088701657164189, -0.02604238415399133
0.04561110365586135, 0.209144675486509, -0.023838043512706346
0.043005155603555424, 0.21131340109477784, -0.026832723074886176
0.04609939120909537, 0.21437414664109045, -0.01822392979385322
0.0510247222940475, 0.20346250513662786, -0.015817572318905865
0.05031262518116259, 0.20511910540227027, -0.01609097646926813
0.05788459448839338, 0.18223293127824608, -0.011014720826207147
0.05616483603795706, 0.18527453475278416, -0.015323032645381858
0.055946650381812894, 0.18461520633769726, -0.017108641217993274
0.055485190430190255, 0.18747715408751686, -0.015839566142318868
0.055242962454540946, 0.18804235495036267, -0.01628423799329902
0.05594843361823691, 0.18813284118983095, -0.012930584811395184
0.05250363995640553, 0.18778283839097765, -0.023835298653116486
0.05246760794876822, 0.19058965235390046, -0.021972554317860254
0.051229264255353735, 0.19483228652399723, -0.02220849612071034
0.050822007367024635, 0.19832185406659614, -0.020826919510786635
0.05236429045958333, 0.18452924248238337, -0.02624225836305561
0.051509826035885345, 0.1876863937552359, -0.02612608725297797
0.048341342090478676, 0.19842711097762522, -0.026178858255361787
0.050114843413991084, 0.19065209292316107, -0.02703143702828325
0.04980716639585674, 0.19075085668677438, -0.02750897471776428
0.053937907195681395, 0.19222907265226014, -0.017040452459326994
0.055252490866804636, 0.18219346814309645, -0.020644186409353102
0.05312928771168954, 0.1890111831650211, -0.02136678935384343
0.05616756122665509, 0.1824297755071265, -0.018120850375250578
0.05530310266117584, 0.18233908930264758, -0.02041226895714737
0.05858091537517986, 0.16203119576362476, -0.020728485807854788
0.058633868390271966, 0.1622102067574588, -0.020515469391959765
0.055675185195636245, 0.17093735570023913, -0.024410938110640497
0.05843312400893127, 0.16379527263517285, -0.020355302570618152
0.056363306016297424, 0.16390262337948858, -0.025644537445635746
0.057279381340341134, 0.16657306315854536, -0.02214168783843247
0.060013915206638714, 0.16230981465288452, -0.015800452701525237
0.06095168404076368, 0.16200457030271012, -0.011707167269689227
0.059614928098535254, 0.16180450063829652, -0.018003983361152325
0.06068679907039312, 0.16388527702218256, -0.011558198322893128
0.05943495756775781, 0.1684954048934364, -0.013965701564502714
0.05845981682772383, 0.17000094993326761, -0.017357954159500467
0.05390733567374348, 0.201666260704831, 0.0006197367702993121
0.050429601943512196, 0.21120788060302564, -0.0033807482627898748
0.050013587250689696, 0.21206188388476307, -0.005598135659460564
0.056470003987108275, 0.19032715451309923, 0.00567954045169908
0.05861139968602222, 0.1825175112816885, 0.003974509326443298
0.05646329456036442, 0.1912532108203082, 0.003397271769755741
0.05679548407118984, 0.1903772797829253, 0.002281353025841151
0.05853134215862782, 0.18220866964028715, 0.005562698665120628
0.05085215653776131, 0.20696897010847748, -0.011044948525482073
0.048726832764808554, 0.21220420045043834, -0.012426132211083097
0.051391982160182245, 0.20713908318255714, -0.008287923308327
0.051626521059027715, 0.20625703790553515, -0.008623716598943829
0.05675416365322015, 0.18973035083556636, -0.005178026598236473
0.055620306458957894, 0.1939618932247217, -0.006387086965759242
0.05743984179425757, 0.18694457999003494, -0.005460860247105833
0.05834641601741382, 0.18359380005673936, -0.004348671502905406
0.05710769965084508, 0.1889155931696068, -0.0025451699329503454
0.05393202282783799, 0.19713921761473402, -0.011533350161876775
0.05768208115601375, 0.18462730694717894, -0.00910831532373597
0.054445968931607025, 0.19681414713496803, -0.009553682014627824
0.0566234213267685, 0.1884827588068953, -0.009409705313729661
0.05475308119835116, 0.19537851424940472, -0.00984223580816948
0.05980269244215253, 0.17393473567246784, -0.007697688322396572
0.06173395454640088, 0.16326375289972556, -0.002687801610450987
0.05956369127016013, 0.17547863425612312, -0.007705092513540623
0.060724805590601005, 0.1696563481333055, -0.003065513765583237
0.06022109581370353, 0.17232367605947016, -0.0046900166112476644
0.06120103180517889, 0.16498342655694412, -0.007430324438637853
0.057544489343713465, 0.1878499808307351, 0.00044408234219432176
0.0565533403802292, 0.19161181274745664, -0.0003316957472655088
0.055908216006147496, 0.19409043214728647, -0.000702085735702321
0.055238181873159445, 0.1969118676734044, 1.792823942833215e-05
0.0610685593222806, 0.16316904893657397, 0.00988200633988915
0.06037223890367968, 0.1709076552692636, 0.0048321838823953646
0.06019642403707753, 0.17338996643798296, 0.002734543153379358
0.061546384684477186, 0.164429871221458, 0.0031169996808072535
0.061764142220578536, 0.162623526552862, 0.003740747112380657
0.06002758803484856, 0.17352579567398912, 0.004219866544420647
0.050514897982300334, 0.20303833646621772, 0.017249821762141584
0.049721158879683654, 0.20809635983206135, 0.013499252964208501
0.04920280757715111, 0.2111827859292278, 0.011340399152889443
0.04705584025344523, 0.214380949802586, 0.01524571237409305
0.05326665934771779, 0.19180042312893814, 0.018771064884333555
0.05214003263323369, 0.19461983918015743, 0.019583824981487506
0.05295410811780944, 0.19071908335379087, 0.02016619625694699
0.05331338230692091, 0.19051684270003402, 0.01946962361091431
0.05331821807373709, 0.18999049277040164, 0.01978890924273089
0.04996104770454791, 0.21186684245775067, 0.005608190508766272
0.050970882718332174, 0.20827423727871586, 0.007796556539710441
0.04938997751011419, 0.21348867200493699, 0.00577803259796856
0.051047383988768055, 0.20821925931479623, 0.00721649479274929
0.05559620674694279, 0.191547710577189, 0.010379523108397622
0.05584365911721839, 0.1898997634966213, 0.011067343300655296
0.055632361510886935, 0.18648815643900943, 0.015252104738635485
0.05525804458446815, 0.1900954141480155, 0.01310801244283214
0.05560605731200563, 0.19051842358271265, 0.011361252055716075
0.05509947210352359, 0.19501140503649506, 0.0075677753157451025
0.055412319003983565, 0.19480788339260657, 0.004940059434313523
0.05397698148789151, 0.19915961154329753, 0.008323329307855478
0.05449912896905416, 0.1983885024748829, 0.005032311487701102
0.05931029447261313, 0.16594052809193316, 0.015410769804601274
0.059976860338082104, 0.16303290365466871, 0.014634233644652241
0.059856781580771165, 0.16239798254689886, 0.015478195561559245
0.059107536837993135, 0.16505682085505907, 0.01672136556630796
0.05905948341843213, 0.1740242166453801, 0.011455842122571185
0.060469858524475145, 0.16619993928534937, 0.010828794658780068
0.05670567853183159, 0.16469469626499406, 0.023697185168389198
0.0570589130508554, 0.17189438543094407, 0.02011484113281367
0.05800283871114591, 0.16258363219125685, 0.021536924806313668
0.05704711192861647, 0.169142028334625, 0.02120185612743674
0.05737999403686719, 0.16469435201165494, 0.022151700826670367
0.05636347788541868, 0.17361764155797865, 0.021045220651268425
0.05419550854588492, 0.1932980841753284, 0.013990483843541972
0.053503747049669675, 0.1917568242926979, 0.018156180982435387
0.05332298317746631, 0.19561840567435168, 0.015021741563070476
0.054658262490455835, 0.18807846249747448, 0.017393874883336845
0.05382149591570278, 0.1971192325654026, 0.011633416744995266
0.04364193186150976, 0.1967222578414147, 0.033839733834482966
0.04414627887204229, 0.19155987313385348, 0.03522672613952348
0.04509842608246818, 0.19053634108763057, 0.034536720770389114
0.046108016035899056, 0.1824211237041588, 0.03647159207372218
0.04262763741191463, 0.18397023927678796, 0.03982528035579115
0.04332013670744292, 0.21345272777629068, 0.024472832775159863
0.043327473623248285, 0.21448955512294074, 0.02380698570436611
0.04306168482325804, 0.21308172922654503, 0.02511169119898586
0.04901890585610398, 0.1845168157157936, 0.031294672372036654
0.04948467223915917, 0.18470702264403166, 0.030476618950478165
0.04803363201172627, 0.1867892721949196, 0.03177782350219294
0.04741239068418638, 0.18527867014555638, 0.033455077173846506
0.04928579635119791, 0.1939065189179018, 0.02649805231028962
0.048874605432103, 0.19244610504132945, 0.027822978956902486
0.04770052012125867, 0.2010665896345255, 0.025429480243779053
0.04481127462600125, 0.2142196946160589, 0.020879032840018366
0.046486920042610735, 0.210453631471594, 0.0202373128160208
0.05277819895240923, 0.16404212521936798, 0.03171454317030147
0.05065912497666981, 0.16648341387241938, 0.03433436928213036
0.05200010944396981, 0.1644498996657618, 0.03281630829926572
0.05349067836964112, 0.17036971297875114, 0.028788375317620483
0.050010641103687664, 0.16338942847839422, 0.03623511522868397
0.05074856821820745, 0.17089669923082437, 0.03293156311841343
0.05085034935534903, 0.19163634852676958, 0.024412590696461355
0.05114273058250088, 0.1944626154380137, 0.02196847142578067
0.05181132973279652, 0.18767551147181966, 0.024695953657561
0.05149396547426298, 0.19116022289654502, 0.023236177085653172
0.05180919471860331, 0.18325668272954457, 0.02747437774816217
0.046356426477289624, 0.19856073303293598, 0.028914835575219677
0.045752303411020226, 0.1892590878069887, 0.03419847224423925
0.04671738966833939, 0.1957803184321172, 0.029646179631142973
0.046369014334799376, 0.1956352230672675, 0.030259372754774437
0.04438116355744525, 0.1670227489566034, 0.04206833408711927
0.047598132681921826, 0.17032339489902976, 0.0376571777173143
0.04381907678050068, 0.1625213275677511, 0.04375248203878235
0.04710833726673262, 0.16611634819069349, 0.039190950421955015
0.044580715914324345, 0.16784399710592413, 0.04165122447579121
0.04721312121995912, 0.17447834557259903, 0.0371261865564688
0.02791021462316764, 0.18706563800423165, 0.05044418107702718
0.02854933676628476, 0.19114738731302539, 0.04887258187530937
0.030415174563816243, 0.19413283945370158, 0.04689467852164183
0.03042899248577988, 0.19175590459235234, 0.04758120133822794
0.029727888232177153, 0.18274222258540362, 0.05063097944572233
0.03285995470593873, 0.2127844147131962, 0.037655790244300304
0.029657963859307607, 0.21209940764791305, 0.04060204237195546
0.030169459691372143, 0.21047944369676558, 0.04089400135220475
0.03117690635471766, 0.2022572685820431, 0.04368775947415648
0.03843715492523124, 0.18274377324430163, 0.0443347415311109
0.03565755322875859, 0.18544659953286716, 0.045749490296030856
0.03734418320498081, 0.18906745823984467, 0.04317690663330993
0.040505451682822095, 0.1839854435349725, 0.042222175112756444
0.03785415517697596, 0.18903305824022382, 0.04276698003608803
0.03764262194599949, 0.20480223512623497, 0.0368964340366689
0.036748811074206106, 0.21059482965449383, 0.03493500614858684
0.0377311411040256, 0.21222187063801656, 0.03298734605419751
0.03840154561010356, 0.20923741795629924, 0.033760216363116435
0.04185829851120068, 0.19641132466082128, 0.03597751738619378
0.040801262016958606, 0.19788085493163265, 0.036617141040873116
0.04189942894024937, 0.19562374234411842, 0.03622967457236635
0.0397886397740652, 0.19555236749784244, 0.03864707950453709
0.03694516916417166, 0.1669169363113192, 0.04882088251152597
0.03781166669828637, 0.16390604143288112, 0.04870726340712568
0.03883013907003438, 0.16803707739289753, 0.04704034934113223
0.03906183343787831, 0.1691871959796486, 0.04661908890469378
