-0.1641839600932244, 0.2713399054810378, 0.15345020592212677
-0.08494939474143615, 0.34592104527108375, 0.15345020592212677
-0.08850359917533962, 0.37357649801313136, 0.15345020592212677
-0.05602657416092341, 0.2932503911037124, 0.15345020592212677
-0.08164541391755585, 0.3702827947209514, 0.15345020592212677
-0.07366400156189555, 0.3465929127611483, 0.15345020592212677
-0.1987230173590087, 0.2883085455414406, 0.15345020592212677
-0.19600722129969, 0.29813467320999476, 0.15345020592212677
-0.1502956855357498, 0.27714173855748914, 0.15345020592212677
0.001569237029093968, 0.35915923099356584, 0.15345020592212677
-0.07769296741753759, 0.359659368293658, 0.15345020592212677
-0.1354180311477004, 0.31980871648282877, 0.15345020592212677
-0.14332467106181906, 0.32891205555819514, 0.15345020592212677
-0.1328886643323698, 0.37502199983380646, 0.15345020592212677
-0.11137937878750354, 0.3530546455803577, 0.15345020592212677
0.05263641976754373, 0.3556053734754625, 0.15345020592212677
-0.02425088892345747, 0.37432910739789715, 0.15345020592212677
-0.1240746947230314, 0.28100786133673883, 0.15345020592212677
-0.13888801715449167, 0.3090674494866644, 0.15345020592212677
0.0003118914165050751, 0.3517051344960072, 0.15345020592212674
-0.10014636496655344, 0.2937807291887078, 0.15345020592212677
-0.005172564214245889, 0.30363890561951623, 0.15345020592212677
-0.08961882727279745, 0.37745281678421394, 0.15345020592212677
-0.02783060954534459, 0.3730604426139853, 0.15345020592212677
-0.12839271083304443, 0.2821860794199181, 0.15345020592212677
0.046928929581328035, 0.33533915776466483, 0.15345020592212677
0.019226648207650597, 0.34502437577309103, 0.15345020592212677
-0.04547100944744589, 0.2900583710390945, 0.15345020592212677
-0.19451196656305622, 0.3396471629895927, 0.15345020592212677
-0.15583314523698524, 0.26351490249466536, 0.15345020592212677
-0.17805138067326634, 0.2579917130655666, 0.15345020592212677
0.031596240139990794, 0.34064638045593854, 0.15345020592212677
-0.14934985968840986, 0.26241460673630096, 0.15345020592212677
-0.14191795552551534, 0.3294132273351347, 0.15345020592212677
0.07049000218627008, 0.3510440455558109, 0.15345020592212677
-0.09751322400621995, 0.34366080365508017, 0.15345020592212677
-0.18917422589055644, 0.37019017485622707, 0.1534502059221268
-0.007839610089453573, 0.3620705351326308, 0.15345020592212677
-0.16712406566766214, 0.33374437414429126, 0.15345020592212677
0.012831201897958638, 0.3547798881759469, 0.15345020592212674
-0.187494232998097, 0.2895844511154668, 0.15345020592212677
0.08644257585032983, 0.3491430995113213, 0.15345020592212677
-0.013514343007675653, 0.36678234870909926, 0.15345020592212677
0.033471923566145145, 0.34517699683015124, 0.15345020592212677
0.08303257044004034, 0.36218854162272196, 0.15345020592212677
-0.10449444348317985, 0.3368632793240572, 0.15345020592212677
-0.08399698695020387, 0.3340078415675181, 0.15345020592212677
0.022705694946786058, 0.3770988459034793, 0.1534502059221268
-0.08264051080669674, 0.3001476333613694, 0.15345020592212677
0.006781717931940861, 0.3764599157152784, 0.15345020592212677
-0.020999701401424917, 0.3096582563966269, 0.15345020592212677
-0.03590247930620881, 0.29740755596534496, 0.15345020592212677
-0.17046306134612615, 0.32780805104847965, 0.15345020592212677
-0.019988239133521934, 0.30501591908389897, 0.15345020592212677
-0.02881485401296366, 0.2975696801712233, 0.15345020592212677
0.11275494648372456, 0.353999229908971, 0.15345020592212677
-0.12926052600514634, 0.2538788114485589, 0.15345020592212677
-0.16770366704088782, 0.23715261403357737, 0.15345020592212677
-0.1109556875036074, 0.25505783633899787, 0.15345020592212674
0.14183569927282413, 0.3004113408335858, 0.15345020592212677
0.1568879048745081, 0.24674617829047588, 0.15345020592212677
0.06067778646845959, 0.32697530441031275, 0.15345020592212677
0.05744608494697778, 0.31514264339730225, 0.15345020592212677
0.13790894636022816, 0.2485472418680545, 0.15345020592212677
0.1799939860555561, 0.2941532659119981, 0.15345020592212677
0.18025466660354567, 0.2758069753226299, 0.15345020592212677
0.04311319201323639, 0.3114836206148094, 0.15345020592212677
0.05221369578697793, 0.3131356726890613, 0.15345020592212677
0.016107205563029553, 0.31145216207553916, 0.15345020592212677
0.14920040422939865, 0.2581152008450422, 0.15345020592212677
0.016052567429310813, 0.2935208397277518, 0.15345020592212677
0.13323573163506175, 0.28985593665861087, 0.15345020592212677
0.13245143722909578, 0.26457734996349935, 0.1534502059221268
0.1476878359585982, 0.2703039340428407, 0.15345020592212677
0.19103291286948745, 0.2494466067637247, 0.15345020592212677
0.1165700046292622, 0.3229045303594883, 0.15345020592212677
0.04473972618449177, 0.3048535258201239, 0.15345020592212677
0.03370525319578614, 0.24196255605408248, 0.15345020592212677
0.11389798503700585, 0.34583445074985997, 0.15345020592212677
-0.0030924481073144883, 0.2769310401458562, 0.15345020592212677
0.004459082783220769, 0.2826563735720108, 0.15345020592212677
0.1043244251585166, 0.24305052940555466, 0.15345020592212677
0.033350309156268264, 0.2950133966639603, 0.15345020592212677
0.0016271290767197744, 0.30191932261793014, 0.15345020592212677
0.08262650994579845, 0.2904725772208224, 0.15345020592212677
0.13320703106221252, 0.29776990388642555, 0.15345020592212677
0.07462583744338225, 0.23459791167829305, 0.15345020592212677
-0.13271266153391822, 0.23875689754280263, 0.15345020592212677
-0.10943557111282164, 0.23240250478884214, 0.15345020592212677
-0.012694890493463756, 0.25424754720613185, 0.15345020592212677
0.014945590084806074, 0.2925654792574988, 0.15345020592212677
0.020550254304466956, 0.30250832272055894, 0.15345020592212677
-0.11282060203405356, 0.25977934728135577, 0.15345020592212677
0.15456350999949459, 0.2904127452567832, 0.15345020592212677
0.1597018853517624, 0.2702857933058721, 0.15345020592212677
0.1445946719765426, 0.3574452891997737, 0.15345020592212677
0.11118550409346123, 0.3281213741691391, 0.15345020592212677
0.10216745519448042, 0.2690126462697612, 0.1534502059221268
0.1201529143167976, 0.2406956043594922, 0.15345020592212677
0.10938136438185184, 0.24199227485007405, 0.15345020592212677
0.007836850027662084, 0.25293289020979015, 0.15345020592212677
-0.006373912066836185, 0.2890544457996846, 0.15345020592212677
0.19565147234936098, 0.25636220340458354, 0.1534502059221268
-0.06504785384175416, 0.24793714855056254, 0.1534502059221268
0.09020196906519494, 0.2626442456794406, 0.15345020592212677
0.07756039010434093, 0.31317385246194107, 0.15345020592212677
0.17174608510233474, 0.35553370000263523, 0.15345020592212677
0.12608981539306988, 0.3303654165788751, 0.15345020592212677
0.010151088597499865, 0.2555833705914118, 0.15345020592212677
0.19628935826080782, 0.23617156475859535, 0.15345020592212677
0.1522939929661457, 0.3292191709459577, 0.15345020592212677
-0.15288474942368555, 0.24077565571906434, 0.15345020592212677
0.004465702394301996, 0.30150978169104586, 0.15345020592212677
0.03499155287696518, 0.25999490373653616, 0.15345020592212677
0.10148917153680226, 0.23639550185894337, 0.15345020592212677
0.1042226380268535, 0.2566319338109695, 0.15345020592212677
0.16236729544836814, 0.3384622147743613, 0.15345020592212677
0.12484546627849472, 0.313218239458117, 0.15345020592212677
0.16759724570794132, 0.2993633608312028, 0.15345020592212677
0.051849716551791956, 0.27830624135578497, 0.15345020592212677
0.1587939509195192, 0.24230055699635217, 0.1534502059221268
0.10441653018452313, 0.2906057076997056, 0.15345020592212677
-0.08989906720483114, 0.25286021126437785, 0.15345020592212677
-0.0036173836022170905, 0.24382168761723627, 0.15345020592212677
-0.07428294909461744, 0.2661726312273871, 0.15345020592212677
0.06481094182696381, 0.2577126950525934, 0.15345020592212677
-0.06039003861545213, 0.3763746823920418, 0.13845115900039673
0.0354145340637866, 0.3481401849788805, 0.13845115900039673
-0.01654729254649516, 0.36956156585952027, 0.13845115900039673
-0.03474471741054977, 0.34028860369689085, 0.13845115900039673
-0.14709508426038403, 0.3194790659811694, 0.13845115900039673
-0.11376457750040572, 0.295703220527225, 0.13845115900039673
0.006920625646934311, 0.3112383955693189, 0.13845115900039673
-0.08264810908871484, 0.2991460336571676, 0.13845115900039673
0.1036297115678429, 0.3461162708866808, 0.13845115900039673
-0.08950878656134992, 0.3728161494863189, 0.13845115900039673
-0.1418782269386761, 0.32696378378560376, 0.13845115900039673
-0.14919122722321257, 0.26468262084105726, 0.13845115900039673
0.0954405559477727, 0.3609765378888156, 0.13845115900039673
-0.17406948912496395, 0.342542042039828, 0.13845115900039673
-0.07410327921190574, 0.28567034081440845, 0.13845115900039673
-0.13789809839470257, 0.27281669619788385, 0.13845115900039676
-0.054762252855410073, 0.29477113417710255, 0.13845115900039673
-0.17639879269656944, 0.30698051159102985, 0.13845115900039673
-0.14608728802839416, 0.31232385596525547, 0.13845115900039673
0.013384834421515404, 0.3775968404220247, 0.13845115900039673
-0.10384503526953517, 0.31017900067752163, 0.13845115900039673
-0.18147572682416624, 0.24249774285276476, 0.1384511590003967
-0.17108590511143476, 0.26816947257396234, 0.13845115900039673
0.13188267136239878, 0.3634340367488746, 0.13845115900039673
0.09075078582531834, 0.3717588559029885, 0.13845115900039673
-0.18925454718438425, 0.3141951616725536, 0.13845115900039676
-0.10566845593389834, 0.27931892039961753, 0.13845115900039673
-0.19351334547850751, 0.35990814769999974, 0.13845115900039676
-0.05625643061016998, 0.332636063028337, 0.13845115900039673
-0.002036167843925185, 0.3689213904736769, 0.13845115900039673
-0.15842526536002852, 0.28268515559472823, 0.13845115900039673
-0.1801484621033949, 0.36062113746098506, 0.13845115900039676
-0.0542623244497763, 0.346129405835907, 0.13845115900039673
-0.13251046223063698, 0.2670656318935303, 0.13845115900039673
-0.1646442956057059, 0.3276877459067305, 0.13845115900039673
-0.19471645710567792, 0.3662428961037538, 0.1384511590003967
-0.11864586297794966, 0.3256141191043811, 0.13845115900039673
-0.14004595752462629, 0.3129428683729835, 0.13845115900039673
-0.17647898593404118, 0.24151318227267485, 0.13845115900039673
-0.10011486483614544, 0.3507874685836641, 0.13845115900039673
-0.19321345035066603, 0.2574730711382348, 0.13845115900039673
-0.18652387641971913, 0.26154117196898, 0.13845115900039673
-0.04229219305085573, 0.3234788300386012, 0.13845115900039673
-0.014337714308209112, 0.3509999703961726, 0.13845115900039673
-0.062066546364986055, 0.3053963165425896, 0.13845115900039673
0.019096575633823873, 0.34482376611745313, 0.13845115900039673
-0.01542249644762729, 0.3705058358102993, 0.13845115900039673
-0.06856519459420135, 0.29365009106890144, 0.13845115900039673
-0.127155495623951, 0.2614391897890267, 0.13845115900039673
0.004267770570893975, 0.36888579816371914, 0.13845115900039673
-0.12883634877834493, 0.2962005516794818, 0.13845115900039673
-0.014684289266741882, 0.35249516489902977, 0.13845115900039673
0.02440811193951055, 0.368529835367275, 0.13845115900039673
0.0449044980695799, 0.3291597035794043, 0.13845115900039673
-0.07970709608469784, 0.31718439725668457, 0.13845115900039673
-0.14883926750284443, 0.2618432910749718, 0.13845115900039673
0.11583989336085558, 0.3555802934212876, 0.13845115900039673
0.004921658131192622, 0.36466662897528845, 0.13845115900039673
-0.18597002997782117, 0.32773734190691417, 0.13845115900039673
0.014313123412259807, 0.3413763100576736, 0.13845115900039673
0.1416772323155576, 0.3742208399926257, 0.13845115900039673
0.02141799438791897, 0.37577568258488814, 0.13845115900039673
-0.14065883074809224, 0.35579050184980837, 0.13845115900039673
-0.14556779824903956, 0.2701866127596579, 0.13845115900039673
0.05417120673466683, 0.35364011276349566, 0.13845115900039673
-0.10748848661039909, 0.27105184974635277, 0.13845115900039673
-0.1963789172962824, 0.2919501201165688, 0.13845115900039673
-0.1468589619255806, 0.28995580752648925, 0.13845115900039673
-0.07742947855128336, 0.3297578621105227, 0.13845115900039673
-0.11979252815912758, 0.3429989993788015, 0.13845115900039673
0.14361230570323327, 0.3542998293249626, 0.13845115900039673
0.10829468052154864, 0.23162313132184673, 0.13845115900039673
0.16991690127934422, 0.3146758509517091, 0.13845115900039673
0.1654398661709394, 0.3456874901543943, 0.13845115900039676
0.19029471253529043, 0.3488642992971493, 0.13845115900039673
0.02786859328663023, 0.24224074234767004, 0.13845115900039673
-0.0419759889487597, 0.2510393220937066, 0.13845115900039673
0.12297690654764419, 0.2887354354641564, 0.13845115900039673
0.19842675846439897, 0.31530775347786183, 0.13845115900039673
0.02685824924301801, 0.24498723593802588, 0.13845115900039673
0.13599941296035054, 0.2582325689740486, 0.13845115900039673
-0.021464218111503924, 0.26197276278453374, 0.13845115900039673
0.14527718981284377, 0.28094564636686037, 0.13845115900039673
0.17024559459745092, 0.3167237414405195, 0.13845115900039673
0.09450498153767449, 0.2636385758246877, 0.13845115900039673
-0.022885219919803246, 0.25844759401167394, 0.13845115900039673
0.0323541174269939, 0.30506408587735, 0.13845115900039673
0.09577080619981973, 0.3170064052141831, 0.13845115900039673
0.1977505901629105, 0.30347728844743516, 0.13845115900039673
0.038702988973384075, 0.31147896753340487, 0.13845115900039673
-0.09030574795546895, 0.2551963853373061, 0.13845115900039673
0.14737233842253794, 0.2829212778979378, 0.13845115900039673
0.16214616211605792, 0.3293147582661629, 0.13845115900039673
-0.06631858108205359, 0.2544424990099742, 0.13845115900039673
0.13715672412558766, 0.28836272455949924, 0.13845115900039673
0.08748952982151476, 0.2369882969639595, 0.13845115900039673
0.005805233321523606, 0.3053831549248869, 0.13845115900039673
0.14231326867923946, 0.2909063955982295, 0.13845115900039673
0.08041747704502664, 0.3201250717687233, 0.13845115900039673
0.054957634734274494, 0.2839576805524098, 0.13845115900039673
-0.0900725454740211, 0.24211092746582394, 0.13845115900039673
0.16133400775005904, 0.3320852226587151, 0.13845115900039673
0.13741153010852505, 0.27468944982445614, 0.13845115900039673
-0.03148858118366006, 0.2570762555188547, 0.13845115900039673
0.08811097532978909, 0.24276077405974913, 0.13845115900039673
0.1105063636179524, 0.23720070405582866, 0.13845115900039673
0.08802707984538999, 0.23555137674604462, 0.13845115900039673
0.056630668343066945, 0.23459689077053442, 0.13845115900039673
0.10044278328654757, 0.3237570538909613, 0.13845115900039673
-0.02310514384865711, 0.2575826327483909, 0.13845115900039673
-0.012788627628396707, 0.23513734363421823, 0.13845115900039673
0.10185701745582662, 0.33571193365992424, 0.13845115900039673
0.0918261750557276, 0.32612370925475737, 0.1384511590003967
0.10619608230074586, 0.25506504117681494, 0.13845115900039673
-0.047028482412300274, 0.284563506207965, 0.13845115900039673
-0.035313340312205566, 0.25535000793847307, 0.13845115900039673
0.09769703702650218, 0.23169423307585446, 0.13845115900039673
0.09953544310640967, 0.2399328413480881, 0.13845115900039673
-0.07583738687539315, 0.2643859222903161, 0.13845115900039673
-0.04676959382039231, 0.2553436484668978, 0.13845115900039673
-0.11685631438460266, 0.2393120165092319, 0.13845115900039673
0.1019298344337081, 0.2393376064170829, 0.13845115900039673
0.09765105503111832, 0.2766024324290856, 0.13845115900039673
-0.10989179038182284, 0.25590410172136563, 0.13845115900039673
0.0159886277650354, 0.3048631174182148, 0.13845115900039673
0.012910371709974874, 0.30031382089290654, 0.13845115900039673
0.15670287123253596, 0.3194407329722689, 0.13845115900039673
-0.1761547457291184, 0.23373093221077287, 0.13845115900039673
-0.1098045893877456, 0.2518811404869801, 0.13845115900039673
0.18927468894584826, 0.2927757813699942, 0.13845115900039673
0.06125873598846679, 0.31528330917484354, 0.13845115900039673
-0.04563812140731986, 0.27026773855701436, 0.13845115900039673
0.1688928971497805, 0.3666938467612489, 0.13845115900039676
-0.15607294368486993, 0.2333471946030036, 0.13845115900039673
0.11913088912528107, 0.23303495975916383, 0.13845115900039673
0.07477869185444239, 0.31165430981741993, 0.13845115900039673
0.06982495682280357, 0.2574861497038275, 0.13845115900039673
0.18069856117866903, 0.2913162942524733, 0.13845115900039673
0.0031675018141604366, 0.2945244173125471, 0.13845115900039673
-0.013831208384021923, 0.2834131709673541, 0.13845115900039673
-0.024354489315483903, 0.3813415178463254, 0.15206858030961076
0.1223652769565911, 0.3813415215597342, 0.15044890282219398
0.010469755845501583, 0.38134152713591396, 0.14801674048065308
0.06998467400541931, 0.3813415267039722, 0.14820514051629222
0.03567837031216822, 0.38134152904655755, 0.14718337508490134
0.1517908142497799, 0.3813415181543598, 0.1519342249973621
0.030325815246597686, 0.38134154476120935, 0.14032911539795453
-0.09990679367897592, 0.38134154612220206, 0.1397354912080547
-0.12760360523416264, 0.38134154238514084, 0.1413654851953605
-0.015948454696917032, 0.3813415455732921, 0.13997490926153328
0.15589100141759446, 0.3813415464750145, 0.13958160503761508
-0.0845394651905707, 0.3813415342885643, 0.1448969689906614
-0.20000000298023224, 0.30968446322049736, 0.14817991375622677
-0.20000000298023224, 0.2788309507120947, 0.15243801101426574
-0.20000000298023224, 0.344249595276205, 0.14587444079179335
-0.20000000298023224, 0.2640360125742439, 0.1482439167788728
-0.20000000298023227, 0.2748342635821454, 0.14125085701796294
0.19999996077973548, 0.2763165558413649, 0.14508747822329698
0.19999999218484588, 0.24516000330953464, 0.1505666650230263
0.19999998807284008, 0.36917080619263176, 0.14984925159629034
0.1999999731315284, 0.34465539057917716, 0.1472424708267887
0.19999993068605948, 0.3364651475543193, 0.13983709475504402
0.11397232484581624, 0.22979121756160048, 0.13948367170688272
-0.07670820029979084, 0.22979119775831092, 0.14189355931092723
-0.03774556987008024, 0.22979119669655032, 0.14362919966993903
-0.18912244170409817, 0.22979117365950733, 0.14873322149734908
-0.17960204395001594, 0.22979118550851807, 0.1438759898973877
0.1603745911827546, 0.22979122006318653, 0.13990807183414367
0.18719368955132618, 0.22979122223472878, 0.14171186647067324
-0.006243855872752835, 0.2297911932654388, 0.1514180765404034
0.14111145705097244, 0.22979121533343383, 0.14211615292765936
0.1832883639803192, 0.22979122164986554, 0.14600609512369167
0.17010213028010226, 0.22979121967508953, 0.15226159306547926
0.16586376005907136, 0.22979121904034935, 0.15045979434603676
0.05328249366322071, 0.23048568645213713, 0.1534502059221268
-0.15254969940963825, 0.23067488429022776, 0.13845115900039673
0.20000000298023224, 0.32924079607362694, 0.1527603066875695
-0.17243662685564454, 0.38097318908460004, 0.1532787013115531
0.1994118227293827, 0.3044073179388779, 0.15340803581546486
0.04600143976320044, 0.23040306498625632, 0.1384797031780384
-0.10354619886156896, 0.38128399982755506, 0.1390133136900261
0.1997705684648321, 0.3127274518406721, 0.1387206758532595
0.20000000298023224, 0.1962650684759636, -0.11725326946106655
0.20000000298023224, 0.5393652166856472, -0.1132810467711191
0.20000000298023224, 0.4745864932935717, 0.018691422470829847
0.20000000298023224, 0.5187061565742334, -0.0682976785802914
0.20000000298023224, 0.3759040652063433, -0.034842770315753405
0.20000000298023224, 0.2233544014046387, -0.1190300426108336
0.20000000298023224, 0.13464706451122513, -0.16791338090304025
0.20000000298023224, 0.48942570444698485, 0.0359343891814255
0.20000000298023227, 0.458607106175182, -0.1180850414781759
0.20000000298023227, 0.20454032645302198, -0.16277095875813244
0.20000000298023224, 0.48023125800183275, -0.016113940549378356
0.20000000298023227, 0.49800358653502236, -0.14711033670616375
0.20000000298023224, 0.40878726513420616, 0.03332514532574889
0.20000000298023224, 0.4893618997917121, 0.02153565262385597
0.20000000298023224, 0.41829624698208856, -0.011077685268432613
0.20000000298023227, 0.31999419253316114, -0.11908899079785232
0.20000000298023224, 0.39602371533193836, -0.06709156913932826
0.20000000298023224, 0.2358610723891825, -0.16939630099492034
0.20000000298023224, 0.39262853847664675, 0.0032213079866772465
0.20000000298023224, 0.2568793951910714, -0.17391847014155418
0.20000000298023224, 0.3941588207718766, -0.13894573872646976
0.20000000298023224, 0.47904950004037106, 0.013527266282305064
0.20000000298023224, 0.526133142601127, -0.1453679809883498
0.20000000298023224, 0.31986046492684156, -0.1034846961358245
0.20000000298023224, 0.19862642063814667, -0.13774519338038915
0.20000000298023224, 0.4891954563504806, -0.06452021298375415
0.20000000298023224, 0.34066428309918595, -0.09259239153419263
0.20000000298023227, 0.44790256342119145, -0.1424907543397328
0.20000000298023224, 0.49136470877511174, -0.09447660282279154
0.20000000298023224, 0.26760966486558807, -0.13780626850019967
0.20000000298023224, 0.4575619419729977, 0.03327056464529213
0.20000000298023224, 0.3602484975340721, -0.08223558917580906
0.20000000298023224, 0.5220501586824713, 0.04004965741334252
0.20000000298023224, 0.48418707934397015, 0.06955903511492606
0.20000000298023224, 0.4462525795529162, -0.03335853502122872
0.20000000298023224, 0.34069170225307693, -0.1386226910689823
0.20000000298023224, 0.44325714153158213, 0.022411378840519677
0.20000000298023224, 0.49245721180287927, -0.13087671034696968
0.20000000298023224, 0.3300806853357353, -0.04419935791760567
0.2000000029802322, 0.4974647869675992, -0.09239538747919962
0.20000000298023224, 0.2375576399999944, -0.11376228164247061
0.20000000298023224, 0.5101337545194311, 0.09063669191781415
0.20000000298023224, 0.24221499077424266, -0.04027509329954196
0.20000000298023224, 0.19190561841237086, -0.13650841258449145
0.20000000298023224, 0.3841046007304792, -0.13704469062935165
0.20000000298023224, 0.29173174192873197, -0.07064628387948646
0.20000000298023224, 0.428864558728837, -0.0749728947050256
0.20000000298023224, 0.5397576979882033, -0.019215478733719135
0.20000000298023224, 0.3121738013027642, -0.09719155127823938
0.20000000298023224, 0.4672970384148757, 0.05377270164423675
0.20000000298023224, 0.34126528669990963, -0.0752063711090589
0.20000000298023224, 0.4574437954510601, 0.05556524157875531
0.20000000298023224, 0.4091706960028549, -0.13091694345048188
0.20000000298023224, 0.3056440189236988, -0.049250918602566064
0.20000000298023224, 0.4830562820141713, -0.09283873299697157
0.20000000298023224, 0.4270920074687514, -0.10191324990689217
0.20000000298023224, 0.32882126274967877, -0.10586947020861592
0.20000000298023224, 0.08230249322637412, -0.1589000610601662
0.20000000298023224, 0.47195321666205764, 0.0261188631684538
0.20000000298023224, 0.2613516775850904, -0.1187480236809522
0.20000000298023224, 0.26221064489214696, -0.15465629174612117
0.20000000298023224, 0.3848261839992843, 0.020122354758138658
0.20000000298023224, 0.41455480546510615, -0.04887807747669886
0.20000000298023224, 0.16495237897046008, -0.1297586546103361
0.20000000298023224, 0.543223525928306, 0.008161749947575694
0.20000000298023224, 0.48237503760050254, 0.014073330636557801
0.20000000298023224, 0.33478191320262374, -0.06759291401434976
0.2000000029802322, 0.3799410783078928, -0.17024097716746467
0.20000000298023224, 0.28736973587287984, -0.13762260919510708
0.20000000298023224, 0.4049759466820368, -0.15101084949594837
0.20000000298023224, 0.17912551803396543, -0.1276816409244469
0.20000000298023224, 0.5404507766739594, -0.1718098718049961
0.20000000298023224, 0.4255734953111057, 0.05022556105211781
0.20000000298023224, 0.47448126804605845, -0.16723065565808584
0.2000000029802322, 0.2671292422508579, -0.13191121097645186
0.20000000298023224, 0.4443009607759445, 0.017232845553716652
0.20000000298023224, 0.41808229307808914, 0.06329199144183024
0.20000000298023224, 0.3005034706419755, -0.13689560483126403
0.20000000298023224, 0.42299637212508334, -0.10032948899684756
0.20000000298023224, 0.4109089530858891, -0.10495105042297476
0.20000000298023224, 0.49416414809130316, -0.08736746924140207
0.20000000298023224, 0.43611245582476593, -0.11992804796077236
0.20000000298023224, 0.30439964315390056, -0.1137592984844085
0.20000000298023224, 0.2412980287445285, -0.13483099040311694
0.20000000298023224, 0.3889657023045077, -0.12943865368577406
0.20000000298023224, 0.19866820973174218, -0.07807640830049384
0.20000000298023224, 0.5388458337294938, 0.033077957539139315
0.20000000298023224, 0.3205369871162753, -0.03220387015974327
0.20000000298023224, 0.3195921800172748, -0.1632801122993709
0.20000000298023224, 0.5421411435111391, 0.05764104940695636
0.20000000298023224, 0.306254558415751, -0.1241274204665756
0.20000000298023224, 0.4357337863349645, -0.11113004540821333
0.20000000298023227, 0.40061723716370035, -0.179110767454456
0.20000000298023224, 0.45769593997283825, 0.01763322112108326
0.20000000298023224, 0.22634913329035108, -0.09331476983128859
0.20000000298023224, 0.2956174254766337, -0.17633522404881213
0.20000000298023224, 0.42176410164506783, -0.018845124735992105
0.20000000298023224, 0.3743910797882806, 0.0028653812691534913
0.20000000298023224, 0.5270156840331139, 0.04363760507796339
0.20000000298023224, 0.4334320269757908, -0.15202597817489844
0.20000000298023224, 0.3306008589149738, -0.04705888793000924
0.20000000298023224, 0.315063769397085, -0.06946442798766295
0.20000000298023224, 0.33673239151065903, -0.13194987852813694
0.20000000298023224, 0.4955727181074333, -0.046400146216519236
0.20000000298023227, 0.524716622060409, 0.07810761286860411
0.20000000298023224, 0.5171647147774541, 0.10584901080948073
0.20000000298023224, 0.34479821753183293, -0.024181484807987208
0.20000000298023224, 0.27643063980543303, -0.07925908791017834
0.20000000298023224, 0.1926052465617198, -0.13527672710977034
0.20000000298023224, 0.2231314283969169, -0.060888799559618643
0.20000000298023224, 0.32403310469490826, -0.03820129690347981
0.20000000298023224, 0.40865002675437345, -0.028165304169889105
0.20000000298023224, 0.38060248694959015, 0.027717964994546027
0.20000000298023224, 0.4852144896916708, -0.08120951434010923
0.20000000298023224, 0.2848869819127779, -0.11657189242522314
0.2000000029802322, 0.19593501117969434, -0.17477822399190193
0.20000000298023224, 0.29323351256717567, -0.11610775183521906
0.2000000029802322, 0.07418002794022413, -0.1415115594160422
0.20000000298023224, 0.5240552973710809, 0.11093024384537828
0.20000000298023224, 0.3211564101952293, -0.031949208183885525
0.20000000298023224, 0.3774309815848787, -0.14631727659701066
0.20000000298023224, 0.30082195984160937, -0.1773226639584284
0.20000000298023224, 0.4341114580011163, -0.1767438543423033
0.20000000298023224, 0.21678701655917387, -0.05787056805373191
0.20000000298023224, 0.42621875991397096, -0.07523454693778911
0.20000000298023224, 0.4830938467165844, -0.047348550427814336
0.20000000298023224, 0.21651561633481442, -0.17670581701955548
0.20000000298023224, 0.3026745562791122, -0.06759890366966274
0.20000000298023224, 0.5421458045700849, 0.09523804659416688
0.20000000298023224, 0.33153025169655315, -0.03362978116860732
0.20000000298023224, 0.5193011031087705, -0.016633132461569694
0.20000000298023224, 0.2807706296853494, -0.12829843429891347
0.20000000298023224, 0.322489125879556, -0.02442218336126112
0.2000000029802322, 0.250883051382339, -0.17000158921238062
0.20000000298023227, 0.4950197287272259, -0.08198192306088845
0.20000000298023224, 0.48747963370811115, -0.15903685118744215
0.20000000298023224, 0.3502683678895718, -0.02056654757483456
0.20000000298023224, 0.2364287434712962, -0.087962711371146
0.20000000298023224, 0.36069858426960755, -0.12953120166424348
0.20000000298023224, 0.32555328625353436, -0.15587730122958873
0.20000000298023224, 0.25853420763915824, -0.12836654282906407
0.20000000298023224, 0.2101818166573255, -0.1206855608525674
0.20000000298023224, 0.49192581073121067, -0.050381210033828984
0.2000000029802322, 0.5310481474305428, -0.06309500807298754
0.20000000298023224, 0.5344706159838479, 0.08347888221229885
0.20000000298023224, 0.3072767220649501, -0.0008166218579987311
0.20000000298023224, 0.45901433224415555, -0.02566486936966965
0.20000000298023224, 0.1427771677743669, -0.09778290959178815
0.2000000029802322, 0.11570871558860024, -0.16367932283143996
0.20000000298023224, 0.4114296409933784, 0.025693615889323992
0.20000000298023224, 0.5425739022072189, -0.1264711952992087
0.20000000298023224, 0.36350759562186014, -0.013529538685129142
0.20000000298023224, 0.2916563973955988, -0.1785156513474715
0.20000000298023224, 0.48716098027840327, -0.1387865972420455
0.20000000298023224, 0.2942613775612814, -0.10528586707806468
0.20000000298023224, 0.5306257572554663, 0.052279388655702294
0.20000000298023224, 0.3201359927563645, -0.023440280966205318
0.20000000298023224, 0.32859974886586124, -0.033221904952105974
0.20000000298023224, 0.22739381817066473, -0.16917376692229658
0.20000000298023224, 0.448956232102693, -0.10313957458597309
0.20000000298023224, 0.30671498959491494, -0.16030752824783787
0.20000000298023224, 0.42135235634496576, -0.021796137559680157
0.20000000298023224, 0.43821253710423635, -0.147767441209146
0.20000000298023227, 0.5059630686632569, -0.1039141686589955
0.2000000029802322, 0.16297192851996334, -0.15339891720527843
0.20000000298023224, 0.4214650042662186, -0.031213490923833367
0.20000000298023224, 0.5340157026476304, -0.05251282553045462
0.20000000298023224, 0.5110443477750168, -0.044020418841067985
0.20000000298023224, 0.2430116148098741, -0.12532222390500414
0.20000000298023224, 0.4044737855416497, -0.03786121059712257
0.20000000298023224, 0.5070331675184376, -0.03464202769559903
0.20000000298023224, 0.23419949763862535, -0.14676882004065456
0.20000000298023224, 0.40026736132934254, -0.014825521873808353
0.20000000298023224, 0.5007540808010393, -0.12729137958901934
0.20000000298023224, 0.4811772620123273, -0.0828261580913851
0.20000000298023224, 0.5421963027601127, -0.12554615736102603
0.20000000298023224, 0.20707827490114436, -0.07991932410842782
0.20000000298023224, 0.14832011855248003, -0.14778234808141885
0.20000000298023224, 0.5223272563676244, -0.034600555181973136
0.20000000298023224, 0.18653417081119605, -0.10456713147913285
0.20000000298023224, 0.4882492422451753, -0.0453913961441328
0.20000000298023224, 0.5162890091176516, -0.05484725631938911
0.20000000298023224, 0.21466827690790363, -0.14526565707699607
0.20000000298023224, 0.5345109635876566, 0.02401267423042254
0.20000000298023224, 0.2608417394536718, -0.05438031549078157
0.20000000298023224, 0.48894168775313984, 0.029540548668538877
0.20000000298023224, 0.363250723423965, -0.15272090512471856
0.20000000298023224, 0.4865678739975645, -0.03093156918516385
0.20000000298023224, 0.09431671695089246, -0.1667755235144245
0.20000000298023224, 0.19496928676468672, -0.06668299822485795
0.20000000298023227, 0.37669749836522454, -0.14357001554595744
0.20000000298023224, 0.43519506979622286, -0.00970625416697772
0.20000000298023224, 0.38249109836882234, 0.022139336684798006
0.2000000029802322, 0.22744659540728307, -0.1674643007420101
0.20000000298023224, 0.2454669266835241, -0.08867609116576744
0.20000000298023224, 0.2818821844866259, -0.02098749107040586
0.20000000298023224, 0.5368221802945093, -0.14665954785323418
0.20000000298023224, 0.2348186801213814, -0.07252382401761862
0.20000000298023224, 0.11084406999266777, -0.16723587641676246
0.20000000298023224, 0.50545755758526, 0.044485285846976946
0.20000000298023224, 0.2950019644274175, -0.13704564843877196
0.2000000029802322, 0.29868156211773994, -0.1397599836929701
0.20000000298023224, 0.45844907417269815, 0.11559522130020959
0.20000000298023224, 0.04885660023870825, 0.03849039140413157
0.20000000298023224, 0.49001843564295167, 0.1290033544891021
0.20000000298023224, 0.010735735561436706, -0.12014190558167867
0.20000000298023224, 0.2586453847614394, 0.11712310209179361
0.20000000298023224, 0.32993987549213993, 0.09405408324387701
0.20000000298023224, 0.20759286031233062, 0.04620688599951279
0.20000000298023224, 0.16899872610395322, -0.013562829277131178
0.20000000298023224, 0.05074009035961114, 0.07022969399634013
0.20000000298023224, 0.156931539758793, 0.07828103381714353
0.20000000298023224, 0.13193837325191776, -0.0985453334581611
0.20000000298023224, 0.14219590885596003, -0.06123522251619756
0.20000000298023224, 0.020400577471050046, 0.05800295953596442
0.20000000298023224, 0.03031404631366169, -0.1040431795884589
0.2000000029802322, 0.3417413682439047, 0.11837286291136165
0.20000000298023224, 0.09655804620219777, -0.04530372398575541
0.20000000298023224, 0.13124005638345873, 0.0706183931042195
0.20000000298023224, 0.24592258890766655, -0.031364627593602035
0.20000000298023224, 0.09502058720050928, -0.0732446200414745
0.20000000298023224, 0.018842482714464266, 0.11163282309799721
0.2000000029802322, 0.35720553792168824, 0.08723845463604644
0.20000000298023224, 0.20064831494125396, -0.026579214969944143
0.20000000298023224, 0.08762159471584614, -0.12460661004970713
0.20000000298023224, 0.1910771215607251, 0.0591971720597245
0.20000000298023224, 0.236878973340695, 0.03398721230692625
0.20000000298023224, 0.011740552692417916, 0.033119603126569974
0.20000000298023224, 0.019790819747848753, 0.00769073977548182
0.20000000298023224, 0.06565028248973115, -0.10933773289990914
0.20000000298023227, 0.1858854701066055, 0.10809212044276816
0.20000000298023224, 0.22380006473824385, -0.01678034744579346
0.20000000298023224, 0.332677014675467, 0.018994894364037188
0.20000000298023224, 0.3813937913329302, 0.06773578143890066
0.20000000298023224, 0.24829453364489226, 0.13002495921390225
0.20000000298023224, 0.2533486935464362, 0.07505860285331581
0.20000000298023224, 0.09992827806472973, 0.10852208474235314
0.20000000298023224, 0.29775032556722253, -0.0012319027435788443
0.20000000298023224, 0.27478872896935386, 0.1324559760019831
0.20000000298023227, 0.25264719422869314, 0.089567358172676
0.20000000298023224, 0.013512629625017857, 0.02555929005168299
0.2000000029802322, 0.40653344982359646, 0.08949492778564128
0.20000000298023224, 0.01017370852847458, 0.059227431748977585
0.20000000298023224, 0.2244739355073043, 0.018455374122030438
0.20000000298023224, 0.10165094259000201, 0.09468440367024131
0.2000000029802322, 0.03757123285659343, 0.07942306007496772
0.2000000029802322, 0.3459099911152351, 0.08874827035462021
0.20000000298023224, 0.19910298565836013, -0.022332035589093566
0.20000000298023224, 0.015355892040221933, -0.07779469882205918
0.20000000298023224, 0.1370728328833853, 0.09641360950467044
0.20000000298023224, 0.04305704123177796, 0.05590664518852927
0.20000000298023224, 0.0478525533761823, 0.12992334822514398
0.2000000029802322, 0.2947208689039936, 0.10470937006984109
0.20000000298023224, 0.16283476006970957, 0.08058693332942554
0.20000000298023224, 0.006965381051594538, -0.08039014590590787
0.20000000298023224, 0.08463765050714869, -0.049553781629139135
0.20000000298023224, 0.07333963491893679, -0.004235305323133515
0.20000000298023224, 0.1433649366907272, -0.08006763850492685
0.20000000298023227, 0.31591722194370814, 0.08624261106211478
0.20000000298023224, 0.375867351013033, 0.052638990934831376
0.20000000298023224, 0.48656101251497447, 0.1101555069135845
0.20000000298023224, 0.21515754251817718, 0.03479102846341521
0.20000000298023224, 0.21682758259356075, -0.02736935632543884
0.20000000298023224, 0.12487282237332582, 0.01128236682447395
0.20000000298023224, 0.08211831170355569, -0.0808752375436711
0.20000000298023224, 0.33351840716049186, 0.04207669850060996
0.20000000298023227, 0.28538892787734743, 0.06465897303421397
0.20000000298023224, 0.021825828017983585, -0.12277830555496787
0.20000000298023224, 0.007856222404170056, 0.13055326508833298
0.20000000298023227, 0.4096283730146672, 0.13261156588758238
0.20000000298023224, 0.08920086972668413, 0.1260980189055797
0.20000000298023224, 0.45270353964301885, 0.09025719529028356
0.20000000298023224, 0.14593019730083195, 0.0011315800045079843
0.20000000298023224, 0.19340328619607383, 0.07579242701993782
0.20000000298023227, 0.11100435579081971, 0.027503251842168813
0.20000000298023224, 0.19075170894306598, 0.05009627951700424
0.20000000298023224, 0.21735571843074258, 0.020764988661382516
0.20000000298023224, 0.11586390278566784, 0.08260548253226704
0.20000000298023224, 0.25524226710547443, -0.0018178055568018742
0.20000000298023224, 0.019400065246084387, -0.050540781441373514
0.20000000298023227, 0.17299244381791348, 0.13280064481406378
0.20000000298023224, 0.32844165709685014, 0.0985675455862331
0.20000000298023224, 0.3508793591446914, 0.038290990562959426
0.20000000298023224, 0.08619538086265746, -0.084115308720678
0.20000000298023224, 0.03660939095138809, -0.037059888336682424
0.2000000029802322, 0.20945002521238987, 0.05213549834178156
0.20000000298023224, 0.13527554588706764, -0.08575094931777777
0.20000000298023224, 0.07282816359409515, 0.10447480022275649
0.20000000298023224, 0.06778394995350809, -0.014191913845180676
0.2000000029802322, 0.028964491726450062, 0.061717302221745395
0.20000000298023224, 0.1933863778182679, -0.05057102824818686
0.20000000298023224, 0.10169042372764196, -0.048906064963849735
0.20000000298023224, 0.011020536924753457, -0.16545705930447524
0.20000000298023224, 0.2725812844856054, 0.07497591868751971
0.20000000298023224, 0.04124122944791958, -0.09971599212603469
0.20000000298023227, 0.24653186637873234, 0.10614831179569018
0.20000000298023224, 0.37136975141804585, 0.04399658932448408
0.20000000298023224, 0.07101119238223311, -0.055579080699414925
0.20000000298023224, 0.26827653889382325, 0.11503164179544603
0.20000000298023224, 0.0904110900476732, 0.12974488456087074
0.20000000298023224, 0.1626440970752322, -0.04102525157259697
0.20000000298023224, 0.2650462169979825, 0.10159287722279414
0.20000000298023224, 0.2434132601424543, 0.01706227269737487
0.20000000298023224, 0.11939197421194474, 0.03449703377809312
0.20000000298023227, 0.1467737672474603, -0.06506558288713457
0.20000000298023224, 0.19105803139449037, 0.03052792014185996
0.2000000029802322, 0.14444392057837271, 0.1374863223418262
0.20000000298023224, 0.19785563134385045, -0.03202836693240649
0.20000000298023224, 0.024610198362903866, 0.051859022734749224
0.20000000298023224, 0.11165414212512154, 0.04866389251066445
0.20000000298023224, 0.4332926861038949, 0.10985838359595172
0.20000000298023224, 0.30698201147944876, 0.0001836638116901601
0.20000000298023224, 0.17304347834990913, -0.05642844665458161
0.20000000298023224, 0.1253118790870462, 0.021137587347880127
0.20000000298023224, 0.059540131192709025, 0.009215979012385675
0.20000000298023224, 0.07364906335157359, 0.044266032119817465
0.20000000298023224, 0.12279273851417656, -0.08325100771768237
0.20000000298023224, 0.1868017678643652, 0.06642920447092515
0.20000000298023224, 0.02848943136105568, 0.03196348046963718
0.2000000029802322, 0.33539116175666245, 0.13684375771181514
0.20000000298023224, 0.3110388606993813, 0.10625220011561426
0.20000000298023224, 0.014945558287810962, 0.03806539897936582
0.20000000298023224, 0.050847798994085106, -0.1412680504669646
0.20000000298023224, 0.28976846144504775, 0.06775480097503293
0.20000000298023224, 0.14506148434456775, -0.06912917316203324
0.20000000298023224, 0.13885796945829795, 0.03194418043568735
0.2000000029802322, 0.06285017641452674, 0.11352908223046984
0.20000000298023224, 0.08086806221520379, 0.11380736859014673
0.20000000298023224, 0.28677259108413183, 0.10715716633370498
0.20000000298023224, 0.12422905673483671, 0.058999212572102555
0.20000000298023224, 0.24507429461829863, 0.09619375749078032
0.20000000298023224, 0.10357077206241722, 0.0798884717901012
0.20000000298023224, 0.2862605224794389, 0.05265926812958479
0.20000000298023224, 0.1695640766474875, 0.08320954563055481
0.20000000298023224, 0.0775363451458452, 0.015879647553977055
0.20000000298023224, 0.2056981700273466, 0.06514561471144423
0.20000000298023224, 0.10333410122692027, 0.01946768987913222
0.2000000029802322, 0.011889208558109215, 0.066647993891737
0.20000000298023224, 0.3551423271899234, 0.04952036794704641
0.20000000298023224, 0.11223563462664171, 0.008217562990500193
0.20000000298023224, 0.17622955777689167, 0.12588837015150686
0.20000000298023224, 0.4289664239019558, 0.10133986199093019
0.20000000298023224, 0.04435915656694422, 0.12265331312878633
0.20000000298023224, 0.25501439597969033, 0.021535004091680077
0.20000000298023224, 0.008515419230374556, 0.11203981500307536
0.20000000298023224, 0.3121740385242522, 0.13233297554515183
0.20000000298023224, 0.09302824485645789, 0.058679368618466544
0.20000000298023224, 0.3112642970294562, 0.006250302601670241
0.20000000298023224, 0.1341109163082337, -0.038884390149705225
0.20000000298023224, 0.08094206360539881, -0.04130776320718872
0.20000000298023224, 0.14089755893461084, -0.07232406370776256
0.20000000298023224, 0.003384355567061713, -0.031816541704530715
0.20000000298023224, 0.42608903248185837, 0.09508347627771152
0.20000000298023224, 0.0050001055428511515, -0.10658038229121124
0.20000000298023224, 0.09192182756534943, -0.04507597858373891
0.20000000298023224, 0.027029574790294702, 0.00473639023779196
0.20000000298023224, 0.1558221809449815, -0.03121393593992386
0.20000000298023224, 0.190377191117707, 0.0031363435401620537
0.20000000298023224, 0.03518723191784551, -0.0813198062915951
0.20000000298023224, 0.29700641440570125, 0.0354225634235327
0.20000000298023224, 0.08769695599148077, -0.1276949840091373
0.20000000298023224, 0.014102459119986832, -0.15939404740557112
0.20000000298023224, 0.19399275914288858, 0.021238908053516012
0.20000000298023224, 0.11506798708566096, 0.12151726287382793
0.20000000298023224, 0.4114781962754737, 0.1059116957070973
0.20000000298023224, 0.19363819620696496, 0.11275650323674566
0.20000000298023224, 0.2603002858418426, -0.0064197306632723244
0.20000000298023224, 0.05436150664567767, -0.0600765291402613
0.20000000298023224, 0.12943237778096808, 0.05528606451049179
0.20000000298023224, 0.11757790766153718, -0.040076594154851646
0.20000000298023224, 0.30988517132222276, 0.060058446285405936
0.20000000298023224, 0.25366755593232343, -0.029546584681248003
0.20000000298023224, 0.2497787472045311, 0.10261627775563392
0.20000000298023224, 0.132752780808481, -0.012341447869687938
0.20000000298023224, 0.14149327382761873, -0.006176239750171994
0.20000000298023224, 0.1952256212046538, -0.05013917461715276
0.20000000298023224, 0.30433098419606974, 0.033264551684143905
0.2000000029802322, 0.053801472880733926, -0.08539770812091962
0.20000000298023224, 0.26760148549692775, 0.12357909612443595
0.20000000298023224, 0.2432793532273363, 0.03876520814001347
0.20000000298023224, 0.2607334712517354, 0.09638112603788472
0.20000000298023224, 0.06669762514670069, -0.11217983032508942
0.2000000029802322, 0.31448761963348143, 0.13334969031014832
0.20000000298023224, 0.11828006179881134, -0.06332930659600108
0.20000000298023224, 0.18776686677140375, 0.13514039279299409
0.20000000298023224, 0.10175507970528164, 0.07630648306696197
0.2000000029802322, 0.19676921801901306, 0.08108642534521415
0.20000000298023224, 0.08530180647525747, 0.07047221097322956
0.20000000298023227, 0.051069577337424364, 0.11938607148183637
0.20000000298023224, 0.19944852401244073, 0.008972224620001579
0.20000000298023224, 0.04922566169334526, -0.017124062488402383
0.20000000298023224, 0.13467771702826062, -0.011892582375019667
0.20000000298023224, 0.04457411497902636, -0.09624303295067697
0.20000000298023224, 0.004871476115867551, -0.0853406519851678
0.2000000029802322, 0.005025373267965159, 0.10884355722967784
0.20000000298023224, 0.04507828894360506, 0.04542057191785923
0.20000000298023224, 0.02599101696431559, -0.097099994451383
0.20000000298023224, 0.14742564401265384, 0.10095169011575843
0.20000000298023224, 0.20164262938507668, 0.02368294437277481
0.2000000029802322, 0.08564696356976097, 0.13224844048632128
0.20000000298023224, 0.028620782506991814, -0.08370925952835333
0.2000000029802322, 0.40652969819645396, 0.1045370906450094
0.20000000298023224, 0.12363149688496138, -0.04595801868395584
0.2000000029802322, 0.01861701991876553, 0.13645478300604535
-0.20000000298023224, 0.026664800022901777, -0.09080830653473154
-0.20000000298023224, 0.10071751457335798, 0.011272572538427478
-0.20000000298023224, 0.05919584995604833, 0.09204454792847253
-0.20000000298023224, 0.15951854376022412, -0.13454766298678147
-0.20000000298023224, 0.3895476848252649, -0.11927609498175476
-0.20000000298023224, 0.06422989058015978, -0.041115790570076395
-0.20000000298023224, 0.13691722839323398, 0.05090672359346092
-0.20000000298023224, 0.19350677886782017, -0.1549950070408183
-0.20000000298023224, 0.019183356751226455, 0.031194981298469142
-0.20000000298023224, 0.24224925974277645, -0.16910423632777571
-0.20000000298023224, 0.2161192242723118, -0.011536922088502072
-0.20000000298023224, 0.12470747417729441, -0.134327865086961
-0.2000000029802322, 0.23041649193090952, -0.17528898983885505
-0.20000000298023224, 0.20355666316915913, -0.030047633944989285
-0.20000000298023227, 0.2826308790426955, -0.13594254834609062
-0.20000000298023224, 0.2532068358754928, -0.16741305287034114
-0.20000000298023227, 0.20702709115254314, -0.16555942600326826
-0.20000000298023224, 0.32267462038800826, -0.10235316679762022
-0.20000000298023224, 0.12335870023809146, -0.016102206962626125
-0.20000000298023224, 0.5164270258237071, -0.1671737347165277
-0.20000000298023224, 0.305641447266443, -0.0716624375263233
-0.20000000298023224, 0.2991395715248501, -0.11871412905938342
-0.20000000298023224, 0.35478338795521114, -0.13181633290416228
-0.20000000298023224, 0.20230190106375154, -0.09686443165668894
-0.20000000298023224, 0.2356098918969565, -0.107228822429665
-0.20000000298023224, 0.14345482548613642, -0.035981602317889015
-0.20000000298023224, 0.014014873991375267, 0.12049292461534783
-0.20000000298023224, 0.0643373870382639, -0.08463139544329457
-0.20000000298023224, 0.026966870990425346, 0.04828219849190918
-0.20000000298023224, 0.459921841962066, -0.14512771083429785
-0.20000000298023224, 0.27048287257388054, -0.1256805629094338
-0.20000000298023224, 0.2367072668245614, -0.061871080505133035
-0.20000000298023224, 0.3690983589269145, -0.08090290586270636
-0.20000000298023224, 0.4722852983098814, -0.15140446363686952
-0.20000000298023224, 0.21959284271381901, -0.056970235193356256
-0.20000000298023227, 0.008855309662613338, -0.038732648545360106
-0.20000000298023224, 0.22241278354243613, -0.17850439676933136
-0.20000000298023224, 0.2822572714527911, -0.0379963724840532
-0.20000000298023227, 0.02411386388133637, -0.1339087287816168
-0.20000000298023224, 0.05940854081401828, -0.004789145366836389
-0.20000000298023224, 0.09268377106910726, 0.008007836041095284
-0.20000000298023227, 0.3164636425523985, -0.15444808305457253
-0.20000000298023224, 0.3058966035943057, -0.1402145278360203
-0.20000000298023224, 0.07694562085437061, -0.04623658700541037
-0.20000000298023224, 0.07980206750312777, 0.03421814070254295
-0.20000000298023224, 0.2233104462659936, -0.05296707029133212
-0.20000000298023227, 0.32922303287424476, -0.16339890867211881
-0.20000000298023224, 0.018287246661114673, -0.0386468620274136
-0.20000000298023224, 0.06814140243167921, -0.15824481515633704
-0.20000000298023224, 0.3050847518126416, -0.09449930937630349
-0.20000000298023224, 0.19663050364699905, -0.012036785845875572
-0.20000000298023224, 0.2569300270199782, -0.1421733859318311
-0.20000000298023224, 0.08130409795341231, 0.028018025670055673
-0.20000000298023224, 0.10446729325967435, -0.10580902839999101
-0.20000000298023224, 0.38843797050514667, -0.12155530137340151
-0.20000000298023224, 0.08244347769864599, 0.07167282284862272
-0.20000000298023224, 0.23102773919945763, -0.11304305574800268
-0.20000000298023224, 0.37811899864890974, -0.13629635991770106
-0.20000000298023224, 0.06350449490862062, -0.05480974910653062
-0.20000000298023224, 0.13133094319500668, -0.15026194514049868
