-0.1610498845254924, 0.2499314391111413, -0.12278086704147985
-0.16138540599562154, 0.3568240745721254, -0.1546268472324386
-0.17561094479172273, 0.36000702453106453, 0.005609201659988544
-0.10671851488107148, 0.26449008591415146, -0.0669791358509633
-0.14193718263651547, 0.26449007702232036, -0.10993856814117725
-0.051363821229490854, 0.2644901064370441, 0.03217387744597797
-0.14128028482792046, 0.2644900761680774, -0.11406570407815887
0.08737001886929494, 0.26449007764587046, -0.10692601893411119
-0.07802587357647023, 0.26449008683979014, -0.062507067110458
-0.12851982580847468, 0.26449007391266677, -0.12496235559600813
-0.024761318820105273, 0.2644900970625571, -0.013117437106802021
0.021208824043911514, 0.2644900858593434, -0.06724394965016392
0.1369266600147612, 0.264490070149071, -0.14314559424826304
0.13313304097531142, 0.26449007261771673, -0.1312187327713316
-0.002200037983215733, 0.2644900926042631, -0.03465696323174428
-0.15251320467937768, 0.2644901043853488, 0.02226145890665302
0.0685971086122952, 0.26449008444548383, -0.07407478927422251
-0.09607914050658134, 0.26449007231217125, -0.13269489428966477
0.06687070990455579, 0.2644900850350219, -0.07122653140217838
-0.0654074693979454, 0.2644901049345405, 0.024914777053247357
-0.007283750386129627, 0.2644900787817342, -0.1014382643988475
-0.02214444263858783, 0.26449007779138284, -0.10622298419310063
0.016099949730117538, 0.2644900748517098, -0.12042554208016007
-0.13882335730352569, 0.26449007536288976, -0.11795583776447491
-0.09724382557912947, 0.2644900720218555, -0.1340975076793893
0.009746663274180958, 0.2644900907578638, -0.043577542916332146
-0.15427813100425525, 0.26449009518345346, -0.022196003045208856
0.0464238498204609, 0.26449007049845735, -0.1414575779965189
-0.013156268229132188, 0.26449006812090675, -0.152944319497994
-0.142491202210615, 0.26449012195696375, 0.10715585966526549
-0.08812834558258287, 0.2644900953073185, -0.021597578345946243
-0.15544556740012666, 0.2644900967765536, -0.014499198208687128
-0.013237425602366987, 0.26449009173482774, -0.03885749721739534
0.1321176514971515, 0.264490072647492, -0.13107487839765983
-0.12766777168658136, 0.26449009763823883, -0.010336110025998685
0.05938362573363078, 0.2644900815878033, -0.08788120718980229
0.014940773311283934, 0.2644900838920866, -0.07674843028890693
-0.06694779632143566, 0.26449007907663535, -0.10001348931059156
0.05595025335191818, 0.2644900786614674, -0.1020193228541714
-0.020456108510137655, 0.26449009402322615, -0.027801471209384906
-0.1481119406099209, 0.26449008435517085, -0.07451109145207636
0.0653975362587618, 0.2644900703638225, -0.14210804710892153
-0.13265655926841916, 0.2644900699943183, -0.1438932191841291
-0.0016724652320887906, 0.26449007693539456, -0.11035855543665027
0.047754709116465066, 0.2644900775424177, -0.10742582842825868
-0.1420977196998392, 0.2644900784781068, -0.10290517247076961
-0.11233132122091044, 0.264490074068762, -0.12420820948952035
0.003187574796011866, 0.264490094715054, -0.02445902059312171
-0.016211279340581822, 0.2644900950242611, -0.02296513423326424
-0.076126794679773, 0.2644900903893045, -0.04535816520996457
0.1314159386237472, 0.2644900710945942, -0.13857745161510662
-0.08431548177080336, 0.26449011346788565, 0.06614225019116862
-0.14567356571270546, 0.26449007117308976, -0.13819817471327758
-0.07671292544202128, 0.2644900853005759, -0.0699435306961888
-0.135418184323224, 0.26449009702307635, -0.013308166545019026
-0.05918013758556517, 0.2644901075463596, 0.03753335573537218
-0.15240509467363933, 0.26449011871583994, 0.09149689823776422
-0.08850196120486907, 0.2644900882912664, -0.055494493742596816
0.0224666220695385, 0.26449007096120375, -0.13922189071860294
-0.1218222796568863, 0.2644900978382396, -0.009369839602761207
-0.14967171733979048, 0.26449012079036743, 0.10151964018887141
-0.15990725121101668, 0.26449008940901214, -0.05009427712205948
-0.06423468067991657, 0.26449009753008, -0.010858670553501634
-0.0074482916726335, 0.26449009913971544, -0.003081986473227147
-0.0841507610259308, 0.2644900901586342, -0.04647261041582272
-0.147616958622295, 0.26449008405947905, -0.0759396787245225
-0.09012114277263611, 0.2644900744638822, -0.12229925352239823
-0.1364825876567216, 0.2644900763365238, -0.11325188325482996
-0.053819731091885634, 0.26449007445433864, -0.12234536653102766
-0.13417733861488063, 0.26449012192037463, 0.1069790841496101
-0.15789790676921947, 0.26449008821314984, -0.05587189168556386
-0.011338213025444327, 0.2644900951262531, -0.02247237709534735
-0.12017801124047, 0.2644900756105288, -0.11675941264626648
-0.07662592672079335, 0.26449007700149735, -0.11003918010726349
-0.12025140919567015, 0.2644900696736386, -0.14544253268617077
-0.1426526841601543, 0.2644901133064729, 0.06536241872173794
-0.12442684724026862, 0.2644901138379917, 0.06793036324899546
-0.09292423777396258, 0.26449009047260985, -0.044955686819364876
-0.12072757154814837, 0.26449009399837436, -0.027921524719889422
-0.10985030508286917, 0.26449008920673867, -0.051071535603563714
-0.06084645361205042, 0.26449008325917034, -0.07980625215311762
0.049834569984491095, 0.2644900785015552, -0.10279191197224802
0.028776130070261738, 0.2644900858734207, -0.06717593879803305
0.0016754996780233918, 0.2644900682172541, -0.15247883466967813
-0.15563192670018408, 0.26449011404023953, 0.06890749498966314
-0.13689636089042292, 0.2644900688300153, -0.14951835947517225
0.042667794211410044, 0.26449008287208176, -0.08167642236562005
-0.07970528714619929, 0.26449009797189604, -0.008724105949356326
0.07754924599514648, 0.2644900730608963, -0.12907757521396163
-0.11411966782703131, 0.2644900920088477, -0.03753360031479323
-0.010580829509077488, 0.26449009845786164, -0.006376251644219386
-0.07721900111876318, 0.2644900826652297, -0.08267577731700676
-0.13823748032684674, 0.2644901015820015, 0.008717539906562988
-0.10272859685631452, 0.2644900859252466, -0.06692553182836258
-0.03635696913071881, 0.26449008220270503, -0.0849103959723384
0.02049277478596176, 0.2644900940825367, -0.027514927502586488
0.02223105244016651, 0.2644900771450843, -0.1093454765900327
0.015613403954248435, 0.26449008676537455, -0.06286660671043084
-0.013579433853888583, 0.26449007427788684, -0.1231978705326188
-0.10570116305521311, 0.26449010644069915, 0.032191543420122086
-0.094364685977613, 0.2644900903068338, -0.045756606626209305
-0.003675404798774304, 0.2644900985903498, -0.005736157735494893
-0.011111620296206926, 0.26449007545730774, -0.11749969042496887
-0.09072982711317186, 0.264490071064333, -0.13872362294215326
-0.1510203921550866, 0.26449011495322833, 0.07331845141589335
-0.1270548949923337, 0.2644900874735396, -0.05944520266234329
-0.03189398910547555, 0.2644900952518323, -0.021865658791446516
-0.034079996025025955, 0.26449009328397616, -0.031373035500155626
-0.14357396285197782, 0.26449009801581325, -0.00851191830785547
0.057313980380073855, 0.26449008296183213, -0.08124280959782638
-0.041070054724618645, 0.2644900686963167, -0.15016431566619662
-0.09101360116989633, 0.2644900917867733, -0.038606520062736016
0.14717517377881129, 0.2644900731494745, -0.128649633720436
-0.08888223956001648, 0.26449011734436123, 0.08487081270445705
0.024267897642979715, 0.26449012365965124, 0.11538209439096091
0.0983803566258274, 0.26449010500563674, 0.025258244450773334
0.049964968389486636, 0.2644901115571787, 0.05691096148888427
0.005401717118300247, 0.26449012747944467, 0.13383680839340104
0.03716334567836548, 0.26449010536934053, 0.0270154286533014
0.14586599543439688, 0.2644901034356473, 0.017673088797029696
0.0720543337675154, 0.26449012457018634, 0.11978119016939891
0.0253818857321607, 0.2644900984705589, -0.006314912229867353
0.07165528534866575, 0.2644901178868663, 0.08749181592286934
0.15025762044178975, 0.2644901078646764, 0.039071222619246435
0.1443086611828434, 0.2644900849615114, -0.07158169624519364
0.015852401793186865, 0.26449009637064486, -0.016460304342432522
0.02279574227298476, 0.2644901144831775, 0.07104745313100663
0.09704684054321257, 0.2644901008739329, 0.005296588602230062
0.11124346967036997, 0.26449010140881496, 0.007880782555371169
0.09132906362181911, 0.26449008841263544, -0.054908144129129983
-0.01750873309574444, 0.264490104694107, 0.02375315517104703
0.026443271289017113, 0.26449011111704496, 0.05478453015369064
0.12373405917345501, 0.26449008014703423, -0.09484205742271108
-0.031907976547298364, 0.2644901097521805, 0.04819041736035827
0.03015265887549249, 0.2644901136018649, 0.06678953337775254
0.07318509324957037, 0.26449009340895996, -0.03076921150907848
-0.10410014331679499, 0.2644901239077245, 0.11658063785483619
-0.006740621933396224, 0.2644901150462396, 0.0737678002299835
0.05495371684881271, 0.26449011506128406, 0.07384047638399444
0.16115816642444497, 0.26449008005142827, -0.09530396723283187
0.12308404355140193, 0.2644901005836625, 0.0038941912469427076
0.1578820722873599, 0.26449009855848715, -0.005890119349198156
0.11910760952444277, 0.26449010519581884, 0.02617707528559369
0.06589784853570728, 0.2644900976081218, -0.010481642399583463
-0.007404299617027418, 0.26449012737195526, 0.13331749241865162
-0.050556378627009686, 0.2644901208174504, 0.10165047301980885
0.1427181422300774, 0.2644901112720523, 0.055533406780927934
0.11470515333442925, 0.2644901224147701, 0.10936764092183444
0.14182658950759697, 0.264490105291071, 0.026637267560887003
0.1358723532960769, 0.2644901252723964, 0.12317379528319451
0.1092862744395116, 0.26449010968902653, 0.04788527964560108
0.06717211566783723, 0.2644900874672492, -0.059475620446421434
0.15906864630155157, 0.26449010270650575, 0.014150358351570608
0.03947407481107508, 0.2644901212575183, 0.1037765776847545
0.09479813375783311, 0.2644900819278558, -0.08623830362186168
0.08168650215914092, 0.26449011930535327, 0.09434500341905387
0.13570889047956985, 0.26449009518366, -0.02219504531528947
0.08206211201170363, 0.2644901239513727, 0.11679149121918787
0.13808855950963372, 0.2644901169582406, 0.08300530218022348
0.035142536742058916, 0.26449011245206416, 0.06123445731450886
-0.008952013454780153, 0.2644901072679856, 0.03618843005884517
0.049127644261525404, 0.2644901018812512, 0.01016329030764486
0.14967170867779306, 0.264490114001598, 0.06872076213788895
0.08365488457265133, 0.26449011278531265, 0.06284448645654542
0.0579462284129158, 0.2644901032446991, 0.016750565959824826
-9.84208923620472e-06, 0.26449011199583217, 0.05903025116093539
-0.003482997747842581, 0.2644900999673382, 0.0009165379578523064
0.1335644537741309, 0.26449011377734616, 0.06763732837695904
0.12245989011971846, 0.2644900817494656, -0.0871001707544819
0.14009862943179308, 0.2644901272787902, 0.13286736007108296
0.14426623492889626, 0.26449012197532745, 0.1072445410528948
0.12465567788520769, 0.26449011031891373, 0.05092847504513034
-0.012063158524759372, 0.2644901157529389, 0.07718210369066464
-0.025657450226473165, 0.26449011955317164, 0.0955423127393005
0.14680361267312897, 0.2644900885828348, -0.054085861308663774
0.05004988468851548, 0.26449011197813316, 0.058944734466322105
0.020018632500992783, 0.2644900960638241, -0.017942659394408658
0.1379403595092409, 0.2644901026643863, 0.013946867618714928
0.11435022741301999, 0.2644901052389611, 0.0263855109702662
-0.09137127225385573, 0.2644901224758473, 0.10966275429065347
0.010169219791191716, 0.2644901090553828, 0.04482394657391167
0.11958675457694862, 0.2644900835564252, -0.0783701386348972
0.013476048607747981, 0.2644901003270132, 0.002654246773183211
-0.03388595285053171, 0.26449010975106135, 0.0481850105142759
-0.11115933992180722, 0.2644901230466061, 0.11242028514052411
0.05064261003971368, 0.2644901070591367, 0.03517940244116243
0.12200295623914469, 0.2644901265882661, 0.1295312077841514
-0.06951760091914598, 0.26449012733910904, 0.13315880988491463
0.04287960950265726, 0.2644900974739417, -0.011129908582746526
0.10757620092863192, 0.26449008670898433, -0.06313905980132833
0.096683958846649, 0.26449008628216564, -0.06520116359107729
0.09396943459229726, 0.2644900984688677, -0.006323092454053339
0.05912334087674076, 0.26449011528393657, 0.07491618537011115
-0.0043344580411487105, 0.2644901256877248, 0.12518040607246772
0.09470121124642568, 0.2644901099392293, 0.04909409543682805
-0.1118065198190446, 0.2644901194138338, 0.09486913648025971
0.09372272121398434, 0.26449008083427183, -0.09152177661217477
0.05907849659266119, 0.26449012327513716, 0.11352437226354063
0.03657350904058932, 0.2644901181292861, 0.08866303231352048
0.13482151816873267, 0.26449011045301846, 0.05157637898718138
0.13869499137976432, 0.2644901051699928, 0.026052298369764373
0.15731840310276193, 0.26449007844811645, -0.10305010762304975
-0.01608818255230056, 0.2644901161805383, 0.0792479813004354
0.031891973867385945, 0.26449012676564665, 0.1303882055614709
0.014560546161475826, 0.2644901032162542, 0.016613145024968662
0.15957265651882108, 0.2644900880118354, -0.056844553717175034
-0.0062086937297431005, 0.26449009938303536, -0.0019064258369096837
-0.11502084618905514, 0.26449012299856733, 0.1121881943269229
0.013979526516308169, 0.26449009843947807, -0.006465072516136816
0.056993745737005885, 0.26449010888830143, 0.0440167136732466
0.10020416784196677, 0.26449010578076027, 0.029003127421386138
0.0035276917296385574, 0.26449010178448995, 0.009695810534754934
0.10994800214961178, 0.26449008556688836, -0.06865691132163741
0.11933339505230295, 0.2644901109000832, 0.05373630134770501
0.1564860943617359, 0.2644901240687623, 0.1173586298938035
0.018634868815130365, 0.26449010178976706, 0.00972130378280589
0.15249590212943537, 0.2644901186631334, 0.09124221236223588
0.019695277039678424, 0.2644901042701173, 0.021704712919836083
0.13278117174975848, 0.2644900901156937, -0.04668010070287303
-0.07124575153056764, 0.2644901157968794, 0.077394403366085
0.13746092099476198, 0.26449008360943477, -0.07811403388641724
-0.051549590337395784, 0.2494805008172989, -0.0938974382076807
-0.11174719044980082, 0.24948050081729892, -0.030192762163185928
-0.07550570158013405, 0.2494805008172989, -0.010652400699509283
-0.1534464751637266, 0.24948050081729892, 0.04440955173039112
0.050895925959421606, 0.2494805008172989, -0.1215305382170197
-0.13501637088152837, 0.24948050081729892, 0.054866796683155125
-0.02192906433599466, 0.2494805008172989, -0.03545540246303374
0.017144758719594394, 0.2494805008172989, -0.11137292833738915
0.013385311214819798, 0.2494805008172989, -0.1058109722967539
0.01920033629238445, 0.2494805008172989, -0.04270527287703109
-0.041753812860711365, 0.24948050081729892, -0.1311873033715473
0.03234799194698025, 0.2494805008172989, -0.08643857857946811
-0.06262086593698686, 0.2494805008172989, -0.056766800563834256
-0.00899847965010063, 0.2494805008172989, -0.10575041674084892
0.004631547350913756, 0.2494805008172989, -0.0848715629016506
-0.08994454323671083, 0.24948050081729892, 0.03214189744347743
-0.06296360346204183, 0.2494805008172989, -0.010468268463554621
-0.06898463132993157, 0.2494805008172989, 0.03551498609307126
-0.1364145072576601, 0.2494805008172989, 0.051997252026715894
-0.02670735222701333, 0.2494805008172989, -0.00927126475505357
-0.1101908609149182, 0.2494805008172989, -0.06489606409009151
-0.14036858204246733, 0.24948050081729886, 0.07938800752629421
-0.09132389441178546, 0.24948050081729886, 0.022344303653588214
-0.06948645904400436, 0.2494805008172989, -0.09865317815441599
-0.13210344787093445, 0.2494805008172989, -0.009152007000513739
-0.0790680549976113, 0.24948050081729892, -0.12419080237337993
-0.1205935646279422, 0.2494805008172989, -0.10408667708084798
-0.07429519340129376, 0.2494805008172989, -0.1226961651329581
-0.07834039797715656, 0.24948050081729892, -0.07118760222063555
-0.06878072814083996, 0.2494805008172989, 0.05023491426924492
-0.029021482325851666, 0.2494805008172989, -0.09115721256153204
-0.052798685144925826, 0.2494805008172989, -0.04490505575464589
-0.06689845265074883, 0.2494805008172989, 0.044236841700329266
-0.10433796705468319, 0.2494805008172989, 0.013163491451948232
-0.0955475988821003, 0.2494805008172989, 0.015394075924561944
0.014063588336430094, 0.2494805008172989, -0.11206033156428198
-0.15280166665111242, 0.2494805008172989, 0.07524373874592852
-0.1424954543957361, 0.24948050081729892, 0.0115603042871378
-0.027715748419192415, 0.24948050081729886, -0.10628144315667995
0.08303329805838522, 0.2494805008172989, -0.10613476008834474
0.08685319251868788, 0.2494805008172989, -0.09712956973204512
-0.12206434637568, 0.2494805008172989, -0.1259636538348012
-0.047393214339298835, 0.24948050081729886, -0.13015111710196392
0.08860514864485344, 0.2494805008172989, -0.10102330459857001
-0.14608795865240595, 0.2494805008172989, 0.05740873253324513
-0.03212881831898075, 0.2494805008172989, -0.07232089322688152
0.08141314950051307, 0.2494805008172989, -0.08572975009802784
0.005794961545533217, 0.2494805008172989, -0.1463469761282374
0.14310650086873866, 0.24948050081729892, -0.15352956154077824
-0.02798592612317788, 0.2494805008172989, -0.05304723598021658
-0.13850890001848365, 0.2494805008172989, -0.14170683142604887
0.0730096269578703, 0.24948050081729886, -0.10413489139372267
-0.05115328491931113, 0.2494805008172989, -0.033004665468321176
-0.09474689279105267, 0.24948050081729892, -0.0503417658959224
-0.0019010534105850518, 0.2494805008172989, -0.09977281165211403
-0.12791495919505835, 0.2494805008172989, -0.04946520219545747
-0.1500199331377773, 0.2494805008172989, 0.011778107837503264
0.0873264638979178, 0.2494805008172989, -0.13069914716709458
-0.0740941712847239, 0.2494805008172989, -0.07177373038519895
-0.12396869558405545, 0.24948050081729886, -0.13808050171859448
0.027993717801061704, 0.2494805008172989, -0.08290108134832379
-0.06535688932177317, 0.24948050081729892, -0.1183945223702626
-0.005730546134864289, 0.2494805008172989, -0.0347316698826903
-0.14641830038342787, 0.2494805008172989, -0.07255945991353707
-0.0792400034476895, 0.2494805008172989, -0.11436519912219083
-0.15140699395538948, 0.24948050081729892, -0.14111397731090433
0.009218841061163191, 0.2494805008172989, -0.04550992631148565
0.06397070348655219, 0.2494805008172989, -0.1246228209443942
-0.14414001265024406, 0.2494805008172989, 0.1094360601820582
-0.0844637946863584, 0.24948050081729886, -0.062350395075352734
0.025088705378232476, 0.2494805008172989, -0.1449374390344593
0.01784870314725223, 0.2494805008172989, -0.1348158166452213
-0.14124693398367838, 0.24948050081729892, -0.05819037367797429
-0.15808778737748194, 0.2494805008172989, -0.07608045537346629
-0.10715224016308808, 0.2494805008172989, 0.0266992665898899
0.025058598207173405, 0.2494805008172989, -0.0984292538864566
-0.09743403649884709, 0.2494805008172989, -0.15123709125419485
-0.08210422005576005, 0.2494805008172989, 0.04397027505020395
-0.052642875001360334, 0.24948050081729892, 0.023389643698882023
-0.14158809457183824, 0.2494805008172989, -0.029370943427833838
-0.0065003232328582905, 0.2494805008172989, -0.07277889227614952
0.13617728769466925, 0.2494805008172989, -0.1419255910748462
0.0594876798805319, 0.2494805008172989, -0.1396447743476126
-0.11198637696478395, 0.2494805008172989, -0.11638867560837551
0.06074718458498085, 0.24948050081729886, -0.13572959331520457
-0.05780933444624833, 0.24948050081729886, -0.10867706174728987
0.021947165289414913, 0.2494805008172989, -0.06546791092367406
-0.03528331290141504, 0.24948050081729892, -0.13321765478466502
-0.14250115703890898, 0.2494805008172989, -0.07054280068953075
-0.11143548983309173, 0.2494805008172989, -0.15120401006651452
-0.057850759929996026, 0.2494805008172989, -0.0643474081637181
-0.0029240253355986012, 0.2494805008172989, -0.04965010373615701
-0.017044603970748154, 0.2494805008172989, -0.07578280267602416
-0.09341218860758818, 0.24948050081729892, -0.13119206323062096
-0.0950327442829595, 0.2494805008172989, -0.06958353904087135
-0.054148300767458774, 0.24948050081729894, -0.12216320295212457
-0.016751741837765205, 0.2494805008172989, -0.12829678181452697
-0.10479244014445786, 0.24948050081729883, -0.11167717574853256
-0.1098259051900054, 0.2494805008172989, 0.010371539668100112
-0.15818499597467264, 0.2494805008172989, -0.14710110076498298
-0.07122487067363766, 0.2494805008172989, -0.048488443652910655
-0.14167837913603523, 0.24948050081729886, 0.006893422554847579
-0.1519715614031262, 0.24948050081729892, 0.037092964607214556
-0.10872676874702843, 0.2494805008172989, -0.1525978233152932
0.010655217608417727, 0.2494805008172989, -0.019436664875279994
-0.12352166876688211, 0.2494805008172989, -0.07155309997181254
-0.060567412394307796, 0.2494805008172989, -0.0846595296515243
-0.1033752394730628, 0.24948050081729886, -0.15045912885078871
-0.032541935029557476, 0.2494805008172989, -0.09114052535303688
-0.0494806848208037, 0.2494805008172989, -0.0790834628025383
0.07861985360038379, 0.2494805008172989, -0.0010559040737375333
-0.09541805350527904, 0.2494805008172989, 0.07994606697794676
-0.043048088453833205, 0.2494805008172989, 0.08257256896417016
0.09070810685284625, 0.24948050081729886, 0.09458629192162035
-0.02028642430985063, 0.2494805008172989, 0.06611826715042848
0.03900311424680934, 0.2494805008172989, 0.07344682175619358
0.10230895669475076, 0.24948050081729886, -0.013506640295707268
-0.014418433033006745, 0.2494805008172989, 0.06563248565716567
0.16015461786425586, 0.2494805008172989, -0.05775565459616548
-0.004964449255856512, 0.24948050081729892, 0.11865196130574768
-0.013439288313389683, 0.24948050081729886, 0.08036360018914242
0.021512508257055404, 0.2494805008172989, 0.05455908541811611
0.08611342386266929, 0.2494805008172989, 0.13183215741983445
0.07763024836776047, 0.24948050081729892, 0.0958295458451236
-0.056773378848660044, 0.2494805008172989, 0.11286235848004444
0.11710683738095537, 0.24948050081729886, 0.06937094354889438
0.11007239555532115, 0.2494805008172989, -0.09983608315955693
0.11248261342331728, 0.24948050081729883, -0.011490390245138513
0.15440311148875088, 0.24948050081729886, -0.031784805506520436
0.014720420978902776, 0.2494805008172989, 0.01846669230025022
0.15585581884578129, 0.24948050081729886, -0.0034280070893115437
-0.012308760006891406, 0.2494805008172989, 0.08091529169457254
-0.067544558838145, 0.2494805008172989, 0.0907258112199448
0.10026247067922309, 0.24948050081729886, -0.03159814689400001
0.08635505636945129, 0.24948050081729892, 0.08506935377280045
-0.020155716960895298, 0.2494805008172989, 0.048309475517350584
0.006561438896825603, 0.2494805008172989, 0.10276447466035685
0.09852962700062251, 0.24948050081729894, 0.02095172998647998
0.08034044275393806, 0.2494805008172989, 0.11678496327307308
-0.016337466897403466, 0.2494805008172989, 0.09555136321814398
-0.05604170086930968, 0.24948050081729886, 0.05846028103777358
0.08029133890538565, 0.24948050081729886, -0.07976808565210718
0.1445299232007448, 0.24948050081729886, -0.10037668977274487
0.08710347494329974, 0.2494805008172989, 0.05738094005172234
-0.07997098028505292, 0.2494805008172989, 0.09735967331747453
0.1300288832935996, 0.2494805008172989, -0.015612955717729101
0.06701603139620195, 0.2494805008172989, 0.08720476652494384
0.04608964977236998, 0.2494805008172989, -0.00641625747714842
0.15201153316020993, 0.2494805008172989, 0.064730653954716
0.15819309958302039, 0.24948050081729886, -0.06730542490398235
0.0651312671878789, 0.2494805008172989, -0.05629273621032014
0.07263027090358719, 0.2494805008172989, -0.03298402747025471
-0.031796032751204184, 0.2494805008172989, 0.0556358455342332
-0.08219997948117891, 0.2494805008172989, 0.06972079381784539
0.026843864493882985, 0.2494805008172989, 0.10982941124837964
0.12129148911891352, 0.2494805008172989, 0.09629396462894496
-0.022036943253380292, 0.2494805008172989, 0.11452133390558798
0.10012453464840375, 0.2494805008172989, 0.07248706747803105
0.10334308156761865, 0.2494805008172989, 0.031954557721517125
0.1596181638764352, 0.24948050081729892, 0.05352212724164593
0.021603017966497343, 0.2494805008172989, 0.04438950150056907
0.016524827407465692, 0.2494805008172989, 0.02298777245489938
-0.04147124467693013, 0.24948050081729892, 0.09587599823436697
0.09897694368640908, 0.24948050081729892, 0.08772734147602158
0.1142123984081075, 0.2494805008172989, -0.002528700548524287
0.06504211768251988, 0.24948050081729886, 0.11962588322531512
0.15255938154067525, 0.24948050081729886, 0.027428969914792652
0.15251148744007859, 0.2494805008172989, -0.05687955411254268
0.08165051653077501, 0.2494805008172989, -0.036267422467865726
0.03188245481357238, 0.2494805008172989, 0.016686793892120265
0.13374802240966355, 0.2494805008172989, 0.10668224156194955
0.08940666932840405, 0.2494805008172989, -0.005678739489173416
0.15943468522093993, 0.24948050081729886, -0.0736586261954286
0.029564440210135046, 0.2494805008172989, 0.051281491705004026
0.1367141137849341, 0.2494805008172989, -0.03261172418779431
0.11819724695673448, 0.24948050081729892, -0.07199012148995995
0.00922094579386748, 0.2494805008172989, 0.10620460202848997
0.08968317195932052, 0.2494805008172989, 0.032044594543878396
-0.048660794775455575, 0.2494805008172989, 0.12240046139384789
0.03716764592733788, 0.2494805008172989, 0.12907556359051006
0.11495030725588329, 0.2494805008172989, 0.010026421505273199
0.045870537191813485, 0.2494805008172989, 0.03218052760096798
0.10938590322773507, 0.2494805008172989, -0.05955978458561487
0.06752514029840022, 0.2494805008172989, -0.018754171377991014
-0.060595016728060634, 0.2494805008172989, 0.05200543742668811
-0.03523118144782422, 0.2494805008172989, 0.1106565373015012
0.11486217626825185, 0.2494805008172989, -0.0026695838396365267
0.16107929607679047, 0.24948050081729886, -0.11176649555420348
0.1241303558743837, 0.24948050081729886, 0.11755723591979853
-0.11923432975772638, 0.24948050081729886, 0.10841129077505762
0.15482635011986737, 0.2494805008172989, 0.06856425632591764
0.006143601355947811, 0.2494805008172989, 0.054471852016192694
-0.05424163215160194, 0.2494805008172989, 0.10113284428658197
0.09567359583835314, 0.24948050081729892, 0.04268750233164296
0.03135306287427271, 0.2494805008172989, 0.017071548939230012
0.12765030481559714, 0.2494805008172989, 0.036159340080118306
0.08611151971821793, 0.2494805008172989, -0.021802918239228482
0.071693692489303, 0.2494805008172989, 0.01739933995455859
0.015215081405654293, 0.2494805008172989, 0.09596692114035077
0.06457858302520861, 0.24948050081729886, -0.02532851988214508
0.10130956126277973, 0.2494805008172989, 0.08757757329669094
0.02976615603290879, 0.2494805008172989, 0.07237993087135186
0.13631879869906377, 0.24948050081729886, 0.07641243824945251
-0.0599669091270721, 0.2494805008172989, 0.09951628950762807
0.0729786809737021, 0.2494805008172989, 0.025941398650037507
0.06048023365881332, 0.24948050081729892, -0.04336569108874193
0.10526650085103505, 0.2494805008172989, -0.06365741009303816
-0.05497181961889103, 0.2494805008172989, 0.10419393395966214
0.09504600715464853, 0.2494805008172989, 0.06312897335690114
-0.08185270473589193, 0.2494805008172989, 0.101489970067211
0.1293261626105391, 0.2494805008172989, -0.034516079152293766
0.06811415086488269, 0.2494805008172989, 0.04248644293093427
-0.05152269730225898, 0.2494805008172989, 0.12105667966945502
-0.13120603768634057, 0.24948050081729886, 0.1133938741295551
0.038962709590957115, 0.2494805008172989, 0.13077117443560637
0.005411160453068442, 0.2494805008172989, 0.0410958062739919
0.04449070454480797, 0.2494805008172989, 0.07983832801422619
0.011311880672992977, 0.2494805008172989, -0.016033402109967856
0.11109437230123027, 0.2494805008172989, -0.08502307893703917
0.1376386803387427, 0.25513946660554687, -0.15472743338047196
0.122920677158007, 0.25718734127464543, -0.15472742868862321
0.07096596955332161, 0.2565244439685257, -0.15472743020737528
0.056854508100984434, 0.2602204060701416, -0.15472742173962317
0.15240450668065078, 0.2602867612873626, -0.15472742158759792
-0.005268062789931298, 0.2532369839950393, -0.15472743773921552
-0.1339910004240638, 0.2561422135352422, -0.15472743108309656
-0.057804049120561626, 0.2548659913651601, -0.15472743400702613
-0.13754766555772152, 0.26137510488107657, -0.15472741909411356
-0.08485761644828824, 0.25803901269824203, -0.15472742673737416
-0.16104629635810852, 0.26111738997641065, 0.054604237058493744
-0.16104629635810852, 0.2632555379998072, 0.012029219222165244
-0.16104629635810852, 0.262547882364878, -0.05735364362288874
-0.16104629635810852, 0.26205780008498514, -0.13635866118213222
-0.16104629635810852, 0.25080268214554635, -0.005871095010120384
-0.16104629635810852, 0.25396585637033303, -0.046382136966431176
-0.16104629635810852, 0.2558840073764108, 0.10483245466840932
-0.16104629635810852, 0.2560768452233592, 0.11947383404175005
0.16277390715045947, 0.2591483193347478, 0.01957859250208137
0.1627738985977335, 0.2579039689784941, 0.014352076114839345
0.16277390028431574, 0.25814935263988825, 0.1298791242403722
0.16277387814793776, 0.2549286941128708, 0.03829955527098408
0.16277387989357595, 0.2551826699238349, 0.07778011830050922
0.1627738547281093, 0.2515212981397894, 0.08176122483981767
0.162773913649571, 0.2600938750698196, -0.13088898706836977
0.1627738669078016, 0.25329332881373795, -0.020569007039031466
0.16277391525644389, 0.26032766424373677, -0.12369345611700297
-0.1365022046029725, 0.2516707947363065, 0.13524280542975245
-0.05385464996404504, 0.25240750615212815, 0.13524279946402112
-0.13975654500205767, 0.2523315342622579, 0.1352428072449335
0.06512646358481189, 0.25262730166346364, 0.13524278894931036
-0.12349465298585828, 0.2577645665923126, 0.13524281818654704
-0.03566231235082937, 0.26264104534531785, 0.13524281164994598
0.036731563973434245, 0.2622022819803518, 0.13524279824180227
0.12076513422372134, 0.262807610755091, 0.135242782677859
0.010285777079451497, 0.26017534487830896, 0.13524280313985348
0.113677558055062, 0.25355708156650186, 0.13524278399055623
-0.1601833984189996, 0.26449011575565423, 0.07719521010981165
0.09358004866482506, 0.2494805008172989, -0.15406613673908837
-0.11642495955959864, 0.25014213090708304, -0.15472747375812618
0.16277390733017205, 0.25917446601739974, -0.1540437403756597
-0.16052088057965505, 0.264411018002569, 0.10711887872791018
-0.16058368855846322, 0.24959646614478576, -0.1472985079798643
0.054671159890547286, 0.2495278517801885, 0.13466332335511072
0.10354082472508361, 0.2500444010674925, -0.15467075004580713
0.16259943662988205, 0.2641268744970665, -0.1195703651781038
0.05975313149165175, 0.2639340747305856, 0.13518143643066163
0.16261758887948907, 0.3075235089525739, -0.035723416671262144
0.16261759915257748, 0.25871330116809965, -0.07033082291831311
0.16261759162338835, 0.2941099481555598, -0.04446809212021146
0.1626175944352206, 0.28339502985453746, -0.057444031026465225
0.16261758869176418, 0.3083834452558286, -0.03504863583717249
0.16261759867753647, 0.31704071157482305, -0.14300605161949106
0.16261759885938942, 0.2516072174741808, -0.0580845253729003
0.1626176011234213, 0.2778292312833085, -0.11469701546947066
0.16261759552220692, 0.2847608971647301, -0.06975656948165221
0.16261759232018982, 0.3191026776294286, -0.08430853077485276
0.16261760255579655, 0.2668853674036589, -0.11404042931234919
0.16261758839519333, 0.2592206523718097, 0.03294220392630691
0.1626175910320339, 0.28976524549945404, -0.03299866768303767
0.16261758353243586, 0.2555338775057073, 0.08481326130149129
0.16261760067920328, 0.25604614583396146, -0.08154897344725212
0.16261760004352593, 0.25630532906387554, -0.07574996562600689
0.16261759332617148, 0.33729213599833024, -0.11812429181582151
0.1626176008339841, 0.2793530764010547, -0.11391889147094997
0.1626175874432954, 0.2560996652233667, 0.04627440629361283
0.1626175927225283, 0.272979654578835, -0.027097759310392433
0.16261759345014962, 0.3407071036999924, -0.12384600582487933
0.16261759234649983, 0.31111778785317346, -0.07398529920748154
0.16261758556463835, 0.2925113195976049, 0.01619331807562864
0.16261759661776945, 0.25583804392666915, -0.04202898888763491
0.16261760739352465, 0.2523572069587612, -0.14154059984022302
0.16261759175643242, 0.28486807652797835, -0.0335110932349567
0.16261758860587, 0.25437065041456675, 0.03733122447178617
0.1626175979999118, 0.30753964269191764, -0.12387246926866903
0.1626176082362285, 0.254381792680444, -0.15236530999679382
0.1626175937863951, 0.3505008509352689, -0.14006865817117375
0.1626175849775669, 0.2745094845766918, 0.04571274365128035
0.16261759549673452, 0.32914759963676266, -0.1283087987438889
0.16261760468529265, 0.2556352858586087, -0.11971425324676024
0.1626175943993783, 0.3463751307306303, -0.1405264397265162
0.16261759270978857, 0.343123900612199, -0.11989363020874955
0.1626176034286496, 0.29008403867004534, -0.15320543633869987
0.1626175934339652, 0.3062058142816419, -0.07798631022949407
0.16261758183653116, 0.317679123172658, 0.08140699357846765
0.1626175806971601, 0.27988909994409006, 0.10342575393485084
0.16261759159388617, 0.34628118569686767, -0.10715731880639381
0.1626175792876297, 0.29721234814467984, 0.13066541478934127
0.16261758546021954, 0.2980650685746814, 0.011377955669882006
0.16261758121580527, 0.3170731307531824, 0.09340273871375182
0.16261758207709265, 0.2922311094067524, 0.07675806909818114
0.16261758458985026, 0.3087266301311238, 0.0281981419485025
0.162617583526522, 0.30070770744179043, 0.04874733616605104
0.16261757928879889, 0.2712903638709387, 0.13064283038767258
0.1626175862675613, 0.3114628864565634, -0.004224212048430334
0.1626175935270402, 0.35813703427157223, -0.14451620162256834
0.16261758487758907, 0.3117931865553694, 0.02263748733170281
0.16261758054307474, 0.3121355938987301, 0.10640349389146482
0.16261758028472736, 0.2687072944763942, 0.11139616539107156
0.16261757965552964, 0.3582009753574524, 0.12355559497927791
0.16261759192612688, 0.34690584349291625, -0.11357798668266796
0.1626175837417536, 0.34362388894784324, 0.044587892101678295
0.16261758064843776, 0.27271229641883443, 0.10436733242620702
0.16261757998408077, 0.274373525429993, 0.11720626323788676
0.16261758889967703, 0.3563359699414669, -0.055090788216524286
0.16261758741771903, 0.3183615614219533, -0.026451416181346145
0.16261758051944655, 0.34420120506162377, 0.10686010362705785
0.16261758055986605, 0.2684081823966207, 0.10607901393095708
0.16261758895134631, 0.33482211115213506, -0.056089306081198734
0.16261758909245352, 0.3452796448017352, -0.05881625712398147
0.16261758922611744, 0.3386180759637294, -0.061399356359639556
0.16261758104120055, 0.34799908137080393, 0.09677702331621174
0.1626175906962001, 0.3529161854324906, -0.08980922397372128
0.16261758749681393, 0.3483680586994971, -0.027979964928840077
0.16261758009862165, 0.2897949021634245, 0.11499271461291216
0.1626175857767101, 0.3448075516897035, 0.005261645479417668
0.16261758115342828, 0.32152384172376475, 0.09460819420075622
0.1626175824548845, 0.2895280135998177, 0.06945711078679759
0.16261757989616177, 0.2808271811801696, 0.1189053257514486
0.1626175830142964, 0.3364080999671082, 0.05864626038007971
0.1776166457549836, 0.2915729215801268, -0.1250917531694416
0.17761663224495072, 0.3061573883482302, -0.05094290789517609
0.17761664419207673, 0.25294149634992996, -0.08090755861390414
0.1776166419721832, 0.30155590199788307, -0.10953996482561353
0.17761664673469488, 0.27486620795669703, -0.1166487653304128
0.17761662240768883, 0.27711218959022904, 0.0380770838510565
0.17761663707518527, 0.28115533925530156, -0.059978361725422015
0.17761663888747925, 0.2748831237973367, -0.06611363341541196
0.1776166244575521, 0.2921054436607303, 0.011631424902200184
0.17761664024146062, 0.3386413697509814, -0.13114203898167343
0.17761661785162763, 0.2680085411188521, 0.07546588529112774
0.1776166382712624, 0.3391941753592969, -0.11893864196047894
0.17761662788452315, 0.30802248182359915, -0.024501080001557658
0.17761662159346928, 0.28090439143843376, 0.0399731314175425
0.17761663496504926, 0.3231505851294526, -0.0834722724988266
0.1776166367782004, 0.2994264311635779, -0.07420086396694349
0.1776166525886436, 0.2704280607481706, -0.1504392121792172
0.17761664149227296, 0.27243704455459195, -0.08073296473681459
0.17761663533294883, 0.2538625101313591, -0.02465233544099226
0.1776166303282255, 0.2581878083418263, 0.003767244184565534
0.17761662518592758, 0.28936944242210916, 0.009355611819989194
0.1776166174048926, 0.2552569302537677, 0.08960489238106462
0.1776166168011333, 0.2521313359084456, 0.09625446258041824
0.17761662937769795, 0.2758045943703623, -0.005667444661129638
0.17761662647108967, 0.29786539002055745, -0.0064260887999947475
0.17761663829622418, 0.3383313332054453, -0.1183374450759488
0.17761664212935213, 0.27750531123174554, -0.08931279234523812
0.1776166418309977, 0.29852650289412525, -0.10595514744114504
0.17761663547687537, 0.26421737644005633, -0.03472409589185226
0.17761664059072804, 0.34937078311131053, -0.14286733210160626
0.17761663344113304, 0.29924175615670956, -0.0525411051572639
0.17761662896730118, 0.2821678350381529, -0.008643279193506478
0.17761662614996734, 0.26362524473749144, 0.025880759236469403
0.17761663830964267, 0.29220814941034046, -0.07769145684102044
0.17761665079664252, 0.27946220569352354, -0.14687378539354773
0.17761663141469616, 0.3026133234405204, -0.04246474299055533
0.177616641412925, 0.3102674913681509, -0.11363074596273441
0.17761661981273258, 0.3215564154559155, 0.05027754848953119
0.177616621250545, 0.3057949137295195, 0.03638444067827809
0.17761662102511372, 0.3375285391494455, 0.03856269679505156
0.17761661306433893, 0.32879742762512243, 0.11548508010806555
0.1776166144485628, 0.3142445263532717, 0.10210978042007172
0.17761662298918474, 0.3189597672366823, 0.019584524685708808
0.17761661690561173, 0.3552092867257863, 0.07836809856130249
0.1776166171574543, 0.3123051375163294, 0.07593464305721118
0.17761662694663224, 0.3423531302003222, -0.018655014181326517
0.1776166136937487, 0.35240755448798144, 0.10940328792815117
0.17761662068060444, 0.3443501218345115, 0.04189157528936803
0.17761661450633845, 0.3404796554366202, 0.10155150226627557
0.1776166117141394, 0.32405676835308234, 0.12853162102254406
0.17761661184303093, 0.35647127156490377, 0.1272861709808216
0.17761661191547234, 0.34961554996714594, 0.12658619590938164
0.1776166188644031, 0.33381955531736, 0.05944094270330473
0.17761662253294624, 0.33033230918444584, 0.02399300405368434
0.1776166118208765, 0.32125283587714343, 0.12750025647038266
0.17761661457611866, 0.27660693609956283, 0.1008772651745365
0.17761663642183717, 0.3577575590285316, -0.11021084631123124
0.17761661855793048, 0.29501068634863736, 0.06240230422291238
0.17761661701008985, 0.288364704809956, 0.0773585879939572
0.1776166205344306, 0.32779594368306053, 0.0433040121750683
0.17761662735503234, 0.33718300468050016, -0.02260124923522656
0.17761661517052446, 0.2689270149812552, 0.09513371831123892
0.177616616701533, 0.3341213172469166, 0.08034005360276876
0.1776166160971801, 0.2746467881306277, 0.08617974364930749
0.17761661672730977, 0.2802999963406883, 0.08009100320223835
0.17761663015375304, 0.3315061289907608, -0.04964437545793444
0.17761661688367697, 0.3296821505902222, 0.0785800575944097
0.17761661405778384, 0.3278067413134115, 0.10588574513673757
0.17761662142607115, 0.3161814153322485, 0.03468838419362532
0.1776166118084501, 0.31790209088925303, 0.1276203302623156
0.17761663253726032, 0.34575153523965024, -0.07267543770564155
0.17761661353416103, 0.2780764231789412, 0.11094536253568028
0.1776166138597338, 0.3201151443118095, 0.10779944149040985
0.17761661687524383, 0.3039610850614061, 0.07866155450527454
0.16506031894652043, 0.3361625696190472, -0.15472741755786218
0.17271080189293178, 0.3303745494202768, -0.15472743509799872
0.16957403506782984, 0.27391579451651604, -0.15472742790636457
0.17100655800662495, 0.24953222274780273, -0.046903337131895866
0.16886334078995324, 0.24953222274780273, -0.06433803908181908
0.1677141239069852, 0.24953222274780273, -0.038656926572099695
0.16454246114101814, 0.24953222274780273, -0.040778972824266034
0.17166923116810817, 0.24953222274780273, -0.05438306362306162
0.1674915789503857, 0.24953222274780273, 0.109957138211907
0.17273580727493482, 0.24953222274780276, -0.004708225375767358
0.17251205885560728, 0.24953222274780273, 0.08614615946493753
0.17131368025518937, 0.24953222274780273, -0.0302665637621602
0.17155454023065453, 0.3602275782476818, 0.12195296165555951
0.16621899284766037, 0.36022760271315885, 0.12038434606831688
0.16644052261302117, 0.3602276016973818, 0.037697602431559674
0.16377192995950152, 0.36022761393386993, 0.060840864298825306
0.1666477861040003, 0.3602276007469998, 0.04417063397385486
0.17189201783326263, 0.3602275767002806, -0.049969946934697085
0.1757192885566885, 0.36022755915077526, 0.07707287018234073
0.17099735547883643, 0.36022758080262207, -0.018899553301655832
0.1763308181269867, 0.3602275563466807, 0.0904597222006754
0.17031792305498794, 0.27058771350167815, 0.13524280396407623
0.17286456913298956, 0.2560452007618846, 0.13524279228671238
0.1639429952898992, 0.292691391111434, 0.13524281156873458
0.16261759915041238, 0.321684889582449, -0.15393103935597896
0.17761663066897787, 0.3593237449573056, -0.05462283731178027
0.163474971098013, 0.3602276146411896, -0.06284038819796271
0.16279132380684683, 0.24989665169152958, -0.012371193367474512
0.17758838403863753, 0.35961514179709253, 0.12517648853006738
0.16287345670100706, 0.2497696930008837, 0.09610674625693857
0.17698470448163783, 0.36021100816479956, 0.12600833736508515
0.18711526325579872, 7.428307564212903e-05, 0.12174377485830895
-0.19402650088340553, 0.0008383057811834037, 0.12652430216175026
-0.11329472232096219, 0.5114972885543778, -0.13944129645824435
-0.10599560958923229, 0.4459803510550998, -0.13944129645824432
-0.15175391738651448, 0.444954207360842, -0.13944129645824432
-0.09507620400878376, 0.504285138904637, -0.13944129645824432
-0.14703957964491737, 0.4563793472382702, -0.13944129645824432
-0.009541703910484818, 0.49293841519223847, -0.13944129645824432
-0.1003851763798235, 0.4907121438420199, -0.13944129645824432
-0.1460158278630033, 0.4531010073820133, -0.13944129645824432
-0.07695016253951706, 0.5028317154250024, -0.13944129645824432
0.010860782714957702, 0.5089667737769932, -0.1394412964582443
-0.06417607579962319, 0.4722982067563286, -0.13944129645824432
0.047432314715952134, 0.5129308947579556, -0.13944129645824432
0.053341050503541036, 0.501391916231491, -0.13944129645824432
-0.07424185320828748, 0.48171893087391915, -0.13944129645824432
0.003622184773457715, 0.47906886907818813, -0.13944129645824432
0.007873036120443027, 0.5016403702547785, -0.13944129645824432
-0.01745249087280925, 0.5157858378209215, -0.13944129645824432
-0.13929382000557022, 0.5002763487651231, -0.13944129645824432
-0.07806294634448144, 0.48731067974170095, -0.13944129645824432
0.05696527404799004, 0.4912379627394071, -0.13944129645824432
-0.1177658372108321, 0.4625793972206924, -0.13944129645824432
-0.13605163305379386, 0.439555561243062, -0.13944129645824432
-0.08449277789330217, 0.49226460844658415, -0.13944129645824432
-0.09394817437019404, 0.4990920766649038, -0.13944129645824432
-0.007221396064294144, 0.4911926888177788, -0.13944129645824432
0.031057708823093354, 0.4940195728039154, -0.13944129645824432
-0.043053524498681585, 0.4923897560425468, -0.13944129645824432
0.03603349821677731, 0.4948203478930258, -0.13944129645824432
0.0601510809923877, 0.49836370418137255, -0.13944129645824432
-0.04579045569387331, 0.4693202025901544, -0.13944129645824432
-0.1393151201803329, 0.5046029508903274, -0.1394412964582443
-0.11925016215610845, 0.49173009894223246, -0.13944129645824432
-0.07390829324804163, 0.4934829857430898, -0.13944129645824432
-0.08059003248436916, 0.5046148267552962, -0.13944129645824432
0.11951176120855325, 0.5151770939007425, -0.13944129645824432
0.05337404310749551, 0.4786145891246627, -0.13944129645824432
0.11413434051697255, 0.4890776745573746, -0.13944129645824432
0.10220481152235396, 0.4284382600268005, -0.1394412964582443
0.03894543124058295, 0.4768144732265957, -0.13944129645824432
0.02450594892395094, 0.4390068691065964, -0.13944129645824432
0.1493163515528798, 0.4908057130107747, -0.13944129645824432
0.054802354654412924, 0.4408665375132169, -0.13944129645824432
-0.027430837984732653, 0.436476496398933, -0.13944129645824432
0.14115536699235054, 0.5089429801944498, -0.13944129645824432
-0.11880149558911206, 0.4272398270175046, -0.13944129645824432
0.12759573936687285, 0.5041584107358882, -0.13944129645824432
0.15753999831697124, 0.4669704847540166, -0.13944129645824432
0.11033637132427149, 0.4326222002488861, -0.13944129645824432
-0.08988909522550698, 0.4248641595190109, -0.13944129645824432
0.15526738953192826, 0.47990437758636445, -0.13944129645824432
0.00458465595646626, 0.4432867491596062, -0.13944129645824432
-0.04330216035795289, 0.4462005035802403, -0.13944129645824432
0.16004629587845898, 0.45776953538594245, -0.13944129645824432
-0.008617329057672922, 0.44594132852331525, -0.13944129645824432
0.06860438469639986, 0.4704218392447409, -0.13944129645824432
0.12207722141323576, 0.4600503132706567, -0.13944129645824432
0.07480390341674774, 0.44160587087715847, -0.13944129645824432
0.047096332585720754, 0.4777843344347013, -0.13944129645824432
0.08119869025674714, 0.4716862504313759, -0.13944129645824432
0.13857564590868118, 0.4529943786766871, -0.13944129645824432
0.08405534518721168, 0.48685389825125924, -0.13944129645824432
0.10642680726038328, 0.44635910923713557, -0.1394412964582443
-0.06432271061331629, 0.4312922907896404, -0.13944129645824432
0.1314043454939993, 0.4865607371335352, -0.13944129645824432
0.10063540384100841, 0.4859365846399597, -0.13944129645824432
0.04031565227944671, 0.4234199049735184, -0.13944129645824432
0.136366604419857, 0.4895203214585432, -0.13944129645824432
0.12956115726913386, 0.4519176581383644, -0.13944129645824432
0.13874123977135652, 0.4935728161808055, -0.13944129645824432
0.034281803138581986, 0.43520852869198356, -0.13944129645824432
0.11805705293365552, 0.4717812908120643, -0.13944129645824432
0.08891158307186742, 0.5163583085770014, -0.15444034352186403
-0.013720674109954131, 0.5078508622151123, -0.15444034487037428
0.01718854341595294, 0.5018876097766227, -0.15444034581560587
-0.1231959820537401, 0.5067287392921004, -0.1544403450482413
0.14761863927560503, 0.5139249961351448, -0.15444034390756695
-0.06846578740996079, 0.45506794124494543, -0.15444035323696356
-0.026082412095826832, 0.5003640140405052, -0.1544403460571101
0.05189477274173619, 0.4969072209121699, -0.15444034660504435
-0.005446010071461671, 0.49351377812940717, -0.15444034714293692
0.0042682779923015335, 0.474092239725226, -0.15444035022143338
-0.12525499436913354, 0.5086226370081325, -0.15444034474804072
-0.04752617370385239, 0.4815898108213648, -0.15444034903299786
-0.09919298175164067, 0.472804675689098, -0.1544403504255244
-0.06964966091135122, 0.4594264800925343, -0.15444035254609417
-0.004277375307787504, 0.49231217624863777, -0.15444034733340212
0.036135773471914885, 0.4976165283265713, -0.15444034649261246
-0.15615405280089822, 0.47767342581682265, -0.15444034965378173
-0.14872394079010895, 0.43930245522273986, -0.15444035573594136
-0.08800149966603765, 0.5169442705955182, -0.15444034342898355
0.06129148311215641, 0.5050854528868192, -0.15444034530871767
-0.10084201718019381, 0.4904279605452305, -0.15444034763206804
-0.14389377365550268, 0.49530303468389936, -0.15444034685932295
0.05046336735945241, 0.5050973544957453, -0.15444034530683115
-0.10679101081465735, 0.46015116495027786, -0.15444035243122484
-0.15423092122141896, 0.4463865163105459, -0.15444035461305106
-0.03459532387398455, 0.4888702500172224, -0.1544403478789798
-0.09822007022574505, 0.48272728860883235, -0.15444034885269695
-0.03934256155857641, 0.48536274182609085, -0.15444034843495283
-0.10555416863886621, 0.5112204891919516, -0.15444034433625675
-0.09815907262410224, 0.4809055543776917, -0.15444034914145896
-0.03026842001307513, 0.4723569714967293, -0.15444035049648971
-0.11795173174942737, 0.4545158333689519, -0.15444035332447786
