0.319573244694878, 0.13437033786985067, -0.23460206641962628
0.39387458892077565, 0.13363882124235993, -0.23112557245763288
0.3183167124981446, 0.13377717518437665, -0.21034186085296677
0.4733583849491762, 0.13379177307092563, -0.2359225270674171
0.4829511764453969, 0.1325554823963798, -0.18379453687228686
0.5529720020947492, 0.13415096021293657, -0.23002167440039126
0.6599631724025116, 0.13474399246939311, -0.22652493717002173
0.6964287916810289, 0.13521138639366515, -0.2359925714178938
0.4733815181193861, 0.1321179868111316, -0.1686588228590925
0.8776330735238086, 0.13466445152588885, -0.2878371030892068
0.9764326636316115, 0.13298688397203232, -0.26768087691291975
0.8285405281491174, 0.134421824519449, -0.24859101952119733
0.9789052850320155, 0.13305793080011563, -0.27235028251679744
0.7633568415853303, 0.13532327792819673, -0.25249034857828345
0.9317557200087683, 0.1337619672884239, -0.27755034024881203
0.4669068393699404, 0.12910994326117556, 0.07331578251308167
0.7641814068878243, 0.12899418019162517, 0.08269802334773729
0.6383887288077946, 0.13020263547769823, 0.05874281249250948
0.7151973922454438, 0.1302709817890671, 0.06340971053109798
0.2719411607265383, 0.1310695971774677, 0.02937128031896965
0.7289435986852246, 0.13028224135057484, 0.06386480327093899
0.7416141729164751, 0.13001867705564915, 0.06644429257469295
0.4345551844219224, 0.1304165524187688, 0.029175935082414627
0.49321528879259713, 0.13008142762126837, 0.04947647409232568
0.32842349367865453, 0.13232598720356864, -0.13988528834704866
0.2613617071551988, 0.132631438640035, -0.12263957111026438
0.19400622822525831, 0.13400042252571515, -0.13571549018264745
0.38437745522732464, 0.1300126759250324, -0.09536708506164772
0.35483337655055225, 0.13089037341364834, -0.10903589160772073
0.599908854479771, 0.13166775837998107, -0.0863300590886481
0.6317528785266634, 0.13197396638676104, -0.07044389632169468
0.5231927530158654, 0.12979960291077694, -0.052920568370449124
0.5343565072947127, 0.13017677880437034, -0.06446060921549451
0.651772210619896, 0.132317031028035, -0.07000366139956032
0.637324486995447, 0.13240876411005137, -0.09183713436543416
0.42361403480700716, 0.13027334758223647, 0.007653522620165344
0.3689842987648698, 0.13106949641091328, -0.0023186464150974284
0.3688918498187162, 0.13100639683381993, -0.004358375349234577
0.29817307686742434, 0.13144533486234775, -0.03583921336431292
0.4146794617311377, 0.1290503721284667, -0.03645101958185806
0.6435909686724716, 0.13109633645997232, 0.030501122472371377
0.6225265196838075, 0.13098133028016268, 0.03220181394436312
0.678147165928641, 0.1322201519575025, -0.008639126417492649
0.6859742448858963, 0.1320423676608255, -0.0006992790557886937
0.628987100486871, 0.13087164707161864, 0.037314816013216935
0.7477485123712905, 0.13219104255823141, -0.009840126031485005
0.7497863569549854, 0.131064665711127, 0.0332566240699892
0.9350329275317055, 0.12953405343694335, 0.013789864394322223
0.7670023231222156, 0.13187709111192114, -0.005818243383219231
0.7643275577538252, 0.1310153166167858, 0.028964927854155723
0.6870628939374744, 0.13276860595660225, -0.029519627061880147
0.5461234448104306, 0.13162113625870062, -0.003314950152016995
0.6331045665728253, 0.13185182385001143, -0.03438657958202275
0.48309214264871514, 0.1296014505360511, -0.03860539297261884
0.5987080227224899, 0.13139752994457538, -0.0334286959347683
0.7076515113282822, 0.12798223178770077, 0.1067255203155402
0.5347526793643376, 0.2645262591110068, 0.11468597266865929
0.4696974361703666, 0.2629445145073722, 0.11459911841027932
0.8345222204813887, 0.28474306495393376, -0.09186526459389338
0.9547178023642539, 0.2847931885179897, -0.10525459121525725
0.8281841536753591, 0.2847860415326389, -0.10235867423704448
0.8731243175040564, 0.2847617855149061, -0.09680928746836313
0.7757443762071257, 0.2846108089379086, -0.05886674637035817
0.645322345574127, 0.28462711706566746, -0.059137801738167274
0.44665873161437786, 0.2846803674185861, -0.0420598785692796
0.6632400699012221, 0.2845851977109755, -0.046792594392178664
0.4544378414856395, 0.28483383051918293, -0.1009198375415233
0.4459887027995255, 0.2847530867971248, -0.06913971147110654
0.4553831628283934, 0.2847273889704235, -0.061275672329034414
0.30978591731738003, 0.2837885713119637, 0.012900353654358154
0.40520268327203535, 0.2829537303568429, 0.016353484209546295
0.3919124956377684, 0.28355443061979846, 0.0016771197663777802
0.16823011449035016, 0.2848993810997522, -0.05609336221052716
0.2328802100323458, 0.28482451249234303, -0.09678175148323244
0.15799469591625157, 0.28488115296530475, -0.11647122120158913
0.27687520603782556, 0.28480622044636456, -0.05193021126081572
0.15946806787796883, 0.2848998796975341, -0.07201075420086787
0.5322090139723417, 0.2845086037575049, -0.03420028515425008
0.7246266567620734, 0.2838988226748368, -0.013965314550155128
0.5246069022659763, 0.2840916618142987, -0.017193417694632313
0.5571048254738746, 0.28453365075072945, -0.0357788041802345
0.7455496746408904, 0.2827751518067936, 0.04167847274171753
0.7733699038797447, 0.28284020517636843, 0.048141207266223646
0.7234782333133776, 0.2825963784469692, 0.06175175835087892
0.6773967791698392, 0.281486410702912, 0.07247337663143706
0.3866452128764242, 0.2810354453062204, 0.05459239939997476
0.7309810914485617, 0.2832505107157322, 0.012353694840833316
0.7910693362910184, 0.28423644572897194, -0.024171517099661474
0.7985833460755435, 0.28402389587112364, -0.015184701459061183
0.763407129075313, 0.2840892939809839, -0.019736297718532674
0.7365868665987516, 0.28401408479922224, -0.01815885884924912
0.5685707039180542, 0.2831673027315623, 0.012622045892300808
0.6436727138273156, 0.28313554481303216, 0.017148394629166126
0.4590926188297142, 0.2843545687496628, -0.027536243414531286
0.513534421101792, 0.28384991422071243, -0.010088496080702409
0.48704414029332754, 0.28076944344233, 0.05783318330585464
0.4725941761733544, 0.2806552632119021, 0.05569651991083892
0.3151507341677484, 0.2794991788118736, 0.08015620262419931
0.503926690886425, 0.2820021777560001, 0.037590775346027144
0.9021792807191786, 0.284858064427615, -0.19698593438134918
0.7432899944981926, 0.2848703009028707, -0.1771879604487897
0.7510348793912494, 0.2848726203808189, -0.13986493868870714
0.7450760519309119, 0.28487265297367537, -0.14472020333408736
0.9527343439874792, 0.2848548028820767, -0.19498886942656088
0.7548923224281238, 0.2848719269535301, -0.14554998854689827
0.49662303673205765, 0.2848643531574119, -0.2818904644511244
0.5545591776027208, 0.2848653725310649, -0.2708311482887991
0.4778899185789041, 0.28486401849824833, -0.29303633218330205
0.5308436169088946, 0.28486495212457774, -0.280055856432739
0.5654558700557795, 0.2848655655432659, -0.26682300241151374
0.2992071940283831, 0.28486294331681244, -0.22393498419687674
0.2538682808539926, 0.28486284292797187, -0.255482708389565
0.22418435477168075, 0.28486278501368206, -0.26448936322218264
0.21111668539328016, 0.2848627859165135, -0.22909079341883085
0.22978016656176187, 0.2848628129603713, -0.23739873044508714
0.8736647011358409, 0.2848599302149044, -0.2581843474209008
0.9540281454368943, 0.284855062742601, -0.2863707153434646
0.8705727592586843, 0.28486005972822076, -0.26862918595224133
0.896475305492639, 0.28485851731086037, -0.27243370964598895
0.8050777724375507, 0.2848640198512886, -0.24701363985122818
0.9782072453079977, 0.28485360711522767, -0.2930830621674811
0.5323472358169794, 0.2848962043446332, -0.1260747503040141
0.6905718198525364, 0.28487602428491915, -0.1677503685037267
0.6851648052247563, 0.28487914301242084, -0.13444163727153563
0.6841228059448932, 0.2848781284337664, -0.14922894980920384
0.5330104026323067, 0.2848956079206447, -0.13296788123418793
0.5028468437592212, 0.2848652276880953, -0.21029232154846314
0.45046661693569146, 0.28488264352855514, -0.17395883345548016
0.5589813172582174, 0.28488120774638886, -0.18081032995252863
0.6754849941404165, 0.28487097740572287, -0.20532608337386987
0.5881813940468713, 0.28487967541203835, -0.18491721859508675
0.5181770350666097, 0.28481176092712857, -0.10220785865516037
0.5161973851652717, 0.2848312150882534, -0.10693133432813991
0.6878699978136968, 0.2848584271944674, -0.11817922127429725
0.623017463369191, 0.2847205485808051, -0.08260368236978069
0.6631415463983681, 0.28470127794799993, -0.07894004408225588
0.23731317964099158, 0.2848864280285863, -0.13998435417619332
0.35501753870355685, 0.2848978173597973, -0.13822107466171615
0.1601604446363146, 0.2848723030719975, -0.1707082694558587
0.2626305658483365, 0.2848836886000522, -0.16264509987799156
0.1957973011419628, 0.2848859989219075, -0.12467530249382355
0.16406930843901738, 0.2847546366659332, -0.46839651145577454
0.1540907340605461, 0.28483387262444393, -0.40085220039125774
0.1753788154710187, 0.28483786194572147, -0.39768590108653556
0.16900413004034148, 0.28478990826229655, -0.4384302653882435
0.15650527389270802, 0.2847962093146184, -0.4329330611088722
0.45949741547762424, 0.28485341210525483, -0.37084676634910796
0.524690457501045, 0.2848554592800391, -0.3615911459759727
0.5708310161022384, 0.2848562048253859, -0.3599372543097703
0.5228348446647764, 0.2848595762416182, -0.33278610875706444
0.5824835202359357, 0.2848532868102696, -0.38114601046671226
0.20146337950455523, 0.2848563573690987, -0.34015108189044574
0.15404491906655343, 0.2848566557473593, -0.33747351530951986
0.2045958705494492, 0.28485157525158444, -0.3706828152936246
0.1720003792836187, 0.28485438852894657, -0.3522181642691258
0.26156030516104617, 0.2848562277738792, -0.34196026630383464
0.49087642772323614, 0.28486158976343046, -0.31678484881115687
0.6635733654953828, 0.28486246596788556, -0.32971708971726627
0.5112317083995759, 0.28486382986654757, -0.30538964191259343
0.7053567245767172, 0.28486168116359256, -0.33887274866593986
0.6012731093678322, 0.2848588215852023, -0.3451750174205417
0.4917479205995023, 0.28486139877471917, -0.3180315820932969
0.5648681352460064, 0.28480887733940996, -0.42481511101546043
0.5312601722297761, 0.2848376651349762, -0.4010393974725021
0.4608143830210144, 0.28482335693008176, -0.4120775930578534
0.49003202309357274, 0.28478375519030785, -0.44463242705731093
0.5413426601129413, 0.2848213814362846, -0.4144082423243364
0.736848497993548, 0.2848233618014244, -0.41397380509989196
0.8013399247942992, 0.2847969689845203, -0.44949833829048635
0.8978247248720331, 0.2848359009944827, -0.44673404741310596
0.8231957561851753, 0.2847907225635986, -0.45961376999717113
0.7937355075249355, 0.2848510592891958, -0.4089619796909462
0.7258171456153183, 0.2848683484424188, -0.29962709901355516
0.6340763104199606, 0.2848668708067307, -0.25107970364054516
0.5717059116431414, 0.2848658624096735, -0.2188371645872174
0.6043239320495827, 0.2848663815507533, -0.23734072645547383
0.6388723269914443, 0.284867141423863, -0.21501509430854
0.5431892164001682, 0.28486532618067445, -0.21910255965173456
0.8170542249437454, 0.28485785356633553, -0.36409488231459425
0.7428642156529701, 0.2848578047126612, -0.3645332607594892
0.735779042063686, 0.2848536438239028, -0.38970418305735344
0.7906077608106561, 0.2848581542530719, -0.3623278680031324
0.7663298684818063, 0.28485864420569695, -0.35941234795797283
1.1622852397442578, 0.28452825097559253, -0.5289119568418728
1.1012882916924882, 0.28467737534141374, -0.5207143195654036
1.1916716117394068, 0.2844550531988016, -0.5482843204653614
1.0957273169193587, 0.28469308954867845, -0.49583996024181576
1.2206810720019057, 0.2842556291608549, -0.46266053515277067
1.168218056755684, 0.2844295812575014, -0.47177608213919686
1.244569688005999, 0.2841556075798134, -0.4450066136742592
1.0987639893721493, 0.2846346000894553, -0.4674492479999941
1.2852488403808056, 0.2840692630840693, -0.46942662133618146
1.001216727155472, 0.28484963551896436, -0.42682152242174587
0.9055847020647504, 0.28485229390715144, -0.40194880958295276
0.9421755700873137, 0.284848213598193, -0.4404472446035093
0.9712491387844818, 0.2848522075029448, -0.402574557559224
0.9672415692915357, 0.28484913190719996, -0.43168559104028525
1.0467507916205347, 0.2849746220136709, -0.5671702714787628
1.078701058628777, 0.28514974476530813, -0.5904227986597866
1.0547714178577774, 0.28520324036612044, -0.5934183414537328
1.0201927492199205, 0.2848380167321263, -0.4930878841544645
0.9827805859817589, 0.28482549801659157, -0.4786457134217116
1.0216290362928024, 0.284835934297716, -0.5273764698074352
0.9750957416764878, 0.28482134964738665, -0.49643388561683693
1.0546584213757693, 0.2858842040030307, -0.6107688998551994
0.9267960194989645, 0.28469536760866937, -0.5507608288711565
1.023820622552063, 0.28525051073343055, -0.5975863915877293
0.8544345707288086, 0.2847902838811526, -0.5720623377910486
1.1109073192296797, 0.2881637792524001, -0.6258598868430055
0.9100444925559846, 0.2851003063344797, -0.6036907401708955
1.1322525074252592, 0.2909948185485295, -0.6312009293275245
1.0658726301157007, 0.3259168264966258, -0.6446780309120785
1.1914644222870787, 0.3385889434597696, -0.6471983546800792
1.1400911547287171, 0.33876899073508454, -0.6472856098750108
1.2395676477681667, 0.3014926129339458, -0.6383652337013701
1.0024612705264266, 0.301066991391005, -0.6388178850436991
0.8777181466839987, 0.30557979766982757, -0.6410649748322644
0.9932066167173299, 0.34201899260884944, -0.6482214693037808
0.8715313201051766, 0.3051759355913882, -0.6410043614825403
1.0948556937693648, 0.3996204184366231, -0.6598499245864737
1.070711600335988, 0.4897199936051677, -0.6784149061624948
1.101345787085169, 0.43439836685296085, -0.6669898073058265
1.119350825652894, 0.4520833047121623, -0.670596233974551
1.1083172725188113, 0.4223314442708336, -0.6644972518998286
1.0808112163533798, 0.4500599259644251, -0.6702438369184243
1.0971568084181937, 0.47264409978298216, -0.674860321386837
0.73478920968299, 0.5438301544293754, -0.6906826303689106
0.8241271802121104, 0.5032890338523363, -0.6823572456620909
0.7563723521487257, 0.5200711180555981, -0.685990125841732
0.9044462317899408, 0.5237746331234178, -0.6858034570579374
0.8753658139533808, 0.5286617763750097, -0.6869180779623825
0.7841619824094141, 0.501481790241904, -0.6822525590800039
0.7653783675982435, 0.5175900193120284, -0.6854591625892266
0.9316700066960533, 0.43196464260929834, -0.6671010681234283
0.7820083215977968, 0.37059028253621, -0.6552143066889191
0.868522633115143, 0.3658661707536059, -0.6538198099507591
0.9186337787891674, 0.439251563067414, -0.668663061428531
0.8634908423695525, 0.3858830292788821, -0.6579599827677918
0.952622205572603, 0.3918932603876737, -0.6587597150898354
0.8733356570441638, 0.3767996045927374, -0.6560442311148503
1.026322673621701, 0.4718151911859104, -0.6748315186148067
1.24429053907873, 0.5229356849935713, -0.6845006532323944
1.1886491419913023, 0.5353568128751474, -0.6869820799597749
1.2928308540662246, 0.5735564662593103, -0.6940949784919705
1.1635976655698514, 0.5697823649014003, -0.6936162078791245
1.118754882711307, 0.5766543572887004, -0.6950155330738238
1.2890973312959042, 0.5757129171387286, -0.6945146224746243
0.7726923649999663, 0.61310549026538, -0.7037639526948871
0.8480474302954231, 0.603450241431931, -0.7014467143221206
0.8871350510425483, 0.6372483760592977, -0.7081574650744614
1.245818147186397, 0.6012645778164302, -0.6995605559320796
1.1852163237594637, 0.6095894812040155, -0.7013408466289535
0.901812324747662, 0.6573566846722756, -0.7132106908598987
1.1470403604296973, 0.644269124119558, -0.7089113486865264
1.15238574416364, 0.6440869870036918, -0.7088605803791921
1.0805946586140345, 0.6664491155063319, -0.7156018542201958
1.1452760721713233, 0.6743875660788019, -0.7200886339322763
1.0566716702703658, 0.6846242690605534, -0.7349648644100641
1.0491738396398655, 0.6867305986646937, -0.7458153477240724
1.2204575544556284, 0.6869748252688741, -0.75440582731524
1.0545533734102883, 0.6872270561003437, -0.7613604378435016
0.9611100056668843, 0.6868799633511917, -0.7524854247783562
1.2199675484386538, 0.6866252647131402, -0.7719203727488841
0.7326799683079969, 0.6852667170487385, -0.7776654276072977
1.1931011720857811, 0.6855645990788428, -0.7852181518970043
1.1240545266451116, 0.6841544589704461, -0.7969603748235591
0.8941048391523712, 0.6822048697936971, -0.799464538259939
1.0655291156398916, 0.6573256307531881, -0.8075817109131476
0.9890354219930675, 0.6687494979423786, -0.806652502785283
1.0669720199932926, 0.6013565284627819, -0.8091747873055408
1.066068168465048, 0.5929840689267553, -0.8093145913089196
0.8954739138596508, 0.6365888868765618, -0.8086149631802846
0.8503039568742428, 0.6458119786913423, -0.8083770838204968
1.0901798989655802, 0.6452872128817275, -0.8081585148810616
0.9250907393637975, 0.6557883467152218, -0.8077574363544823
1.105325576712023, 0.5186182834423803, -0.8097623970440818
1.1789048342159034, 0.5193935944107843, -0.809686985317376
1.1168240138429089, 0.49135520406912014, -0.8099199292030119
1.0505073903024593, 0.5191034817413718, -0.8098120090228169
1.0983857172765896, 0.564091298919479, -0.8094878975989155
1.0265387498167282, 0.6051917978074589, -0.8091460521967954
0.8698153140250934, 0.6216131878794519, -0.8091066469372046
0.9991391431565027, 0.5152557172777275, -0.8099121369796368
0.9453709099659788, 0.5352817199110742, -0.8098852125931477
0.8743135352797691, 0.5418386776501121, -0.8099723514704731
0.957255202623386, 0.5274935357848934, -0.8099118871511739
0.8776381071447782, 0.5765196807341535, -0.8097526002162256
0.8699488622837119, 0.5837111750173573, -0.8097220731299744
0.9001944934916419, 0.5482581815811222, -0.80988632001322
1.0387351027112866, 0.37941886550933057, -0.810101636491207
1.0516823574496001, 0.3647482736823674, -0.8101040611865453
1.0560101765229268, 0.43225040954796407, -0.8100439975849008
1.1635561525386362, 0.3596049035745089, -0.8100227613193001
1.1164103974398687, 0.3627128769162345, -0.8100562319624669
1.2293674106717971, 0.3631660206228242, -0.8099693978682676
1.158767020403985, 0.3560501114686163, -0.8100294153737186
0.8714181150291832, 0.3282039911945952, -0.8104608179322824
0.9382153279691656, 0.34960987140142435, -0.8103512756404554
0.7935481791863959, 0.3457492508580259, -0.8106934546278692
0.9877437613739792, 0.42045809512104504, -0.8101790388682792
0.9178556394182944, 0.4752790849289581, -0.8103088741377472
0.9736311268463461, 0.41300288490022385, -0.8102203333444288
0.9812042713162092, 0.44519673346811817, -0.8101752291162214
0.9033079345178168, 0.4088811505625741, -0.8103992244511572
0.9085874324997287, 0.44196293882763393, -0.8103591228513081
0.8419453948012907, 0.47656098616670184, -0.8104973136360009
0.9329836069714406, 0.4543423699638519, -0.8102881516790041
1.0199786167325207, 0.3664603179203875, -0.8101425215414185
1.0672556436887524, 0.3360128455027621, -0.8100997724551324
1.0774985410706517, 0.334896558946658, -0.8100930316165471
1.2071466347167492, 0.30442779507227713, -0.8099944502086965
0.8282435021134706, 0.29340743632560884, -0.8105108575786949
0.838446292353308, 0.2764723346719149, -0.8104562967271473
1.192794467899237, 0.2859441382401219, -0.8099903875859946
1.279708866776004, 0.26735220551778166, -0.8099529718508912
0.8341955878707967, 0.23887210698984945, -0.8102401395301473
1.1212815236112195, 0.2354653008937981, -0.8099600975052152
0.8691530124975888, 0.22836782603267666, -0.8101538691635168
0.7464032611352226, 0.2138481904895251, -0.8102353932646305
0.7329517963855157, 0.19343196229613235, -0.8101106198961037
0.7353721617802624, 0.17436502389774744, -0.8098971649222045
1.1970938343995685, 0.2131108440027902, -0.8099014156333127
1.2293325131322224, 0.198691356949233, -0.80988533951393
1.2434670232192668, 0.17722592787761093, -0.8097558285253661
0.8239923821341599, 0.15964635266852073, -0.8095503324451354
0.7566808223676593, 0.15861931002242974, -0.8095581372770464
0.764199339183157, 0.14325418618253366, -0.8091190087661471
1.1865173939038096, 0.14874713668856043, -0.8092963731006892
1.1901361907120345, 0.12925559479853085, -0.8086927977110684
1.248968609554562, 0.12769149692209067, -0.798134301925273
1.2744639794259827, 0.1280466586562549, -0.7786394508929249
0.8470387400373776, 0.1280497888846711, -0.7935685694791605
1.0606821943956426, 0.12876551411268747, -0.7637542042534096
0.9929391637441424, 0.12870049570946188, -0.7669857017546605
1.0682955675635972, 0.12862062995815962, -0.768118931807959
1.0398610699304422, 0.1297441898740286, -0.7317382679547706
0.7609043160183054, 0.12953150708353373, -0.7405078256506445
1.0881024427312436, 0.12916376228542673, -0.7499886639899487
0.754287695317747, 0.12988896936439573, -0.7276918291325838
0.7858103206043643, 0.13017829001327386, -0.7169567623608475
1.1025923580227657, 0.13022454031665626, -0.7127921828881156
0.9216967945943446, 0.13071222350043754, -0.6965124367782578
0.8029963679644585, 0.13057153636384325, -0.7019890948302858
0.8416393434224021, 0.13189250428637622, -0.6462732311852188
0.7483256507345113, 0.13164931018776088, -0.6572903507238983
0.742924822522774, 0.13162949147268416, -0.658188365259027
0.8493249750626677, 0.1317880131996118, -0.6510110227906165
1.2187932975946465, 0.1318517086526961, -0.626446337989267
1.0619766913323752, 0.1315206438498009, -0.6598930359141477
1.1687763833303042, 0.1321014300128068, -0.6209857109537453
0.7450296763807109, 0.13126028492514755, -0.6743667933982496
1.1200075427098146, 0.13118668206020462, -0.6732320147548241
0.8131301363591862, 0.1330539832153281, -0.5888252005257262
0.76710797037337, 0.1338283311368902, -0.5456529224924793
0.8541491499221177, 0.1332645055721719, -0.5770972244475467
0.8255731509555446, 0.13345223138234508, -0.5666279093792772
0.7977981685349371, 0.13319219978533162, -0.5811179661537628
1.1067245678218147, 0.13295616197270424, -0.5778987681496224
1.1859369420509585, 0.13299981490422125, -0.5581567147646782
1.1459273527492715, 0.13340062317835227, -0.5437553879186982
1.18989965669813, 0.13302749231720826, -0.5556996733640351
1.13331809599216, 0.1343654393059465, -0.44694645694866775
1.079184153918828, 0.1343728991156412, -0.46069132856160444
1.1446352327001144, 0.134179360950064, -0.47421780729666024
1.1448349625701693, 0.13432997268119407, -0.4495571709706613
1.0493432151837006, 0.13423325590725976, -0.4917533931386921
0.9284122837834836, 0.13424787636151234, -0.5151249259180264
0.8006454782914822, 0.13480833467722597, -0.47209580733090384
0.7266971653764958, 0.1342287446828542, -0.518954264011388
0.730892869886253, 0.13493337956364185, -0.462967957891412
0.8482239167349127, 0.1344877551375534, -0.4970003932415397
0.8370477660103006, 0.1341965055937853, -0.5202495889059385
1.0622396797821256, 0.134373632738515, -0.4018637383761418
1.2167766349744213, 0.13436277330092103, -0.35429565666617957
1.0664140921132534, 0.13416200017763708, -0.37182105968486023
1.1170907967274732, 0.1341670599911322, -0.35739532342691654
1.036059802095342, 0.13422930888191642, -0.39003313495099445
0.9393446095339271, 0.13489105351191666, -0.4229903011249153
0.9122313131373622, 0.13504203580572857, -0.4091381360051465
0.7375188885818653, 0.13554635529020023, -0.38937052291553587
0.8337553467109798, 0.13523965063176613, -0.4045468050881877
0.7314699729289603, 0.13578272598496285, -0.3562205483015647
0.7438709354214328, 0.13567028394500133, -0.3689906367521555
1.0403094094840837, 0.13230022179983347, -0.26747260442967036
1.0878192703900078, 0.1330398220817326, -0.285826204641052
1.0603095685951236, 0.13262171589520555, -0.27566329849229676
1.1254480077080444, 0.13254698644861324, -0.2509901808298949
1.154782330212472, 0.1334486683295552, -0.2826929599916314
0.8076676559331322, 0.13518285756040624, -0.28501315772099894
0.8023724135944428, 0.13537707895572648, -0.3361711419455988
0.768035815849772, 0.13538392115018047, -0.26582266721112835
0.9217289535101771, 0.13452351723367675, -0.3143469552934514
0.9739764469705943, 0.1342347344664965, -0.332033169206504
0.8077621940861066, 0.1352252832689791, -0.2988316485561316
1.087664047989022, 0.12952552578371876, -0.16487704085271898
1.1220169476596649, 0.1297536808289079, -0.1602286289134423
1.0365396747270812, 0.13120506165546894, -0.22796111971733612
1.0645033932684842, 0.12932171472924206, -0.16662039757600533
1.167955406739182, 0.13005669767365685, -0.15395456794650184
1.101166982159277, 0.13041342365749703, -0.1852545531132616
0.8223302640295387, 0.13419362204179272, -0.21935814690898892
0.8123367777605216, 0.13416571402914007, -0.20019685475579463
0.7534889911850033, 0.13483560175002232, -0.19172583077480548
0.737223815234985, 0.13525732402903645, -0.21897948502795128
0.7922668402895078, 0.13425836641821567, -0.18031768659459604
0.7406049425015823, 0.13534915504338513, -0.23576928464383257
1.0379210405235544, 0.1287755851584314, -0.1115685248810505
1.1791313517862563, 0.12715401073704952, -0.0795262646644068
1.1614471955049877, 0.12794184099260966, -0.053472202391166554
1.1026897941538787, 0.1285134630172758, -0.072106755536923
1.1971097685570642, 0.12736524760065573, -0.05397008831589385
1.0743906250819557, 0.12869535505882623, -0.025348896784376646
1.142994206780226, 0.1265038026340759, 0.013147939624253395
1.076927358233303, 0.12787314867420752, 0.005594854347100029
1.1590544131212939, 0.1266193591257186, -0.002876667082682929
0.9173409176450914, 0.1316822527333478, -0.09369655969177379
0.8151710975690873, 0.1331962785963173, -0.12842595727274245
0.7862015543588659, 0.1336527662948297, -0.13687218854784058
0.9226347379699942, 0.13100799408170474, -0.12259111524181326
0.8183715395238834, 0.13327614226851098, -0.12078054291698788
0.8329585518862105, 0.13295776192191444, -0.12108812787679923
1.0141244428034808, 0.12877256778294316, 0.009387424416234736
0.7435303183918311, 0.13284718433284348, -0.03366041392886356
0.8158936673211419, 0.13203477707554784, -0.033219594488238614
0.8248638925738179, 0.13164734990814886, -0.021715273226571075
1.1578475715232057, 0.12523996312655808, 0.045514366616484794
1.2039109922011093, 0.12455299869617369, 0.0457491811938517
1.002410194274315, 0.12803054316234352, 0.03804096660426512
0.8534342490982842, 0.12945894108803763, 0.04735469627161894
1.0263359107718417, 0.2597026537232475, 0.11918832102185556
0.9013835093176045, 0.2628607771473903, 0.11724339391507592
1.2581521593050564, 0.2790213051350599, 0.0660221948577594
0.9405345456139608, 0.28150871946676836, 0.08038973459571791
0.8211438939228677, 0.28260511352680745, 0.06256102166156163
0.8269250745027934, 0.2826377199561449, 0.061798701322579974
1.1339478105401408, 0.2816576615351203, 0.04741091025316919
1.2439205124343937, 0.28413490916384426, -0.028057479544092514
1.2541708614264315, 0.2819325071786676, 0.005557969783929974
1.2754270243261185, 0.2833636869621188, -0.01703382988730834
1.2719806808127982, 0.28299151565826597, -0.011214674910146622
0.8739258805876727, 0.2836174450779938, 0.006941794432984509
1.0241477164846038, 0.2846133092810575, -0.02519191404956722
0.9974024741177295, 0.28408097827506434, 0.00153710997218141
0.8451527103701704, 0.2831717255073455, 0.028184084658202924
1.1800041417457616, 0.28447987705497607, -0.10691967741836039
1.1714364880772303, 0.28443133067818854, -0.11719396147588296
1.2842241247154893, 0.28404056587179327, -0.12095500404825825
1.2348547296406949, 0.28433601948604326, -0.10251531188984854
1.273294077595878, 0.28461295156971117, -0.04843790488968592
0.9609279234447323, 0.28472456894636067, -0.05267303607957044
1.0174187076285688, 0.2847532159760291, -0.03946315238743574
0.9344862340873246, 0.28469616377737117, -0.04465451197201256
1.0164504506937977, 0.2848210120182565, -0.10435814762566026
0.9522323188874718, 0.28469910944233223, -0.03477196724578143
1.1479102163135213, 0.2844460891443392, -0.18443792690630356
1.048784396285275, 0.28479908762930406, -0.2068531859692464
1.2532404760403308, 0.2840173555870026, -0.18186974804617198
1.294382298715309, 0.28378316558442107, -0.2073012549601392
1.2600160633178383, 0.2840529107374227, -0.15669333683594755
1.013806345182131, 0.2848517105046732, -0.1495819204660475
0.8571294816708857, 0.28486435077972255, -0.14608146499678742
0.8383245773443778, 0.2848656529303702, -0.152255065338321
0.9126232370719863, 0.284858977913852, -0.17479610386977468
0.7503800115273912, 0.28487359077689567, -0.12444299494832958
0.8370082498092403, 0.28486577161747834, -0.15184259109041381
1.0886038295616958, 0.284626954073659, -0.2998717567861107
1.2678317285633554, 0.28388657553157043, -0.27117381886646225
1.2456503034724653, 0.2839779061214278, -0.2723237287597413
1.2317707192635, 0.2840372341354722, -0.2905286957791375
0.9613884290284406, 0.2848537724375751, -0.24336012140320623
1.0014466472449925, 0.2848515744122692, -0.2637516730357875
0.8405266184014846, 0.2848613708847439, -0.22109541854219156
0.9665438792632092, 0.2848541945457542, -0.2746167012777256
0.9038781490252377, 0.2848571882959139, -0.22465329095111947
0.8850674550666547, 0.2848588224750557, -0.23952798590265933
1.2061707644521555, 0.2841920044803813, -0.3617859673271939
1.1646107778614971, 0.28438342573332387, -0.3880811371923512
1.2181149808366556, 0.28411348357778315, -0.33961985434528924
1.157975366563881, 0.28440469454003237, -0.3865038869874653
1.0837227216162568, 0.2846545075018392, -0.3761918305345016
0.8114841622423972, 0.28486376799474544, -0.31143674178837005
0.9838719811964961, 0.28485479411238224, -0.34302569526693527
1.0152131149887647, 0.2848521949173911, -0.3224995363096471
0.9076715837032185, 0.2848581151219943, -0.31153392691445286
0.9893331721171579, 0.28485349455565356, -0.3164656535091118
1.3810159998926947, 0.27939136448215063, -0.5405811809727208
1.3029640503908357, 0.28373654470556037, -0.5165154422519758
1.351474528553545, 0.28073813456176583, -0.42998373847145005
1.3056830948018645, 0.2834267972666224, -0.39069915280374795
1.448911173679854, 0.27926994345092404, -0.5960349540497062
1.3526426459294452, 0.280856080975486, -0.49833936415544766
1.3998215856991336, 0.2779695499261705, -0.48514399096719707
1.2671115381780562, 0.28416748695758115, -0.4919209251249964
1.2010530779479498, 0.2844286120816451, -0.5207443635169096
1.1669745056070666, 0.28448672739934694, -0.49865400644655533
1.0741032655414164, 0.2847425910002315, -0.48549422180052704
1.3713769810826257, 0.2809922363768244, -0.5949381918836376
1.3851963496016357, 0.27966597563131124, -0.5686920622786722
1.26299167141479, 0.28463044249965136, -0.5724525645012396
1.2545020093473631, 0.28497376717478456, -0.5928602492614006
1.2525266207571657, 0.28452207524057765, -0.5640003673838492
1.2205431688001211, 0.285845747235854, -0.6102572866480201
1.3307183511182001, 0.28508420377754173, -0.6181213250144186
1.3437860956445762, 0.2881653323900952, -0.628984545233746
1.2964235712400554, 0.30617890353480415, -0.640252941429504
1.4224045794965134, 0.3039192432282131, -0.6447064516798524
1.3733065434617584, 0.30051928430910163, -0.6407412554746348
1.3843531654517263, 0.3497827537204165, -0.6547673563093314
1.1550712058759884, 0.32809995904209754, -0.6450453003233756
1.1470086753579143, 0.3159984389725627, -0.6424975990324009
1.1586680795338171, 0.32035615887564706, -0.643401168572801
1.3057274217188661, 0.4566312966186037, -0.6718745106463643
1.3322659868069313, 0.43181909913648464, -0.6685064390604899
1.316323372831366, 0.44172073777715104, -0.6695106730337629
1.2388967187904036, 0.3730636263749233, -0.6542694085209934
1.227922515857529, 0.42807862621682347, -0.6655176500259509
1.212329965286422, 0.3653021060223014, -0.6527097154625454
1.265453403410552, 0.40689807800922917, -0.6611548899704311
1.2321924665515704, 0.40185379722563763, -0.6601567115839626
1.2824005877183988, 0.43398270629655, -0.6666709210757176
1.2595566023942932, 0.4622626898287426, -0.6724696309376336
1.1567405130466883, 0.49314514947478116, -0.6789347593800271
1.103603230052723, 0.5173875376196598, -0.6836754392218503
1.1001173818855876, 0.4996360343127624, -0.6802740635636257
1.0364117963062125, 0.5460960010994504, -0.689296515793234
1.0868781741110745, 0.49405804214551075, -0.6792253093290819
1.0481523269699906, 0.5231801031636243, -0.684878776461477
1.3989438329278399, 0.39244652658085494, -0.6646959741152013
1.3268329269718562, 0.48159907582359285, -0.6782770742815557
1.38118219813864, 0.4070208914647063, -0.6665425728563517
1.3920167583069256, 0.4924901873685479, -0.6845348075283288
1.3069557789049289, 0.5179533213337137, -0.6840846468583957
1.4014766267647882, 0.5151496259130286, -0.689255533578935
1.4395951434440717, 0.4405163165537468, -0.6763811246845536
1.4148049926916593, 0.47667571863284786, -0.6825461472571082
1.3922206557285817, 0.5600737584799429, -0.6970567019697667
1.3973800431158354, 0.5097422025248753, -0.6880563085825199
1.0508465203804993, 0.6110645354766804, -0.7018890201302406
1.0866010084537066, 0.6106515615029542, -0.7017386598179984
1.3177665503782823, 0.6029491451186159, -0.7008944192609103
1.3934761601842476, 0.6115007326426751, -0.7067170848538209
1.3585724370452748, 0.6500810273884123, -0.7130211727208129
1.0494708925900387, 0.6366873042845511, -0.7073060646174988
1.3815478046491112, 0.6475545570602893, -0.7135264373370033
1.0881001593630362, 0.6573433762256258, -0.7125451108118837
1.3363170543856606, 0.6710311358959344, -0.71938469603265
1.3209972722802084, 0.6830464728734176, -0.7307260808535974
1.127885216700855, 0.6826673017240846, -0.729534166225847
1.295236401973355, 0.6866246779194293, -0.7455700376166494
1.3747920175965669, 0.687097179139413, -0.7558716428702084
1.3425150606735874, 0.6869185472187449, -0.7665475557192314
1.1589328829232826, 0.6870068942751428, -0.7670076979970804
1.0747887688899538, 0.6864527061046071, -0.7785513038183995
1.1483526815475038, 0.6847136177560083, -0.7925416788783426
1.0886286703868662, 0.6825799874402417, -0.8002326895625322
1.3274874264587044, 0.6757045005072063, -0.8060122415953861
1.1531902290167715, 0.6719905352074922, -0.8062864094854378
1.4274604376133275, 0.6321691154544722, -0.8095202751293661
1.1076555720751426, 0.6495761626266982, -0.8080427985622737
1.3510072083421178, 0.5945959487750418, -0.809645479992162
1.42402222585967, 0.5927839635710328, -0.810414094857995
1.2983444883929474, 0.6482044808180796, -0.8081230294223456
1.4237207721617315, 0.5244554004379844, -0.8115074277705663
1.4014200231453489, 0.5176385210118641, -0.8110857610572985
1.3120643285679205, 0.54411453435446, -0.8097442689495847
1.3551126426065365, 0.5119447726881493, -0.8105650767361795
1.3284407024664904, 0.4985891294054908, -0.8102688398033215
1.1459915452976044, 0.6242473438059845, -0.8087768556127499
1.4008910015655585, 0.4691105155290171, -0.8114609645522181
1.4023716434542126, 0.42728656614255445, -0.8115974031685175
1.3872477165159876, 0.5727327559698101, -0.810236311018228
1.3919298971675276, 0.5685656305271598, -0.8103269509850727
1.2843670482759313, 0.5737641430443089, -0.8092838166348437
1.1122889682191013, 0.5728731311569673, -0.8094261012114605
1.2314965791583812, 0.5324995862969265, -0.809563976525004
1.184598909947603, 0.5311582909937009, -0.8096090905105411
1.2896886660983855, 0.5432270255253839, -0.8094557197485327
1.1464213643029246, 0.5862729849099797, -0.8093216048022753
1.3004857677998494, 0.3774276352231859, -0.8101045181756206
1.335113588683139, 0.36952641734943414, -0.8106585777935358
1.3345528831855904, 0.3780196040637215, -0.8106375652962757
1.3673606792299655, 0.42929713730374497, -0.8110328954311543
1.3674120724534327, 0.3961449586687034, -0.8111152972649378
1.381735940932018, 0.44976973274724197, -0.8111881560216258
1.1327228432979202, 0.47432116455170004, -0.8099353895522393
1.0917153645216098, 0.48277027601842015, -0.8099646405158607
1.1956814304368455, 0.4289825994513099, -0.8099294542745059
1.228147818187949, 0.44316561313040204, -0.8098811628067804
1.2497668174977723, 0.4886819162109499, -0.8098055708152234
1.217696642012271, 0.4455255918293596, -0.8098883688986068
1.2416161238337602, 0.4349231416408136, -0.8098781393002772
1.1065619063109662, 0.46569271481604607, -0.8099709305343407
1.349214600844234, 0.3063687710054112, -0.8107429698823962
1.3572047251382036, 0.3253226236869814, -0.8109038220448176
1.2753418392115257, 0.33512654776746365, -0.809946318407728
1.2807391307145557, 0.3347572036568983, -0.8099422244812625
1.2220284054747548, 0.32125454495990957, -0.8099888024705462
1.3148083712850112, 0.2845583386322138, -0.8102706575233533
1.4155590770528383, 0.25695180799126116, -0.8114073040748747
1.172367168569527, 0.27269443368766083, -0.8099975100642084
1.3316137741419318, 0.29311716008675576, -0.810504917346629
1.2152937275399427, 0.24606080922573068, -0.8099679784806139
1.3279869530200799, 0.24402069383624123, -0.8103356798592944
1.359595357213696, 0.1889058222217339, -0.8103719890666403
1.1866815337987, 0.23035741667913207, -0.8099384509041468
1.3015815943334275, 0.22971055203589358, -0.8100300016541306
1.1157100466542462, 0.18047623598759988, -0.8097611254539654
1.389021869741536, 0.20221474000668738, -0.8106823270547786
1.3735790799549707, 0.22112839369311524, -0.8106509208628868
1.1862302366689748, 0.16678243380478755, -0.8096728542027061
1.386494902135614, 0.17232129149528774, -0.8104296416834295
1.381382562112413, 0.16188771068275118, -0.8102712110639019
1.0459059909185107, 0.14338416810293841, -0.8090715814129017
1.4023012699060171, 0.13246446008502727, -0.8096437198942179
1.3004827295379726, 0.12761206170122208, -0.798012301378048
1.2323915830181331, 0.1277412865910546, -0.79204105346461
1.3109067691528788, 0.12754895536602945, -0.7911790962298881
1.2316848399452685, 0.1282220083268075, -0.7749541916305289
1.1912312536327783, 0.1279700762406652, -0.7839559212429712
1.205032199534453, 0.12900162825414174, -0.7517712158685405
1.34854707457451, 0.12858500087008823, -0.7455728864100271
1.3435395959804821, 0.12835687869235918, -0.7549201683487048
1.262366787324309, 0.12980763746130583, -0.7232405831883474
1.2827907189697951, 0.12928816569134804, -0.7401856904428296
1.3366846261107828, 0.13014466647353445, -0.6921149082373845
1.410130499811922, 0.12914358486397626, -0.6995525201567168
1.399299858600542, 0.1292727908411648, -0.6998451810960274
1.3636933435010246, 0.13079199101124314, -0.6197207715099057
1.2179065501741888, 0.13093755832801665, -0.6798883398751867
1.2978131467359182, 0.13066088862452066, -0.6893472038932247
1.3738772588422807, 0.12996151729331382, -0.6777704486454365
1.3988159528662731, 0.13009100044511018, -0.6362112737826613
1.347642447149828, 0.13051027350326067, -0.662178200126984
1.3672938788730302, 0.1315185972558795, -0.5405470554467833
1.241686909374944, 0.13142648656920383, -0.6508322019756763
1.2667885653455206, 0.13169097053812787, -0.6314271996934138
1.144390136597831, 0.1314283472969624, -0.6583185491015902
1.465605695366359, 0.1291878045515184, -0.5374811197056374
1.400434143167903, 0.13087823593972223, -0.5390503887814007
1.4023262883766785, 0.130393427201323, -0.5971468994227686
1.4206107971197637, 0.13076308777720005, -0.4916498870264582
1.279202794039682, 0.13254975960915602, -0.5708050157679085
1.248569065636953, 0.13232803895510917, -0.5931227231436349
1.2887794412192979, 0.1326208333497245, -0.5636977479883589
1.1442414803057397, 0.13244172695083362, -0.6047784259932302
1.300507865091153, 0.13388662832994377, -0.4551930568027655
1.3086479279567482, 0.1332636120039851, -0.4913961667259959
1.3797848966621387, 0.13154265304409768, -0.5119339231629141
1.405036541256799, 0.1310355813002406, -0.5118224882290972
1.4302980416005182, 0.131126994876226, -0.3879287808179234
1.438968651557911, 0.13093464883280787, -0.37259112776798486
1.2561821390490258, 0.13395152168820035, -0.4676384028153551
1.1039490945915145, 0.1337797459632624, -0.5300226807989341
1.290274542420105, 0.13358210351698924, -0.48772009459843657
1.1108194497951112, 0.1338800789223069, -0.5194781257645766
1.27810078844797, 0.13335198542969642, -0.5107735085215216
1.3168781539076635, 0.13401605511689083, -0.3508528981769474
1.3301848663722027, 0.13357122581094666, -0.4000340757721129
1.3464921019028928, 0.13323197406014817, -0.3961998980942377
1.382077192684616, 0.13233142693396488, -0.41053359994758165
1.417862512099573, 0.13186303070171831, -0.30764390277049725
1.3167314309084406, 0.13342227693575984, -0.24588241190375568
1.3501043204115502, 0.13320224763705152, -0.26599149605708516
1.2868945545378705, 0.1341885522972584, -0.4281831304652782
1.2922797647125455, 0.13438801490971725, -0.3630576629996495
1.276931571402487, 0.134385680767423, -0.3719155821640884
1.0673368304337498, 0.13455808243016193, -0.42910305844999524
1.0800814228816171, 0.13453067801723795, -0.43090865917111676
1.3164903887856312, 0.1340590012113007, -0.3396374782039358
1.3622564761116087, 0.13313428839749225, -0.31508481408781136
1.3723318922690826, 0.13287489628546006, -0.3325756241397665
1.4310986791267923, 0.13166864337646916, -0.2031713335874887
1.1957880190092514, 0.13377829034455313, -0.28909773606111555
1.2959190309804116, 0.13388054986984546, -0.275303589382463
1.2235150447915093, 0.13401685442596617, -0.3100559049301913
1.2163424727967098, 0.1339878350923556, -0.30848731406030994
1.2622529381350038, 0.13405765780264062, -0.3048657079101588
1.3086545364941324, 0.13186702655247085, -0.17279693240828914
1.3832819795521516, 0.1311738604289574, -0.15800872929825216
1.3611131177287954, 0.1328416068479208, -0.2411422922639253
1.3700220152371725, 0.1325291287898546, -0.22824594331113002
1.413904219213498, 0.1284010344972425, -0.08754114963017307
1.3224877588478292, 0.12650543211422544, -0.0594333780183724
1.3007526020716695, 0.12674742836123368, -0.06715150063425679
1.2358860534749536, 0.13187766214445376, -0.18979114632191632
1.158571071533011, 0.13180387551364303, -0.20960852118817253
1.2145090331780266, 0.13295012653839372, -0.24066476857038646
1.1407934867399798, 0.13167434115910456, -0.20948954227631425
1.1051073599415193, 0.1316335717484928, -0.21835781988738284
1.277307989809359, 0.1330808145439757, -0.2275070825143908
1.384164130255943, 0.12921574710161432, -0.10647324419551105
1.398639142917187, 0.12988928830832425, -0.12410444491227751
1.4026648747110317, 0.1262902299160265, -0.013326117182657428
1.3115466862340877, 0.12493329937569109, -0.012151477786657733
1.147362992464495, 0.12824958780999457, -0.12346770159019779
1.2291682519327878, 0.12914256417651013, -0.1227381701717623
1.1540397963476732, 0.12933243810569303, -0.1409127246638208
1.1854238504551042, 0.12904334714116972, -0.12968475947485708
1.2939550594888845, 0.1273924076345085, -0.07956986461544252
1.0928377374950162, 0.12600387855910825, 0.05722020695133234
1.3326761638867817, 0.12596344070139437, -0.038052124801315326
1.3570412506212626, 0.12617249616029977, -0.03631522499844668
1.333295100383996, 0.12387893149306553, 0.04983739299495557
1.278909659840686, 0.12414644548680523, 0.012523009304501627
1.259373551497288, 0.12638494688215693, -0.04987864673293516
1.251878414112002, 0.12640203468010944, -0.04649502996518486
1.1399464394982606, 0.12822165008025196, -0.04674919600305138
1.1091343001385034, 0.12657844956900152, 0.031308316055334046
1.2980613722770298, 0.12314108101814775, 0.0634753161112528
1.4331989241601255, 0.12567874109276425, 0.04495050294948474
1.338352070497696, 0.26338797710662276, 0.11502362132361904
1.3535315474264769, 0.2788565806475258, 0.06136534947789736
1.0463002437794584, 0.28291733986870343, 0.05019985775820468
1.3045867880041142, 0.2802930170421123, 0.02891989325906506
1.369997890716704, 0.28062227544617496, 0.016104305192745333
1.3149830469670685, 0.2790983163883538, 0.05135416632661553
1.1645620628726405, 0.28216212217781395, 0.015198500460003603
1.1630188255870204, 0.28234898855047524, 0.005420801263251727
1.0391925046640704, 0.28402307691326123, 0.006972751653931932
1.0900475032887535, 0.28339983976364413, 0.0025402776433041015
1.0795819698551048, 0.2847735649111841, -0.07113999689757732
1.069181796960927, 0.2847710405572341, -0.06326863192690146
1.0874095165253548, 0.2847757810494196, -0.07736235005105523
1.2293590040172324, 0.2846759067040679, -0.05817356214238278
1.1855993824765845, 0.28468056372871225, -0.039456162091724235
1.4074473102093272, 0.2785724849390704, -0.03534180667987638
1.4633615337982138, 0.2779655991914519, 0.02881242370902231
1.3436759588547775, 0.28210082725425234, -0.04107477268562281
1.3074429077044813, 0.28409732773300134, -0.04609638994773915
1.0379964918278033, 0.28483636402703366, -0.1926884924215178
1.1265443307802916, 0.2845446093196381, -0.16360281856041595
1.0633374351403062, 0.28475244215100454, -0.20056834667494322
1.1722805157866192, 0.284394008269371, -0.1449967212355215
1.1121735900746397, 0.2845924815635425, -0.14847587231867637
1.4036022991697592, 0.27797308476860605, -0.09391664895124305
1.3892736546920676, 0.2793064804447521, -0.06307192337352187
1.464211861726164, 0.27657682129583006, -0.05276508040805439
1.3178598573241798, 0.2826738984559866, -0.1869979693305192
1.3298424018988775, 0.2820723303315657, -0.13034683421043625
1.2605790331875455, 0.28391042339099326, -0.2148799788690889
1.2033254017707726, 0.2841477347160997, -0.21634218645756836
1.148766497120349, 0.284373926326064, -0.2197542285671984
1.0776521359441897, 0.28467006790697474, -0.27757811419458245
1.1838998236564762, 0.2842284365475527, -0.2243331019287645
1.324669033876569, 0.2822038497081096, -0.19791089474952403
1.4446307509210061, 0.2758798072396529, -0.15615839490091954
1.4311717165843332, 0.2761489201729947, -0.18822359852030413
1.3271427834362992, 0.2819455554879178, -0.24725303060610823
1.388272354383926, 0.27796798840571646, -0.30020432327359325
1.3862420310165127, 0.27811870784235776, -0.23201699308053236
1.2296837261875888, 0.2840474164142451, -0.30797222239672223
1.1558828021171004, 0.28435078125147395, -0.3078599022039498
1.0573400546792957, 0.2847565511318258, -0.32673662342387555
1.1396677891068954, 0.28441847699507833, -0.33610422493691794
1.2218658335371724, 0.2840797450127315, -0.3131798518162199
1.417715931040224, 0.27754480427232026, -0.46964889760546574
1.432692564826561, 0.27625951986891667, -0.3515637457556685
1.4405868477685098, 0.27572207018071887, -0.26956258370546493
1.3054186115808264, 0.28340432364181667, -0.3666448841964451
1.3533731348321936, 0.2802424810781584, -0.3144528040380565
1.3284859035315917, 0.2819668003540817, -0.3829347178284316
1.3474269496632516, 0.2806896167830283, -0.3576839517975911
1.0406375642119283, 0.28482976158760703, -0.3999727908220754
1.140915023185802, 0.2844672952130681, -0.42983674076608014
1.035900713714403, 0.28483957560502354, -0.46591107121256514
1.2212374491008338, 0.2841827661959857, -0.4002396112300571
1.0509417146959423, 0.2847883900155538, -0.44106447910165925
1.3332417690416878, 0.2818755590592108, -0.47346534784129624
1.5753990485852774, 0.6522316331659151, -0.13228679811994368
1.5758704909981356, 0.626133199332636, -0.09774742336196351
1.5795964753151859, 0.6076402048925795, -0.22879883551717797
1.5761117784504148, 0.5888984331196468, -0.062179499264039664
1.5790813098990497, 0.6204222242355919, -0.3066693627437419
1.5777836398545146, 0.6408830262057738, -0.3164964929433881
1.4892147514107976, 0.6095882872461504, -0.08532670047224528
1.4916785056927058, 0.6308751772799659, -0.20710600514990865
1.4918755499762462, 0.6457838541501331, -0.08276153723777956
1.4999846477923027, 0.6761915782587273, -0.2289133489211306
1.4924055162696015, 0.6519268927814654, -0.14522601030998308
1.4913590204746907, 0.6049672016808656, -0.29252201171734343
1.4904630278993025, 0.6207227863486683, -0.1629243430967458
1.4900299867994753, 0.5334689094144118, -0.12858614299022295
1.4885899162616896, 0.5873367635513559, -0.1408683545051367
1.502928915371848, 0.3617400425166652, -0.04494071322206391
1.493279700049512, 0.4739839019396691, -0.061623648919853904
1.4911035824044907, 0.49637172953425535, -0.2084677431086868
1.4899414003257396, 0.5384587055677135, -0.15383661878206933
1.4897058441376676, 0.602982152490997, -0.18020485793745697
1.4912305218709792, 0.5192452121475797, -0.30471739951311494
1.4911402666723952, 0.5657057462073561, -0.32930063561698164
1.4900576700165358, 0.5481658960527238, -0.2022837891816186
