0.11377285011368046, 0.374012291431427, -0.11555881486819763
0.10670369725926072, 0.37401229143142695, -0.12159929498689825
0.05916225156790025, 0.374012291431427, -0.08296045052493628
0.05414976908558251, 0.374012291431427, -0.09612808540293154
0.10444705174495339, 0.374012291431427, -0.10259321373356661
0.10612438244450309, 0.374012291431427, -0.10259147479805482
0.13519502876861342, 0.374012291431427, -0.1356792733370267
0.08452806558019128, 0.374012291431427, -0.09295406922372879
0.2371938284896393, 0.424612591526712, 0.11630201262089401
0.2432424544880455, 0.42461207328493256, 0.1548953116757661
0.23178058147324326, 0.42461228091003134, 0.14056902762307935
0.23383737792603349, 0.42461262127165234, 0.11446496366197115
0.24705401459606485, 0.42461151975491945, 0.1964492912030344
0.25280237246284354, 0.42461192541924975, 0.1649226459443987
0.27235905975183067, 0.42461212464267745, 0.14733758355726242
0.23005413271717703, 0.42461196936788004, 0.1644431578943897
0.26791014479270214, 0.42461207964875713, 0.15131314216294894
0.25962546847801937, 0.4246117286026577, 0.17901093141332053
0.2360307896580553, 0.4246121891347697, 0.14700412643407126
0.2397470261333131, 0.42461168659839293, 0.18469783217483557
0.25867594448316183, 0.42461254975970525, 0.11677489632991025
0.25533855570877123, 0.4246122576925245, 0.13937255414942942
0.26738490900130774, 0.4246123618931534, 0.12994663631941222
0.26838950945766393, 0.4246111314892076, 0.2232522945510145
0.22277741807614101, 0.42461248425013687, 0.126259248318937
0.17966303727750765, 0.4246107675626821, 0.25780552081680974
0.18432434358167502, 0.4246116191106454, 0.1941444934006285
0.17176489509145115, 0.4246119281564983, 0.17195160825653052
0.18068573607640884, 0.4246121979209126, 0.1513083077827077
0.169531467879859, 0.4246115252072703, 0.20207753402766462
0.18732049494872777, 0.4246114036891173, 0.20998228413216377
0.18596181375886944, 0.42461165663901046, 0.19124734767630042
0.18978578685058473, 0.42461172886049114, 0.18562892317382623
0.16776899214341945, 0.42461088619114457, 0.24973890179636987
0.1740796761159653, 0.42461125846386094, 0.22163491660975437
0.1794256067887287, 0.42461159906627916, 0.19594917366894316
0.17402366797541477, 0.4246118998509714, 0.1739133882928704
0.19623320917953885, 0.42461176552217117, 0.18248874835740467
0.19196027688066342, 0.42461233581644947, 0.1403267855502031
0.11087776489645695, 0.4246107644458341, 0.2624351458386212
0.18269331308919506, 0.4246109411516711, 0.244695164028746
0.16899140898305395, 0.4246109225444983, 0.2469557236756625
0.18583588951795943, 0.42461182827929417, 0.178483780327156
0.19942069129517737, 0.42461119914088763, 0.2244289452584965
0.14908549682206973, 0.4246112922574241, 0.22071833670866006
0.1702447003406657, 0.42461152989685835, 0.2016829858259253
0.14821056233795968, 0.42461096482201, 0.2451384855495572
0.168937765853575, 0.42461122413605135, 0.22451796364349447
0.123760367331536, 0.4246110421820947, 0.24094537615512854
0.1381396658405946, 0.42461220303804287, 0.15092038901893354
0.14234940891620415, 0.4246124889181509, 0.12873187323246146
0.11000818072081844, 0.42461100774182026, 0.2436819312423808
0.1234414652099241, 0.42461204058070656, 0.16351651999176958
0.15816998264099852, 0.42461195162418963, 0.170458801135139
0.11844079755625864, 0.42461136774975533, 0.21574329874317974
0.1670090701373151, 0.4246125169421211, 0.12658232757727073
0.14246608768209157, 0.42461186617262425, 0.17707589502878035
0.11475950681494268, 0.4246114686008605, 0.20791032514697638
0.11650219696229044, 0.4246122579632948, 0.14663374661483433
0.13279361101550227, 0.42461126641122615, 0.22362534652974647
0.17319083370032262, 0.4246123853596883, 0.13680361479952782
0.1468030507227491, 0.4246117268386814, 0.1878969917381605
0.16571735689696862, 0.42461192590765856, 0.17246312833282568
0.11649888400379171, 0.4246115665322614, 0.2003097160272383
0.14189759833318047, 0.42461189184139664, 0.1750826229573548
0.14241374035395124, 0.4246115180628136, 0.20409969603072575
0.15513305219837997, 0.424611947574944, 0.17076994775533147
0.11248963314620573, 0.4246112115294556, 0.22786445609809233
0.1372239502284203, 0.42461201017515615, 0.165891421523029
0.11202094195678522, 0.42461120436051847, 0.2284204891179303
0.12365347348734525, 0.424611220540803, 0.22717665649178695
0.13651545539938664, 0.42461240083649854, 0.1355635328844283
0.1851642705416512, 0.4246125715796894, 0.12235991319049243
0.16567191391014097, 0.4246122071157083, 0.15063282565937947
0.12718792822963493, 0.4246109318886001, 0.07597636154471689
0.12523877657916394, 0.4246119080486753, 0.09933404178191643
0.1254219107247442, 0.4246121374260647, 0.10482328777915735
0.15902922378334722, 0.42461089813823816, 0.07520223881656049
0.10910639874887766, 0.4246111213291433, 0.08049067575054096
0.11368153544743956, 0.42461175687749986, 0.09570431055054082
0.1577288949265432, 0.4246115148218532, 0.0899582487799194
0.058641163245336955, 0.42461182248002144, 0.18130959773153177
0.047407567593454034, 0.4246114601139624, 0.20965475395424155
0.04792464606497156, 0.4246114110319777, 0.21345709658406672
0.05990411296680361, 0.42461080216058267, 0.26052496493077987
0.08082856168547264, 0.424611134180572, 0.23436075418969737
0.06718343284057576, 0.42461126593712084, 0.22437595335727978
0.07957460040604135, 0.42461120219282267, 0.2291016451810288
0.10079246667151466, 0.4246120920113114, 0.1596133385376171
0.09193076086465421, 0.4246114923497256, 0.20634391352616027
0.015103353800626676, 0.4246110334513632, 0.24337529968620916
0.1078461875759367, 0.42461122721483485, 0.2266457401436046
0.07747875681765133, 0.4246109533251098, 0.24846678271054123
0.06815912312039592, 0.42461136366714114, 0.2167685212625167
0.08801708056229648, 0.4246114955452191, 0.20616672304634853
0.10342627789874836, 0.4246116413219635, 0.19456622655589256
0.09441855776417295, 0.42461192702413675, 0.1725418721683048
0.10599233260907195, 0.4246109318783005, 0.24961526997389857
0.04036285457131312, 0.42461085202193316, 0.2570070892230723
0.10750013388107366, 0.424611273952656, 0.2230223444147573
0.04201135721220316, 0.42461109099923056, 0.2384181561768682
0.09963858430246308, 0.4246114627844202, 0.20850018576101276
0.04035588355714594, 0.424611504026703, 0.2063723574963101
0.10203092418307216, 0.42461212752314914, 0.1568330213545806
0.07638856235585283, 0.42461085042722574, 0.25647762891547415
0.009707169010848476, 0.42461080321589895, 0.26135330179579724
0.08530766151840152, 0.42461176131162687, 0.1855763692257261
0.05712873787595372, 0.4246117276723842, 0.18869981020254203
0.044430248830104574, 0.4246112411439268, 0.22671401522159132
0.29372202354977717, 0.37401359922617444, 0.10341240809467146
0.2871265765874303, 0.3740140824387692, 0.11496958053390016
0.29847289055467774, 0.37401330609675776, 0.09640222998839526
0.30254227453122695, 0.37401312529615727, 0.09207946246788976
0.21419640305143586, 0.374014097944687, 0.11527203655172424
0.2895841080491568, 0.3740138700188328, 0.10988863957651006
0.2569895840632328, 0.3740135152107339, 0.10136734796425702
0.2991497992403094, 0.3740136568243657, 0.10479585042820636
0.261905871834007, 0.3740136716121892, 0.10511469155212147
0.15050458093248853, 0.3740134024458945, 0.17772779641865066
0.11757221622482054, 0.37401272260533236, 0.2303321249158141
0.11413663107447533, 0.3740127771142129, 0.226650710402704
0.19053397146852508, 0.37401392181801635, 0.13622748018835873
0.1405174273683334, 0.3740137341923767, 0.15435822493813753
0.15609865755689795, 0.37401420787995476, 0.11835559185355965
0.13027681842280964, 0.374012989232657, 0.2097198232914131
0.1531153509840157, 0.3740131959213835, 0.19259458336995894
0.11111751523743241, 0.3740123550686114, 0.25776936262450884
0.17159443499605798, 0.3740137311587993, 0.1518367692355605
0.12564672910635083, 0.3740141628617089, 0.12433452936465159
0.12573292928923727, 0.3740127531677046, 0.2273776123065794
0.1591940017676781, 0.37401371333780814, 0.15423411479940624
0.1515332107409129, 0.3740138594807841, 0.14422707932961676
0.13736182958052556, 0.374013593862531, 0.1648950911519914
0.1373034517521442, 0.37401406385101843, 0.13054339894280642
0.12674098304257375, 0.37401337849360683, 0.18157639251613825
0.10870882679547958, 0.37401363756557116, 0.16422957909808833
0.11974538324068601, 0.3740141522350237, 0.12563227634628668
0.14420067949439483, 0.3740136263056726, 0.1619197744253247
0.14555339558873093, 0.3740134296316425, 0.1761775271557439
0.1182362124540682, 0.3740132829708126, 0.18930997739157537
0.13885532321260355, 0.37401404430775886, 0.13183505372773918
0.17167016506364005, 0.3740135724660342, 0.16343075748362929
0.16255340951082584, 0.374012291431427, 0.07142479830955184
0.16466699720268108, 0.374012291431427, 0.041298054990326974
0.15817687650516354, 0.37401229143142695, 0.05224563102767056
0.19812525876951934, 0.374012291431427, 0.06597678723576138
0.16692811515600867, 0.374012291431427, 0.04580249411372783
0.15839731736714824, 0.374012291431427, 0.06354267294509588
0.1809196840148123, 0.374012291431427, 0.05898585501089788
0.19885983761175685, 0.374012291431427, 0.040900687505284986
0.1767961272843528, 0.374012291431427, 0.055281258719369425
0.17577407927937538, 0.37401229143142695, 0.04631314089230351
0.01589601613665123, 0.3740132229880928, 0.09281101376164194
0.06902513911639246, 0.3740123576449254, 0.07338736005451088
0.009850969545753808, 0.3740128823970382, 0.08514175635039214
0.09308162113522848, 0.37401247595775705, 0.07607125132356266
0.03536401726159193, 0.3740131060297337, 0.09019681527806477
0.06706415087207276, 0.3740125677223665, 0.07811265154968927
0.05483484183629476, 0.37401283505798133, 0.08411708639788172
0.02775865009134176, 0.37401315812254876, 0.09136212959138032
0.03444907885485324, 0.3740124129440203, 0.07460052016304128
0.1738332687850748, 0.3740139547150795, 0.11091856958598992
0.1627546047178425, 0.3740138574407558, 0.10825528272336563
0.1813510571512999, 0.3740140154425585, 0.11259944342446247
0.1466786000314964, 0.3740139216313126, 0.10930480115221539
0.1450237111711538, 0.37401387687762677, 0.1081836847851849
0.1377085784094748, 0.37401404513127096, 0.1119887906238786
0.15795308769101118, 0.3740134597742305, 0.09859320394671046
0.0460601444617943, 0.3740136900953199, 0.16110823256864293
0.02012385984244125, 0.3740136513466759, 0.16395500245724542
0.05912197912301188, 0.37401398533579994, 0.13925117272931622
0.06408499149953686, 0.3740137246119369, 0.15856779905572563
0.03705514478491933, 0.37401352610787875, 0.17324687066417094
0.008392446161596548, 0.37401416321230224, 0.12602987992075193
0.07254855554885711, 0.3740140231689789, 0.13646093007548857
0.08272550775434254, 0.37401413310120235, 0.1283272881165374
0.07209047992707132, 0.37401398994850543, 0.138921199931891
0.04276635117422694, 0.3740138949463439, 0.14593168439045678
0.06640388095779388, 0.37401375922716856, 0.1560058959411113
0.009846458080536816, 0.3740133987706269, 0.18265436455031162
0.0029168624091038516, 0.3740125542151407, 0.2452054205645626
0.08524268705158862, 0.37401413747253803, 0.1280057679179493
0.03554735554074023, 0.37401395188921954, 0.14170734194915013
0.053208949187821056, 0.37401415549643025, 0.12664182414041977
0.026368431449295224, 0.3740130130712332, 0.21123851333770516
0.08829599755643891, 0.3740140103715803, 0.13742305228888615
0.04767915914270623, 0.3740137444054376, 0.15708687281947276
0.0005195825651228608, 0.3740131510378307, 0.20099583797672815
0.03637378806698662, 0.3740138064316735, 0.1524823139026987
0.05782356265821535, 0.37401385754255734, 0.14871581073175197
0.043491457545493564, 0.3740135961803463, 0.1680623181801837
0.0569693552521991, 0.3740140793753097, 0.13228360444432175
-0.003418874819842542, 0.3740134619308016, 0.17796404566127877
0.0672176897184884, 0.3740137818188146, 0.15433323777272925
0.034421179566905255, 0.3740138699100345, 0.14777862941570669
0.015358258072537198, 0.37401424037906505, 0.12032032145397076
0.26888424715636094, 0.374012291431427, 0.055529631465442264
0.26449837625651806, 0.374012291431427, 0.05829990382194311
0.2541808231480462, 0.37401229143142706, 0.04986015648182612
0.3036252750581977, 0.374012291431427, 0.036800395908201444
0.30854226939068363, 0.374012291431427, 0.05949116870020491
0.3096809024472582, 0.374012291431427, 0.03875019172124433
0.2888836776701224, 0.374012291431427, 0.06572766567130892
0.28771268021064944, 0.374012291431427, 0.042020479662050816
0.2681085469052387, 0.374012291431427, 0.0497474340324188
0.2271879575000913, 0.374012291431427, 0.06955587882300801
0.28568495225944146, 0.374012291431427, 0.061310224828505504
0.15548115858516148, 0.37401300113112884, 0.0879512837328305
0.13737464270585997, 0.37401266515912235, 0.08037264053932562
0.1425716984541528, 0.37401348462975326, 0.09881738680099492
0.15358537277017112, 0.37401244143917844, 0.07535538068117195
0.12118577658799992, 0.37401291077466775, 0.08588260814800078
0.12004025067567721, 0.3740130891484109, 0.08989510870185621
0.17584177802599044, 0.3740126707918585, 0.08053922053078241
0.1307064220014764, 0.37401299440528074, 0.08777428619330682
0.19831883320463237, 0.42461076378822327, 0.048410355340946246
0.2051549920941479, 0.42461076378822327, 0.016263647999789
0.17797076586765428, 0.42461076378822327, 0.06471681841594584
0.19616072430417286, 0.42461076378822327, 0.04295124887639376
0.1957317237797186, 0.42461076378822327, 0.022766398873083384
0.16224221473116748, 0.42461076378822327, 0.04883872391454982
0.1796078717784168, 0.42461076378822327, 0.053631827821781705
0.19701455611214952, 0.42461076378822327, 0.060702297084308944
0.20098642463978908, 0.42461076378822327, 0.029286622226580714
0.1529081004364679, 0.42461076378822327, 0.05446258361710514
0.11484165142886985, 0.42461076378822327, 0.01025817145668433
0.1146822278989696, 0.42461076378822327, 0.006897890789303606
0.13601496071434183, 0.42461076378822327, 0.0038550231507209266
0.1312887090203045, 0.42461076378822327, 0.010020872760606153
0.23835957859067056, 0.42461076378822327, -0.011735515423518722
0.2737355980211469, 0.42461076378822327, 0.012481157123725644
0.25306891998203557, 0.42461076378822327, 0.011920241005284445
0.22973348267969312, 0.4246107637882232, -0.02318336526424519
0.22430602851350723, 0.42461076378822327, -0.015583590682358598
0.2137005758718278, 0.42461076378822327, 0.003067313893324361
0.20913567077697223, 0.42461076378822327, 0.007070732978164759
0.24519562291188468, 0.42461076378822327, 0.07167971460775974
0.24244424679890758, 0.4246107637882232, 0.06012815901796559
0.22012355082556695, 0.42461076378822327, 0.06845779384056047
0.27778839537972977, 0.42461076378822327, 0.014635050000640628
0.2641736231344191, 0.42461076378822327, 0.03725643623342413
0.2596815077375335, 0.42461076378822327, 0.05959488873624599
0.24505617727768986, 0.42461076378822327, 0.03920882068609921
0.10649190986845927, 0.42461076378822327, -0.026452565671814678
0.14095778321484362, 0.42461076378822327, -0.02482968176801949
0.10967612321558187, 0.42461076378822327, -0.02330554489172029
0.18613767284654592, 0.42461076378822327, -0.036002977643331636
0.1347599422704133, 0.42461076378822327, -0.03236312913536402
0.26838670331217435, 0.42461076378822327, -0.006036724436813232
0.2504046140927052, 0.42461076378822327, -0.03444249222082744
0.26159091490422876, 0.42461076378822327, -0.05130918478249413
0.24353812898957744, 0.42461076378822327, -0.0426955861781164
0.26481486543502486, 0.42461076378822327, -0.0012892560665729367
0.23972772248025656, 0.42461076378822327, -0.027584084763666455
0.24341793609244192, 0.42461076378822327, -0.017022822113282706
0.2746764344261286, 0.42461076378822327, -0.04699516653410248
0.22907667347864227, 0.42461076378822327, -0.03303212769543123
0.23297765067139006, 0.42461076378822327, -0.06514783291070816
0.21434008543091582, 0.42461076378822327, -0.057793948970756084
0.22946612883273138, 0.4246107637882233, -0.06571059584927662
0.22213849710992378, 0.4246107637882232, -0.07668992406888797
0.2350981601577887, 0.42461076378822327, -0.07489690586967743
0.2355036498660286, 0.42461076378822327, -0.0681905893396228
0.2441094732698717, 0.42461076378822327, -0.056462025800228785
0.31172882594104706, 0.42461076378822327, -0.00440498062184708
0.3110035796396233, 0.4246107637882232, -0.052523486499582404
0.3073572795220373, 0.4246107637882232, -0.04367173620235139
0.30518490614408444, 0.42461076378822327, -0.007126092027923704
0.08144533335996784, 0.4246107637882232, -0.06286061603593876
0.11718586979920213, 0.4246107637882232, -0.07271639215124272
0.11305918538172713, 0.42461076378822327, -0.058849436312854844
0.14683634912630178, 0.4246107637882233, -0.08104934769735041
0.15672394867956818, 0.4246107637882233, -0.08392801940427275
0.11147273602111925, 0.42461076378822327, -0.049462087027440864
0.12759306263586706, 0.42461076378822327, -0.06570966203019364
0.23219306212215823, 0.42461076378822327, -0.1006767792169213
0.2330008041163653, 0.42461076378822327, -0.11372431529054383
0.25695063767911747, 0.4246107637882232, -0.07011344920834109
0.2534345228217575, 0.42461076378822327, -0.09520852431491181
0.24484464634466002, 0.4246107637882232, -0.08277169147005722
0.22914875953341157, 0.42461076378822327, -0.10646929537579167
0.2606738926001824, 0.4246107637882233, -0.07716605906604765
0.21212358124682476, 0.42461076378822327, -0.12573885771472426
0.18548863625461381, 0.42461076378822327, -0.12716002988155478
0.17589356008289625, 0.4246107637882233, -0.1302084148165856
0.19867057014561942, 0.42461076378822327, -0.10905442088539467
0.19593291518432418, 0.4246107637882233, -0.13319974993248915
0.17145239130116588, 0.42461076378822327, -0.12874996117697163
0.1947720782683712, 0.4246107637882233, -0.13155851332675841
0.29067292143858436, 0.4246107637882232, -0.0829629100759774
0.27222036869970134, 0.42461076378822327, -0.10612904790589217
0.26647409398328636, 0.42461076378822327, -0.12858589023424177
0.272280902630667, 0.42461076378822327, -0.11057253204119537
0.10782832670072798, 0.42461076378822327, -0.12254795757797211
0.07084924347158301, 0.42461076378822327, -0.09214121869697053
0.10476783514043278, 0.4246107637882233, -0.12130538000024232
0.11697101224189661, 0.42461076378822327, -0.115068535141605
0.07402555572309868, 0.42461076378822327, -0.0915313788323221
0.08005601746922861, 0.42461076378822327, -0.09160136507778317
0.12265057727594238, 0.42461076378822327, -0.11843370285899667
0.1006110219603156, 0.42461076378822327, -0.11556743597153533
0.20036390521376457, 0.42461076378822327, -0.15950141354184028
0.15812122425649067, 0.42461076378822327, -0.14896008981704723
0.22870570115589856, 0.42461076378822327, -0.1344606691312743
0.16965420125656133, 0.42461076378822327, -0.15448351706486743
0.1847162738928792, 0.42461076378822327, -0.14141191160682648
0.20901779392949338, 0.42461076378822327, -0.1714777898619424
0.2314479997482787, 0.42461076378822327, -0.15996118269238463
0.19898001608369334, 0.42461076378822327, -0.17897470394897286
0.13425462124075715, 0.42461076378822327, -0.16809347826848642
0.1603640045956565, 0.4246107637882233, -0.1744759751617675
0.12300577494526907, 0.42461076378822327, -0.18563679227412266
0.1415929982761293, 0.42461076378822327, -0.18235002867155428
0.15314065357344994, 0.42461076378822327, -0.15646709801221284
0.10489219180158192, 0.4246107637882233, -0.1835340891646393
0.04397248596079529, 0.42461076378822327, -0.13735845472752573
0.03545023869469673, 0.42461076378822327, -0.0981952776168886
0.061992773261611685, 0.42461076378822327, -0.16476554472978494
0.07354661713865256, 0.42461076378822327, -0.17912654882232532
0.05172269924207967, 0.42461076378822327, -0.13827627168381162
0.05875340838778525, 0.42461076378822327, -0.16132990581299214
0.06385352475917216, 0.42461076378822327, -0.14641160784273405
0.05018766345204283, 0.42461076378822316, -0.14728773250504995
0.11357676221997173, 0.42461076378822327, -0.2024876241688968
0.08999101882061325, 0.4246107637882233, -0.19304596154148637
0.12307324114839005, 0.42461076378822327, -0.20148232876458555
0.15709803856235977, 0.42461076378822327, -0.18623705377680308
0.06511126681545895, 0.42461076378822327, -0.20639265588256767
0.048369400847975405, 0.42461076378822327, -0.2052317845994222
0.09092226430506418, 0.4246107637882232, -0.21374510926809445
0.08315048896308772, 0.42461076378822327, -0.21139449437520058
0.12430922166675738, 0.4246107637882233, -0.20759405593768218
0.10304876871221012, 0.42461076378822327, -0.21961985301214096
0.13697984332593785, 0.374012291431427, -0.01135973117076906
0.15098046059157788, 0.374012291431427, -0.013867611233826495
0.16524737919335017, 0.37401229143142706, -0.025925091024132457
0.19737378077150214, 0.374012291431427, -0.0028523938690660907
0.20123832276624673, 0.374012291431427, 0.008403562991904999
0.15783007785566133, 0.37401229143142695, -0.0031362769077792926
0.16323554312732608, 0.374012291431427, -0.010420975050625747
0.15276691219200542, 0.37401229143142706, -0.012349008841367456
0.16450810800866683, 0.374012291431427, -0.004393949591060203
0.12202214248446148, 0.374012291431427, 0.035364756099628414
0.16213295176796033, 0.374012291431427, 0.022796266809636843
0.11314237488010781, 0.374012291431427, 0.0631325003160126
0.1354899393362118, 0.374012291431427, 0.044779269304504155
0.1300957180575504, 0.374012291431427, 0.021160969213318465
0.15206960868739056, 0.374012291431427, 0.04021182947312913
0.11023954404613615, 0.374012291431427, 0.053301987233643836
0.17746366232348848, 0.374012291431427, 0.020505395131756116
0.13088386811161296, 0.374012291431427, 0.056438222212680196
0.11168472077653412, 0.374012291431427, 0.028623705761240886
0.12169453707685746, 0.374012291431427, 0.038275266666913964
0.22205299266004902, 0.374012291431427, 0.04439062399734104
0.2278051273677545, 0.374012291431427, 0.02161759457594812
0.22856086695307753, 0.37401229143142706, 0.0459922626046695
0.22106407525514998, 0.374012291431427, 0.019328883529855366
0.2833343650917136, 0.37401229143142706, 0.02584396388600115
0.2227057497980136, 0.374012291431427, 0.02811817894800006
0.2673181252542322, 0.37401229143142706, 0.0325723488043199
0.282659613927457, 0.374012291431427, 0.013624271573969676
0.27233055754229796, 0.374012291431427, 0.025149107786353257
0.22059806283139782, 0.374012291431427, 0.030287891875593498
0.23346701803877085, 0.374012291431427, 0.035419535002205786
0.2723772663449351, 0.374012291431427, -0.04449396128950388
0.23284974259403246, 0.37401229143142706, -0.02880608796367717
0.23932092698626817, 0.374012291431427, -0.028709028632774258
0.3078050151819383, 0.374012291431427, -0.022806177926654153
0.30968401201545137, 0.374012291431427, -0.007387897910564914
0.23923847171474447, 0.37401229143142706, -0.03815962453424978
0.2925988987474142, 0.374012291431427, 0.0010755017293415181
0.25944440485159576, 0.374012291431427, -0.016343207748034622
0.2588549141924279, 0.374012291431427, -0.017039452043515473
0.26184570639969684, 0.374012291431427, -0.044840223931832554
0.31047051426611144, 0.374012291431427, -0.0035903185894326697
0.2963589148041554, 0.374012291431427, -0.013333280279991536
0.24127019472975095, 0.374012291431427, -0.037650880221083885
0.24988432915490955, 0.374012291431427, 0.01047143577704231
0.2290319490909688, 0.374012291431427, -0.01981975695123461
0.24210294109468541, 0.374012291431427, -0.010692303881421962
0.2110949328747373, 0.374012291431427, -0.004599873632401896
0.22268717525324933, 0.374012291431427, -0.008727599175599768
0.23043619562043333, 0.374012291431427, -0.0019328526717698235
0.22998409277400372, 0.374012291431427, 0.003908637939284252
0.22299271110125202, 0.374012291431427, -0.006245348712969915
0.29616759579025165, 0.374012291431427, 0.010694097905622809
0.24745495538220502, 0.374012291431427, -7.946923997185183e-05
0.1958486487267902, 0.374012291431427, -0.08191236153037637
0.14043521517676713, 0.374012291431427, -0.04106059362053462
0.16364001385960483, 0.374012291431427, -0.05450784269804197
0.15746010653590256, 0.374012291431427, -0.07252940247291446
0.10912346784426526, 0.374012291431427, -0.043513603995076054
0.1999980097459652, 0.374012291431427, -0.06475513554558973
0.13650886055774458, 0.374012291431427, -0.05394664351588923
0.17445388791655658, 0.374012291431427, -0.07578411763548137
0.19044729290880846, 0.374012291431427, -0.07895060726936926
0.15946373995147403, 0.374012291431427, -0.04849370560759611
0.13439064459563965, 0.374012291431427, -0.056290755141352705
0.26812517596617846, 0.374012291431427, -0.0935831670900368
0.23629994585001834, 0.374012291431427, -0.08738417824780334
0.2506702481953759, 0.37401229143142695, -0.0802315567093826
0.27896889353829274, 0.37401229143142706, -0.07347736603771936
0.25247881713275994, 0.37401229143142695, -0.08047628518883529
0.25779307576593163, 0.374012291431427, -0.08410622282510641
0.2675796809996653, 0.374012291431427, -0.12048668987632408
0.23043047704023756, 0.374012291431427, -0.1100568522575984
0.2755026281788683, 0.374012291431427, -0.11791838691313883
0.22286466218504572, 0.374012291431427, -0.10571598918889386
0.25101986077450356, 0.374012291431427, -0.09627291392920631
0.26681486618140826, 0.374012291431427, -0.11620921156471523
0.12249384759122021, 0.374012291431427, -0.09288039647680715
0.15885843961796411, 0.374012291431427, -0.09587233713829063
0.12198962259949485, 0.374012291431427, -0.10205500890745536
0.16592105756851583, 0.374012291431427, -0.12412796002368798
0.16305145307847416, 0.374012291431427, -0.13227609007961624
0.11877321869837287, 0.374012291431427, -0.0883063488773485
0.17019500034447138, 0.374012291431427, -0.11625116366515872
0.11539102340065116, 0.374012291431427, -0.08531051415277206
0.10850417996277358, 0.374012291431427, -0.08550201275810891
0.11684192859685966, 0.374012291431427, -0.10640705982926711
0.15853289613935548, 0.374012291431427, -0.09593387183315433
0.1711722984019743, 0.374012291431427, -0.10123934146247525
0.15042245027465906, 0.374012291431427, -0.11417749477865834
0.24127081162789513, 0.37401229143142706, -0.06783148572997796
0.24911442351028987, 0.37401229143142695, -0.07581942348744372
0.2166767545567475, 0.374012291431427, -0.05826490186628395
0.2316471905211851, 0.374012291431427, -0.06570724117640414
0.21952887810643368, 0.37401229143142695, -0.04944994464820569
0.216984753549177, 0.374012291431427, -0.06168051375117847
0.20674558653929598, 0.374012291431427, -0.0698776615405644
0.252043869955225, 0.374012291431427, -0.0550934045974317
0.2301257963662019, 0.374012291431427, -0.06250530997410067
0.28021762923918037, 0.37401229143142695, -0.06155748830278561
0.24207162298408014, 0.374012291431427, -0.1431469414568553
0.21301104969156728, 0.374012291431427, -0.1699823757406198
0.22707135353453123, 0.374012291431427, -0.1506735351970574
0.17016392705998468, 0.374012291431427, -0.15710955594860085
0.22060052632650262, 0.374012291431427, -0.17018777755718922
0.1896275404738016, 0.374012291431427, -0.1747879333726372
0.2211442518597677, 0.374012291431427, -0.14549010038525884
0.2302096647762733, 0.374012291431427, -0.15363183772491387
0.2276446926726527, 0.374012291431427, -0.15583062421461003
0.18748423631856037, 0.374012291431427, -0.1226943934685587
0.22948010095254884, 0.374012291431427, -0.12246402870205261
0.22813091365956978, 0.374012291431427, -0.11522865463736273
0.18949831101810155, 0.374012291431427, -0.1160548257913536
0.20110529234856242, 0.374012291431427, -0.1409107251432947
0.2637111562293165, 0.374012291431427, -0.1311477777489125
0.1933608501323639, 0.374012291431427, -0.12408146633176508
0.16143901171341415, 0.374012291431427, -0.1424537719352334
0.22017270577221887, 0.374012291431427, -0.12908271469344162
0.1769763321728614, 0.374012291431427, -0.12504097250213425
0.07820980084490761, 0.374012291431427, -0.15472552527543965
0.13558174742121099, 0.374012291431427, -0.15344361974429932
0.05057628029501556, 0.374012291431427, -0.09582594044208292
0.07017731079383396, 0.374012291431427, -0.13471988236701837
0.12870184703360762, 0.374012291431427, -0.1555208635408736
0.11177793522644813, 0.374012291431427, -0.1587842478615819
0.06898478586606935, 0.374012291431427, -0.11155570380261681
0.05505343197749963, 0.374012291431427, -0.11482408873298955
0.06146880318894736, 0.37401229143142706, -0.11988277277855607
0.04819514331761528, 0.374012291431427, -0.09543654538640817
0.0415666351099168, 0.374012291431427, -0.09111988941433662
0.055347185424519885, 0.374012291431427, -0.11227908813194754
0.061541577073854395, 0.37401229143142695, -0.12037817551635521
0.1183954537001077, 0.374012291431427, -0.14163530347479106
0.09099301914661607, 0.374012291431427, -0.15136733807198263
0.09562325289674145, 0.37401229143142706, -0.1844233288763722
0.1521620524232573, 0.374012291431427, -0.19667063060856285
0.14931287907083746, 0.374012291431427, -0.19603224415735063
0.1586210911473063, 0.374012291431427, -0.20133746877044342
0.10728767705082773, 0.374012291431427, -0.21132544645182266
0.13592200846707125, 0.374012291431427, -0.20533463194507326
0.12760163084714676, 0.374012291431427, -0.20709813737124277
0.16553722795159032, 0.374012291431427, -0.16404504767374217
0.1378370797968825, 0.374012291431427, -0.172415772583898
0.16574719774568503, 0.37401229143142706, -0.18527309651297338
0.15959191732144348, 0.374012291431427, -0.1754096744917693
0.18758666738353075, 0.374012291431427, -0.18334434501858737
0.1547725329322826, 0.374012291431427, -0.18769556268975635
0.11178957981300429, 0.374012291431427, -0.17687419728445133
0.1473930571569338, 0.374012291431427, -0.16567110929990292
0.04108775686504596, 0.374012291431427, -0.19903310021653645
0.03424446318094084, 0.374012291431427, -0.15648482033478636
-0.0037196146761870833, 0.374012291431427, -0.111977228497001
0.010366042887894653, 0.374012291431427, -0.1651206628919087
-0.000855070016819993, 0.374012291431427, -0.1042926386832966
0.025821218378341722, 0.374012291431427, -0.14359871090179202
0.04549470227494807, 0.374012291431427, -0.16027137841367395
0.04670093435841277, 0.374012291431427, -0.17612714136773844
0.01455087678872663, 0.374012291431427, -0.1943584040281373
0.043312433825801654, 0.374012291431427, -0.193811692471961
0.0684096162127514, 0.37401229143142695, -0.17615428078680026
0.003604871162397915, 0.374012291431427, -0.20980885846736336
0.03963734073231378, 0.374012291431427, -0.1684097080053511
0.019915319903573866, 0.374012291431427, -0.16551382169185655
0.018335786267806638, 0.374012291431427, -0.16438594355644798
-0.003028514077490625, 0.374012291431427, -0.14998308373585967
0.04746443558197144, 0.374012291431427, -0.1723753941563808
0.046954787329370556, 0.37401229143142706, -0.16245082605956748
0.017257368332867395, 0.374012291431427, -0.23293931723307876
0.023470036913655987, 0.374012291431427, -0.22770249178774216
0.026327735008792232, 0.374012291431427, -0.22920020785847234
0.03400142550381301, 0.374012291431427, -0.2258374830407764
0.3136395114834754, 0.4197189949780612, -0.031016618892670406
0.3149542055932621, 0.4226987430859886, 0.0004398816485329995
0.31465262969831415, 0.4131080362176336, -0.005727776307846231
0.3133747817353713, 0.3798364840137818, -0.03796049703893572
0.31271286897510353, 0.3786575250852098, -0.05202889637452377
0.31416281846594657, 0.40492004291936523, -0.016565503019989825
0.3138362334978189, 0.4024307397336728, -0.024262523063710725
0.3149722931515961, 0.39061979109522793, 0.019408883765437132
0.3141956500198969, 0.37691390806411984, 0.036273830393822745
0.31241397600999227, 0.39917160432915877, 0.0404859849576497
0.3134881489306485, 0.39852975184125006, -0.031237590608569628
0.3129107864067311, 0.39581492384726547, -0.043201693005981
0.3026810825249955, 0.4171151910267987, -0.08203058706025222
0.3034984245711193, 0.4162231138864722, -0.08055589833731691
0.29351610635839653, 0.42125906190450235, -0.09850234262123503
0.2871746362026597, 0.4049727933448623, -0.10967903556213586
0.30920565291629115, 0.4050480944346586, -0.07015545810308527
0.2942988545940428, 0.3867046526795405, -0.09696937194863278
0.279941670371838, 0.37820263749838834, -0.12313230032658948
0.27562888473944946, 0.39449321363080336, -0.13050906621619807
0.29064412588710753, 0.4008580058115408, -0.10335182172363877
0.2581694742328362, 0.4128235470278252, -0.14601607813300035
0.2655276001584452, 0.40996983417896965, -0.14057942005912888
0.2381156873935408, 0.40783540209997143, -0.16080192918305147
0.25516728383724724, 0.39917240958782235, -0.14823347914223922
0.271501944295904, 0.3988205653103266, -0.13618512000329913
0.23358526089653014, 0.3754618281735374, -0.16424824284508865
0.21139327652093082, 0.383399912850678, -0.18056268332457065
0.2215046940144808, 0.3825750517064908, -0.17313205981625276
0.22156118497342708, 0.39977322830537015, -0.17302366913703535
0.2517769798550991, 0.4058567579111157, -0.15072240647764912
0.19259646163557276, 0.4199200327943759, -0.19241203114604855
0.14674375729238143, 0.41251930148974963, -0.2092806189637799
0.14117342545392708, 0.41097516201788875, -0.21133020915815082
0.18131840171074534, 0.400637063604368, -0.19657072044137192
0.13050960518334645, 0.39649153030866346, -0.21525981124210364
0.14033358503151233, 0.3950960986015699, -0.2116476369228353
0.12115907871988146, 0.3820348665742481, -0.21869180124163354
0.16305859470755207, 0.38054369286628165, -0.2032793572466829
0.18541992165961363, 0.37485824006005763, -0.19505068362751996
0.15171381796893757, 0.4073503102872783, -0.20745533623281082
0.13805068510964894, 0.400976124030594, -0.21248376285944204
0.14134241847673593, 0.40588848778828984, -0.211270662563875
0.04007160413942674, 0.3913038737080696, -0.23324562230797713
0.05640186731872838, 0.3920550420814517, -0.23132963590282335
0.018121587825788765, 0.39331759342009925, -0.2358226758751665
0.07618941616506983, 0.41157526458017546, -0.22900082684250794
0.09198749846573202, 0.41858041523681266, -0.2271441295610503
0.04022300918319585, 0.41137839688168293, -0.23322187079606826
0.04373090800295428, 0.39499174865883113, -0.23281715504336925
0.03072896503645855, 0.3939916931079306, -0.2343434392765899
0.0967880234159741, 0.4042941114544016, -0.22658642849186736
0.03198097420206922, 0.39909051603090917, -0.2341941768450878
0.029042791406379498, 0.4044404865443121, -0.23453674059648963
-0.22156613968445987, 0.3883543669206714, 0.2575690950495003
-0.22147421430238579, 0.37462794561406965, 0.25757517117426737
-0.274252868561502, 0.3795494825673657, 0.25261641255792594
-0.2478223209953594, 0.3740130649602693, 0.1960049521703105
-0.25567692291239824, 0.37401274864650486, 0.2193332134290582
-0.2553886567796221, 0.3740131754933248, 0.18759949088172567
-0.2591953620734638, 0.37401329407376593, 0.17868808705748426
-0.2563174628914195, 0.37401307464010936, 0.19507620561891567
-0.3021617671869826, 0.3740134712931757, 0.16543341320208765
-0.30437111148410767, 0.37401330965870005, 0.17711561711638946
-0.3034593471944737, 0.3740134632797217, 0.16600783564072769
-0.25905262373305776, 0.3740135023945676, 0.16335633063463992
-0.29224870197391717, 0.37401332576141116, 0.175999409172932
-0.28110219801012637, 0.3740140842514037, 0.12291090949074619
-0.3097597098787886, 0.37401414625687307, 0.11863203409221207
-0.2245489475122581, 0.3740139617550338, 0.1313642009716266
-0.26442795351729376, 0.3740139700440099, 0.13082610462289404
-0.23109832901037586, 0.3740141567757443, 0.11782757931639673
-0.2797860330608324, 0.3740140131370083, 0.12784805352507236
-0.24409750968972377, 0.37401401547852325, 0.12765188079885886
-0.25773038737659465, 0.3740140381655205, 0.1260892565225855
-0.2457853843369665, 0.37401298906749403, 0.20180848299813475
-0.2221313694048173, 0.37401247463378134, 0.24215687641116845
-0.2214703563868273, 0.37401229685640164, 0.25543573656076135
-0.22635375165968136, 0.3740123227231785, 0.25308013365127735
-0.23791243219370187, 0.374012612356155, 0.2305190566170876
-0.3189849999788191, 0.3740635084570414, 0.12270629625660412
-0.319132040586742, 0.3801499388615703, 0.1678526938783757
-0.31907711483769907, 0.3845622700285701, 0.15378494231809142
-0.31824364853640996, 0.39389123426402833, 0.19062841580007803
-0.3090996243609054, 0.37416799816434415, 0.24930003501783238
-0.19251782219866398, 0.3740975935742079, -0.19483466722029807
-0.32303722293927956, 0.3877922264062422, 0.01967688162511684
-0.32159891127446566, 0.3785936883011537, 0.0445249959354422
-0.3195955936199654, 0.37710245828693845, 0.10189761890263753
-0.3188108179851065, 0.39259929234483965, 0.157428135384908
-0.3190907477468968, 0.38737818964161164, 0.13573140719132304
-0.31391940387476464, 0.38808524481056306, 0.24920685712020926
-0.3186040100614042, 0.38697478308167677, 0.22415392393297223
-0.2302831486397428, 0.381271167431632, 0.25674138657422574
-0.31807108918168314, 0.37401255151308943, 0.23116826748272737
-0.3123857962063448, 0.37401229143142695, -0.07679826107091586
-0.32065228452424005, 0.3752575131076336, -0.05427588359459794
-0.32254199260780547, 0.37878258858888547, -0.014073495197762666
-0.32260692364755383, 0.3783099000383041, -0.012837089953607125
-0.2870378197008935, 0.39224013859215756, -0.1244098132501148
-0.284621750343009, 0.3836258048404934, -0.12900141297625273
-0.3110417896387199, 0.3900985935444342, -0.08109759996341549
-0.23981441605083256, 0.38347902063928546, -0.16546640451449224
-0.22205282528887085, 0.3823555498417841, -0.17856698928781278
-0.22728283988158743, 0.3827166751541374, -0.17470946821248537
-0.1307561670495999, 0.38047700263363915, -0.2181060890745121
-0.11846929246071608, 0.38157731108834747, -0.2226261670903676
-0.11965736021081214, 0.38265563985033424, -0.22218988158710057
0.04371981616591811, 0.3742204921854384, 0.2653979467996951
-0.12695543979349416, 0.37583050651229816, 0.2637975222652454
-0.13021041499866667, 0.3760383373589562, 0.26359006154692444
-0.17384560418970724, 0.37790462813587833, 0.26081073193467774
-0.10599218846214967, 0.37798254341487936, 0.26463416269713486
-0.08968727524213062, 0.3875440190959993, 0.2649285505583184
-0.1078194010642437, 0.3821760046515703, 0.26460061404753155
-0.1086485969711613, 0.3863593480911001, 0.2645851478545785
-0.062411583871142165, 0.3806061577642737, -0.2315570054923296
-0.03145729661203462, 0.3832098710847271, -0.23519138207907875
-0.024182546662097064, 0.38796711257781025, -0.2360478718010312
-0.00800054822923747, 0.39185728853021695, -0.23794925365836056
-0.32109287474147263, 0.4189463877594648, 0.04438092246258689
-0.32253699925283363, 0.420012790086433, 0.02491046184374243
-0.31996923500416363, 0.41723004922880486, 0.054285960014066346
-0.319168077951653, 0.389378841161913, 0.11015091108231678
-0.3191469274343475, 0.3936656945243801, 0.081026610051205
-0.3187147229574286, 0.3795708289608606, 0.24189667553733077
-0.3187827010453245, 0.381439961154297, 0.22213343118192785
-0.3189084738181841, 0.38157395066108446, 0.19955374997884484
0.09904757315870866, 0.3781243342179528, 0.26461506567189025
0.09233499714878637, 0.3811852070291306, 0.2647364733231338
0.09062411239387544, 0.3838150613130388, 0.2647672211651229
0.09820157942145093, 0.3920956947635365, 0.2646289254921896
-0.2891686275504647, 0.3892402656169226, 0.25128537482286273
-0.2507465066056231, 0.3764654576136941, 0.2547797002405945
-0.31634183221487794, 0.40741328289822426, 0.07213100866122825
-0.3196170097620611, 0.3985403524290746, 0.053484998159099614
-0.31933175505649636, 0.39937013581556224, 0.05538393799092125
-0.17750347090845686, 0.4108107800757335, -0.20091323086118323
-0.13777382896991938, 0.4111385884423687, -0.21552566384357152
-0.14102024084479345, 0.4080580136950337, -0.21433325795448824
-0.25845533415644756, 0.419709224646537, -0.15171562957930218
-0.24839124296254178, 0.419846591592551, -0.15913570944312405
-0.27769062778373577, 0.4130893316760477, -0.13751827886289464
-0.31125477449876265, 0.4199272557481782, -0.08106272910615939
-0.2977662111491814, 0.4117026438983761, -0.1051724819504642
-0.32327710912542934, 0.40851383360007976, 0.009760216001771706
-0.322691043648354, 0.4162377441338265, -0.005214631844891331
-0.03031219099942917, 0.3938945233821869, 0.26548270399330587
-0.3198732636257646, 0.42461076378822327, -0.05293224548886716
-0.12263559477102567, 0.3889786233504059, 0.2640674174939531
-0.13819925641168984, 0.3898894644423938, 0.2630723161914391
-0.1254587020494139, 0.390043325534085, 0.26388657879809
-0.1357697592681046, 0.3910632630017371, 0.26322716004997904
-0.03460797332435075, 0.3904484823400275, 0.2659272569615245
-0.029009021019755856, 0.38406005898269735, 0.2660287938175258
-0.01563987479518837, 0.3836764611649338, 0.2662712429403643
-0.1790101648103053, 0.3938945233821869, 0.25906393376366876
-0.10021079198444749, 0.41109981641070714, -0.22712163886005815
-0.02363664076570656, 0.4084849427639101, -0.2361092704346015
-0.0849553406869305, 0.41825448676145427, -0.22890928609806854
-0.048153013139932546, 0.4245986058494812, -0.23224247404290793
-0.3019954624560729, 0.42461076378822327, -0.04828714021184856
-0.3125242115386528, 0.42461076378822327, -0.007258734218363119
-0.29469289681338806, 0.4246107637882232, -0.0405647246731325
-0.30073342124779695, 0.42461076378822327, -0.053297428961154455
-0.2986661671399541, 0.4246107637882233, 0.04672796570529271
-0.2935869325463851, 0.42461076378822327, 0.048871399003805
-0.3057049369776734, 0.42461076378822327, 0.03090573891049572
-0.2924143562537131, 0.42461076378822327, 0.04919508680725131
-0.28433685740173253, 0.42461076378822327, -0.11039453774334393
-0.30497542955171414, 0.42461076378822327, -0.08003337735370455
-0.2808327239703337, 0.42461076378822327, -0.1068986433218618
-0.27136051603364253, 0.42461076378822327, -0.10862822916654977
-0.21142094803543765, 0.42461076378822327, -0.17005798601698066
-0.24698206751388202, 0.42461076378822327, -0.1517105495850885
-0.20573398649631885, 0.42461076378822327, -0.18329934253165248
-0.12370738520513458, 0.42461076378822327, -0.21241006986647806
-0.11889088071639167, 0.42461076378822327, -0.2162325698761402
-0.14281480528481225, 0.4246107637882233, -0.21201840943118014
-0.0482184653158325, 0.4245995673802432, -0.22916678133458068
-0.28655792058488827, 0.3740126316576978, 0.22596343888193549
-0.2847089651514094, 0.3740128796085647, 0.208442412500303
-0.2821639934599127, 0.37401240547945713, 0.24249832570123353
-0.2259340131298351, 0.3740130028571978, 0.2025261654151279
-0.23412671510478675, 0.3740130932036332, 0.19509234150543373
-0.23637481008463232, 0.37401371907959063, 0.1483289347053282
-0.22131152187024306, 0.37401359905742193, 0.1585675554045604
-0.21453148182883133, 0.3740139807145294, 0.13075937518040087
-0.2179211475640888, 0.3740138229704134, 0.14220185715453434
-0.21308051048933727, 0.37401411769973786, 0.1206930585839785
-0.2208103875180557, 0.37401256784260334, 0.23533835219804553
-0.1466558353604524, 0.37401362568065444, 0.1624555764210571
-0.12507182596544586, 0.37401422644846816, 0.12044382492176577
-0.1568607789062059, 0.3740136954846666, 0.1564519950440462
-0.13273076449489596, 0.37401338338542045, 0.18139689956618543
-0.11794619002665971, 0.3740137058948429, 0.15912604656705925
-0.19730002594485474, 0.37401405086526807, 0.12690351914015072
-0.13031655828191177, 0.3740136537791882, 0.16184382565490643
-0.1714485567546483, 0.3740141599742156, 0.12120944456741636
-0.1280208478105242, 0.37401391625497166, 0.14285910817091615
-0.13252255214944555, 0.3740130310844734, 0.20716899291026802
-0.1305159466184836, 0.3740140512828011, 0.13276813028522974
-0.16981721342849893, 0.37401421679106284, 0.11720005118288795
-0.1351754318139403, 0.374013313227886, 0.18630972332483278
-0.17762514599406987, 0.3740135545534878, 0.16492136756331371
-0.1182259317710401, 0.3740124137229766, 0.2535610052762105
-0.11740964349831481, 0.37401386958340616, 0.14720753514797907
-0.17737195604550585, 0.37401371987445153, 0.15285851295999617
-0.18423609655070447, 0.3740138480580641, 0.1428821952982833
-0.12720549027151168, 0.3740142464254116, 0.11879513932449923
-0.12444230510824365, 0.37401316133768625, 0.19836054852236548
-0.1338100956336271, 0.37401272383388084, 0.2295158068306049
-0.12437836436938336, 0.374014239391191, 0.11955890588704808
-0.12915789819592655, 0.3740136064734565, 0.16540422049178466
-0.1626884160621091, 0.3740140149284777, 0.13258577108827016
-0.12875572205057795, 0.3740136089374202, 0.16525960185208882
-0.04395420864344943, 0.37401308333610933, 0.20604254261849864
-0.011715573540086628, 0.3740128783072191, 0.22120021911896537
-0.005511920803875248, 0.37401239920553175, 0.25668229924402536
-0.017961023226555725, 0.374013237442698, 0.19460422728453883
-0.09961153228681492, 0.3740140477778834, 0.13465530304240017
-0.06905342615266852, 0.3740140543117312, 0.13414377241884468
-0.036504035588450376, 0.37401388745231795, 0.14647390663766618
-0.010678030552432102, 0.37401261539213626, 0.2406737400410015
-0.029371161498636653, 0.37401295512363397, 0.21552625241284007
-0.09997286964324861, 0.3740141719453898, 0.12545838281976956
-0.023904773877059683, 0.3740127846613877, 0.22814767905662234
-0.017523641357913806, 0.3740142820915997, 0.1172253516650352
-0.055090675558986515, 0.37401376024236044, 0.15591327416881995
-0.034855839504630115, 0.37401428348675014, 0.11713764288093334
-0.06091655081336394, 0.3740139319472951, 0.14320012422159367
-0.08180329143777611, 0.3740142866882803, 0.11694284304394648
-0.007790306820925358, 0.37401236123277765, 0.25949704459995776
-0.0290778148030695, 0.3740138861870206, 0.14656093117855626
-0.004459387978713252, 0.3740124746872091, 0.25109032552158045
-0.020872256679975432, 0.37401387477006, 0.14739919952022257
-0.0694851797906899, 0.374013835178747, 0.1503756224123354
-0.09444118528653728, 0.37401396101587087, 0.14107721325227346
-0.009044186109334128, 0.37401239453219426, 0.25703164505498327
-0.016033077230751928, 0.37401317466353085, 0.19925262174192487
-0.03605226310008332, 0.37401370453618654, 0.16002233114794842
-0.03542329719418087, 0.37401376289732413, 0.1556988797305504
-0.05541142793295249, 0.3740139145575464, 0.14448324012797217
-0.06202314830421555, 0.37401427646362595, 0.11768235669710383
0.07971087703127971, 0.3740134609747324, 0.17774890086696746
0.09564389745503823, 0.37401386099091566, 0.1482516411379564
0.09305254068086913, 0.3740130057817178, 0.21074473072149147
0.02141460863801567, 0.3740124360166131, 0.2536460047076496
0.07243312666202888, 0.37401361951454315, 0.16630440176031547
0.10469483011217226, 0.37401273938836294, 0.22998546879698778
0.07169808084694686, 0.37401257727653414, 0.24242043512912134
0.09521824315375044, 0.3740129122884914, 0.21753223579785846
0.07088204448151392, 0.3740135464650061, 0.17166647422044898
0.08028321795456826, 0.3740128893858426, 0.21947512852226636
0.06878554510360206, 0.37401299026672574, 0.2123172525102999
0.057620112276838664, 0.37401273757872866, 0.23097044724875254
0.09318840387347213, 0.37401281530995684, 0.22465024268388326
0.06256156739333578, 0.37401267700576374, 0.23530387463554123
0.09142676586252939, 0.37401243385911664, 0.2525351482441797
0.05267941316751859, 0.37401319813871287, 0.19743053071659197
0.07868724486850139, 0.3740131494000104, 0.20051818274588423
0.09970357944091793, 0.3740127040468033, 0.2326564838374649
0.05524601073362223, 0.37401293993423557, 0.2162377509273517
0.06525307140772318, 0.3740127973319922, 0.22646906557120838
0.10044287435518126, 0.37401317509333765, 0.19824795142084184
0.0762376497174897, 0.3740129938681872, 0.21191927096978133
0.08050569687363372, 0.37401261481932363, 0.23951954926759556
0.10105514533384295, 0.3740138389585234, 0.14976238034913913
0.0471155827513107, 0.3740128034850593, 0.22634837008832281
0.039066651959230606, 0.37401284816126945, 0.22323199822022374
0.09143299350065949, 0.374012971998527, 0.2132408715559419
0.09789387832138637, 0.374013926485933, 0.1434285270261276
0.06485893061381473, 0.3740132427200062, 0.19395461551256207
-0.31463540213382873, 0.3740140805402682, 0.12316758696453012
-0.3162936808237756, 0.3740136130107304, 0.15536711345721838
-0.2868181371240863, 0.3740135526767112, 0.15964120814293323
