-0.36084616163638383, 0.20464123785495758, 0.5969754615936276
-0.48149030446107416, 0.20464123785495758, 0.6081820820952993
-0.5937196876887936, 0.20464123785495758, 0.6372342762405618
0.3128964806266564, 0.20464123785495758, 0.5937585509531879
-0.2435869750148691, 0.20464123785495758, 0.6013679205787408
-0.48244438301774517, 0.20464123785495758, 0.6396075106339887
-0.0826282255272352, 0.20464123785495758, 0.5987858691362873
-0.7171757026452861, 0.20464123785495755, 0.6154684453596189
-0.11805982926030206, 0.20464123785495758, 0.6098808382074608
-0.5281441028196556, 0.20464123785495758, 0.6343370220194109
-0.3593212163059669, 0.20464123785495758, 0.6020319831756722
-0.11583801906316049, 0.20464123785495758, 0.6289027996570724
0.47382583762925756, 0.20464123785495758, 0.5968058040859369
-0.6432687211075636, 0.20464123785495758, 0.6178822089721692
0.10062154955110725, 0.20464123785495758, 0.610281195801504
-0.34853694688082204, 0.20464123785495758, 0.5971235006275153
-0.32495405593867643, 0.20464123785495758, 0.6315236926262413
-0.31284978299000504, 0.20464123785495758, 0.6431582856236241
-0.644049073642311, 0.20464123785495758, 0.6475073763119761
-0.10332713450022174, 0.20464123785495758, 0.6264583155802033
-0.46556261912399377, 0.20464123785495758, 0.6335147018781612
-0.10838603404613786, 0.20347593309490417, 0.6689718043069193
-0.4555070844926107, 0.1844091966366707, 0.6692033410072327
-0.4085682104713315, 0.18504078694479698, 0.6692033410072327
-0.7345885972016586, 0.19837425639430323, 0.6692033410072327
-0.5048038264969124, 0.1957265803908602, 0.6692033410072327
-0.37487212736816783, 0.19480688757199208, 0.6692033410072327
0.28381539087211993, 0.18698743185247535, 0.6692033410072327
0.7365500489604775, 0.20183917524104075, 0.6692033410072327
0.665303993576396, 0.19486771798449226, 0.6692033410072327
0.6930654322028689, 0.19194704474145735, 0.6692033410072327
0.603124347380019, 0.19510015696622662, 0.6692033410072327
0.6031639851686501, 0.20110601695555777, 0.6692033410072327
0.6882857814274306, 0.1885623574684588, 0.6692033410072327
0.7010865769610917, 0.18201831050500633, 0.6688600505525885
-0.30528480003116076, 0.1811412125825882, 0.5988395051501856
0.67102131654582, 0.1811412125825882, 0.6024894870287199
0.6483164671601863, 0.1811412125825882, 0.6557734474941647
0.6061669759305739, 0.1811412125825882, 0.6060710419311371
0.33955345373196905, 0.1811412125825882, 0.6440861813129276
0.17050631219409354, 0.1811412125825882, 0.6055982685402705
0.4819645288061686, 0.1811412125825882, 0.6164361564953194
0.7409177226634537, 0.1811412125825882, 0.5977797276676955
0.1988006688031276, 0.1811412125825882, 0.5978083346615054
0.7412619429629392, 0.1811412125825882, 0.6030950992754152
0.3605344803532618, 0.1811412125825882, 0.6361093967986632
0.10746516242798507, 0.18114121258258817, 0.634827525523754
0.40195839955994495, 0.1811412125825882, 0.620271922935873
0.5628550482336618, 0.18114121258258822, 0.656101645070442
-0.14305818068952342, 0.1811412125825882, 0.6031209480753247
0.4037322015265689, 0.1811412125825882, 0.6240821038150781
-0.5919226934702664, 0.18114121258258817, 0.5980193043429561
-0.46878999903670665, 0.1811412125825882, 0.6036255228618692
0.6355439011784147, 0.1811412125825882, 0.6329164682246543
0.40398800606508234, 0.1811412125825882, 0.6141345923787385
0.6097020910188966, 0.18114121258258817, 0.6493313084141356
0.7527492354149341, 0.1811412125825882, 0.6092886111920275
-0.6032230989368591, 0.19009305275184118, 0.5917287468910218
-0.7393028804645506, 0.18389876759138216, 0.5917287468910217
-0.7756533053111416, 0.19999309547680072, 0.5917287468910217
0.46504579469532303, 0.2011369094818176, 0.5917287468910217
-0.46955285167211913, 0.1940371140128845, 0.5917287468910217
-0.34122037617585643, 0.1992508001410546, 0.5917287468910217
0.1554121356247984, 0.1817557622678182, 0.5921738544499167
0.23891770995118297, 0.18114121258258822, 0.6526446637322129
-0.683892659081553, 0.1811412125825882, 0.6553764863717696
-0.3664387662449291, 0.1811412125825882, 0.6405288532363594
-0.29116677315490985, 0.1811412125825882, 0.6581667794488293
-0.7307381961045603, 0.1811412125825882, 0.6092005543430155
-0.032347503048961945, 0.1811412125825882, 0.6628320888132861
-0.49569177440368994, 0.1811412125825882, 0.6191934891395514
0.19210655109275443, 0.1811412125825882, 0.6551777933906806
-0.06273022408829457, 0.18114121258258822, 0.6423530940433422
0.30872901683114373, 0.1811412125825882, 0.656320382713522
-0.7359384001835001, 0.18114121258258817, 0.6101223331389796
0.3813652257946859, 0.1811412125825882, 0.6660829200096319
-0.30406442631820907, 0.1811412125825882, 0.6602135393996833
-0.5970992519419794, 0.1811412125825882, 0.6036356948490741
-0.57586643943496, 0.1811412125825882, 0.6422833045908012
-0.6026650267507417, 0.1811412125825882, 0.652779744443724
0.15961268069364787, 0.1811412125825882, 0.6639650680422091
-0.10334558782257972, 0.1811412125825882, 0.6515140209603436
-0.2301777089338023, 0.1811412125825882, 0.6585510350864303
-0.3081351292802885, 0.1811412125825882, 0.6207968874129256
-0.2922205464070684, 0.1811412125825882, 0.6259408091728959
-0.7508071264240721, 0.1811412125825882, 0.6045116126413498
-0.30276825393829554, 0.18162604009342478, 0.5922827832159961
0.17248492586979006, 0.18883573917643925, 0.5917287468910217
0.14160212791601517, 0.18946794608185705, 0.5917287468910217
0.6654444217491964, 0.19861370214953492, 0.5917287468910218
0.645642951364128, 0.1940045850873044, 0.5917287468910217
0.45837583727191794, 0.1834632258887211, 0.5917287468910217
0.5218839404461402, 0.19680024489638323, 0.5917287468910217
-0.20404961183906328, 0.20461480081507072, 0.33991045424584465
0.5742503758582764, 0.20464123785495758, 0.3985133943484551
0.7237338317380941, 0.20464123785495758, 0.35602603211302397
0.7431699730201778, 0.20464123785495758, 0.4032554296591328
0.09140862198140501, 0.20464123785495758, 0.3863353851153882
-0.0778667554380259, 0.20464123785495758, 0.3944732453519709
0.481943266311876, 0.20464123785495758, 0.3955394048369837
0.5923973593863376, 0.20464123785495758, 0.3976197257622257
0.45421287273705285, 0.20464123785495758, 0.3930434803285968
0.7572092641081092, 0.20464123785495758, 0.37540669746512223
0.27773074039695916, 0.2046412378549576, 0.37421996915659106
0.7158244572912398, 0.20464123785495758, 0.3729496965750792
0.7274552152626013, 0.20464123785495758, 0.38302234773390753
0.4124008576195933, 0.20464123785495758, 0.4024113063039845
0.42893556337804795, 0.20464123785495758, 0.38272131092898776
0.5484053116988957, 0.2046412378549576, 0.40875976911501477
0.7177302420857212, 0.20464123785495758, 0.35245262371909497
0.6328594750954978, 0.20464123785495758, 0.40244830065547804
0.35163816641376566, 0.20464123785495758, 0.36044791123852465
0.6162638701905097, 0.20464123785495758, 0.39359388485126195
0.22475400670523962, 0.20464123785495758, 0.37780856643265676
0.002746640650180432, 0.20464123785495758, 0.41041557032268117
0.6044755457826366, 0.20464123785495758, 0.3682200032574256
-0.7289036558327006, 0.20455647104000385, 0.41433656357898185
-0.7620739026752068, 0.20464123785495758, 0.34970782523272415
-0.25962296126684997, 0.20464123785495758, 0.35915462879517956
-0.44934392039172094, 0.20464123785495758, 0.3448567883412913
-0.014463766660687882, 0.20464123785495758, 0.35081155661238356
0.23736060739733844, 0.20464123785495755, 0.34137443100918424
-0.7010288613416111, 0.20464123785495758, 0.3541796161214307
-0.5234856828143557, 0.20464123785495758, 0.3896935737160227
-0.0886398505444678, 0.2046412378549576, 0.37740709109089543
-0.6170073609075895, 0.20464123785495758, 0.3597833606190052
0.4692681563882524, 0.20464123785495758, 0.34682184405904176
-0.039036460626436675, 0.20464123785495758, 0.3585964098610467
0.19689557469033162, 0.20464123785495758, 0.3492163441566309
-0.6534291817847618, 0.2046412378549576, 0.3453895299494339
-0.4302797665192134, 0.20464123785495758, 0.3554237091746407
0.3918091585058263, 0.20464123785495758, 0.3567178245940181
-0.5491615146618536, 0.20464123785495758, 0.37530971699673854
-0.4174813695561204, 0.20464123785495758, 0.3565158065550079
-0.04314498115163462, 0.20464123785495758, 0.36698382008280417
0.2947893566274463, 0.20464123785495758, 0.3618765407288937
-0.3887031763915306, 0.20464123785495758, 0.387786823122151
-0.09414409745041372, 0.20464123785495758, 0.35965630482744265
-0.5412867418068852, 0.2043785474859675, 0.33937652799633566
0.268684109856257, 0.18120220117394903, 0.4142828453218772
-0.6424841225483565, 0.18987339014901436, 0.41579484939575195
0.1209046002353324, 0.1841253242267321, 0.41579484939575195
-0.7498688226502068, 0.1919061565542716, 0.41579484939575195
-0.2984043843830055, 0.19162982709773535, 0.41579484939575195
0.02488632359325918, 0.18839277522135311, 0.41579484939575195
-0.7287927436988136, 0.18176465790998544, 0.41535321883323834
-0.4539480088845771, 0.20218816122420447, 0.4157948493957519
0.46919849996722685, 0.19616209382948954, 0.41579484939575195
0.37343831870740035, 0.19839886193511808, 0.41579484939575195
0.17794134878901796, 0.19374585184821588, 0.41579484939575195
0.654730470238167, 0.2008598518234103, 0.41579484939575195
0.5545469158006043, 0.19702702102253522, 0.41579484939575195
0.784544050693512, 0.19129184329355492, 0.3905476227067108
-0.265975171308234, 0.1811412125825882, 0.34553103248838013
-0.4614326412014411, 0.1811412125825882, 0.34577213587387884
0.5260120136998842, 0.1811412125825882, 0.35803583204985145
0.25833283907326976, 0.1811412125825882, 0.3652685496338112
0.15291589628678404, 0.1811412125825882, 0.3639694713348608
0.5516142157218085, 0.1811412125825882, 0.37913601016254955
-0.24173551489154774, 0.18114121258258817, 0.3615217244646561
0.7248998837944021, 0.1811412125825882, 0.3615080531774105
0.3864919608932592, 0.1811412125825882, 0.3532339081294335
0.7527211643054038, 0.1811412125825882, 0.3526063407813093
0.5930315761875943, 0.1811412125825882, 0.35789197212708035
-0.16658564212053434, 0.1811412125825882, 0.36784514274194324
0.7094678983372436, 0.1811412125825882, 0.3634973672360424
0.5086723239418174, 0.18114121258258822, 0.3913763782348186
0.5265157805220623, 0.1811412125825882, 0.3577967386840397
0.5426741046878889, 0.1811412125825882, 0.36870317956778587
-0.1659482606525104, 0.1811412125825882, 0.34127670508966046
0.034279634927803726, 0.1811412125825882, 0.3509702796211082
0.05354546440812735, 0.1811412125825882, 0.36481843767928657
0.1008575654474537, 0.1811412125825882, 0.3637412996271627
0.4758338508308903, 0.1811412125825882, 0.34601445901395267
-0.4921401829224243, 0.1957699138554188, 0.3383203446865082
0.4491472984551447, 0.20010014675245463, 0.3383203446865082
-0.49169591342455776, 0.19207134556619826, 0.3383203446865082
-0.05673266304234803, 0.19705058087201618, 0.3383203446865082
-0.7327566720284734, 0.19253014469541327, 0.3383203446865082
0.4640804150046093, 0.19988385634981765, 0.33832034468650823
-0.6718232247405629, 0.18137764144174123, 0.4146793929029452
-0.753765339225319, 0.18168015494797063, 0.33879474376579966
0.6662744738596313, 0.1811412125825882, 0.41363966160924537
0.020364981125337193, 0.1811412125825882, 0.3780954429514322
-0.17139013992289776, 0.1811412125825882, 0.39960484962853804
0.03725086546746334, 0.1811412125825882, 0.40041569738500304
-0.1664879523253504, 0.1811412125825882, 0.4010266088260833
-0.7380673025928293, 0.1811412125825882, 0.34510168828293697
-0.6759794022936456, 0.1811412125825882, 0.39357748525715025
0.5051323488490682, 0.18114121258258817, 0.40674847141827963
-0.1273909297553666, 0.18114121258258822, 0.3817332589515652
-0.6920909265443437, 0.1811412125825882, 0.3688872386626806
-0.302345560377894, 0.18114121258258817, 0.3640923484732069
-0.2929019843549415, 0.1811412125825882, 0.40804553033730095
-0.524102233236333, 0.1811412125825882, 0.36137650542015176
0.2035006997129734, 0.18114121258258822, 0.41368838533089103
-0.6200079915996498, 0.1811412125825882, 0.40614756282677966
-0.586959465931701, 0.1811412125825882, 0.37943030408345413
-0.2183573316696944, 0.1811412125825882, 0.3936288283438255
-0.09503375937186051, 0.1811412125825882, 0.3913149462336415
-0.3789644307769726, 0.1811412125825882, 0.368559141579486
-0.12076675825635912, 0.1811412125825882, 0.37886991791585756
0.5326496964424816, 0.1811412125825882, 0.4083008067865912
0.48949714569628544, 0.18115431951867253, 0.33994057565046
0.2791726795917181, 0.19053999174797942, 0.3383203446865082
0.37033993121157505, 0.19229613346539198, 0.3383203446865082
0.20046939109284084, 0.18609112409024284, 0.3383203446865082
0.15259980399285175, 0.1891152252106339, 0.3383203446865082
0.361927053671779, 0.19215494382957585, 0.3383203446865082
-0.5073516672532822, 0.18395017410205694, 0.3383203446865081
0.28176606800696, 0.20302766996271143, 0.33837802945978124
-0.519554067337736, 0.20323338447457845, 0.838596765852846
0.7467948119457223, 0.20464123785495758, 0.8994846305467665
-0.14850732571719258, 0.20464123785495758, 0.8989857463338485
0.22907097907807103, 0.2046412378549576, 0.8691310595076183
0.6448884826236435, 0.20464123785495758, 0.8948505518057741
0.754947339120725, 0.20464123785495758, 0.8453846238083688
0.5539097002938219, 0.20464123785495758, 0.893178328358944
-0.20656008437565948, 0.20464123785495758, 0.8890465095342572
-0.13500197976430517, 0.20464123785495758, 0.9084298711334011
0.14077609328943164, 0.20464123785495758, 0.8803168438519808
-0.748985836823938, 0.20464123785495758, 0.9139725274587791
0.13205695423957503, 0.20464123785495755, 0.8816483299158264
-0.2950098405296441, 0.20464123785495758, 0.8940080670025279
-0.4860422164693764, 0.20464123785495758, 0.9089960540517525
0.6688786037241599, 0.20464123785495758, 0.8474492959573745
0.4408981351707588, 0.20464123785495758, 0.8940804048896206
0.34760778575964013, 0.20464123785495758, 0.8704845228832535
-0.2264377912957931, 0.20464123785495758, 0.9103053449454839
-0.09519502347209965, 0.20464123785495758, 0.9048784101032035
0.20061443862292644, 0.20464123785495755, 0.868283651288975
0.7326182293775825, 0.20464123785495758, 0.9010810529474975
0.6125665175234947, 0.20464123785495758, 0.8822109674572771
0.43140255617984147, 0.2038204415834609, 0.9155686865995587
-0.3351823189134163, 0.20442542970859864, 0.9147717337661012
0.11645360022094298, 0.2046412378549576, 0.8716927962606603
-0.46809260113082, 0.20464123785495755, 0.8750835356695261
-0.7653120242875749, 0.20464123785495758, 0.8891511908656423
0.2068038253445607, 0.20464123785495755, 0.8658434969334159
-0.5381680027652879, 0.20464123785495758, 0.8760553684933945
-0.07089397463103159, 0.20464123785495758, 0.8625270853255436
-0.7421785063873618, 0.20464123785495758, 0.8458100683186951
0.14317207860393694, 0.20464123785495758, 0.8512204213984904
-0.443665199626586, 0.20464123785495758, 0.8912372939031472
-0.05361800265256467, 0.20464123785495758, 0.8428019400409752
-0.17458608657819039, 0.20464123785495758, 0.8571368559376616
0.10229672954982105, 0.20464123785495758, 0.8446723226125692
-0.2253166195131382, 0.20464123785495755, 0.8690955984177747
-0.20017022855607483, 0.20464123785495758, 0.8637161761826908
-0.5725357770481714, 0.2046412378549576, 0.8491423298580811
0.24182986366949819, 0.20464123785495758, 0.8643148802251611
-0.20906072033085915, 0.20464123785495758, 0.8499936952369247
0.2211047282679482, 0.20464123785495758, 0.8564362744673658
-0.5276551920456929, 0.20464123785495758, 0.8794704499327841
-0.018955993371174207, 0.20464123785495755, 0.8690597050772297
-0.5739575663557278, 0.20464123785495758, 0.8644532793540503
-0.7688602679657, 0.2042715186810388, 0.839273609538117
-0.44755235405362814, 0.18357894964205557, 0.9159337878227234
-0.42347540657160326, 0.1968640859106766, 0.9159337878227234
-0.4451249298263761, 0.184740431159389, 0.9159337878227235
-0.19563956534458563, 0.18960904596066688, 0.9159337878227234
-0.7514488399539487, 0.2021160833449487, 0.9159337878227234
0.5890485956608287, 0.18493365993180275, 0.9159337878227234
0.015931889131786392, 0.18172120710494905, 0.9154753362035901
0.49537765036762227, 0.1934158879460733, 0.9159337878227234
0.37895173889412, 0.1997352583994772, 0.9159337878227234
0.44887418309271643, 0.1990457717782994, 0.9159337878227234
0.4789218015338727, 0.19127734347283726, 0.9159337878227234
0.682977986889813, 0.1951075366300556, 0.9159337878227234
-0.17707086254896984, 0.18267002548087802, 0.9158432458328454
0.7779032227693372, 0.1811412125825882, 0.8823422575530849
0.5472369355058401, 0.1811412125825882, 0.9004587170101652
0.4591640545127852, 0.1811412125825882, 0.8782570794762045
0.450415453784623, 0.1811412125825882, 0.8504618822107655
0.2469916201851419, 0.1811412125825882, 0.8580167513116439
0.30187547277240223, 0.1811412125825882, 0.8685765902907214
0.17664041500246122, 0.1811412125825882, 0.8592718929846193
0.015385606610509264, 0.1811412125825882, 0.8681059643902784
0.2335807925688576, 0.1811412125825882, 0.8464663048500364
0.006813404141223389, 0.1811412125825882, 0.8459457861466093
-0.13580865515114612, 0.1811412125825882, 0.8580325667332774
-0.20526057207401527, 0.18114121258258822, 0.8637231830199248
0.33741601031421015, 0.1811412125825882, 0.8908779947976628
-0.42262353417385634, 0.18114121258258817, 0.8445293270471785
0.5711921112782392, 0.18114121258258822, 0.9004945594298119
0.0947487139202536, 0.1811412125825882, 0.873319862625765
0.38543906102018666, 0.1811412125825882, 0.8711754937997607
0.46871771834469245, 0.1811412125825882, 0.8752666816084351
0.22792214163302502, 0.1811412125825882, 0.8522087323816683
-0.745115059361111, 0.1811412125825882, 0.8403135143011642
0.77255719290154, 0.1811412125825882, 0.8732034394317412
0.40962960186492936, 0.18114121258258817, 0.8909760640659814
-0.5045368628679768, 0.20102304032983276, 0.838459312915802
-0.546632918076819, 0.1997044447251301, 0.838459312915802
-0.4528641638776533, 0.19929054317204703, 0.838459312915802
-0.3533203413511986, 0.18903277853622072, 0.838459312915802
-0.7181195979307017, 0.20000999259655267, 0.8384593129158021
-0.31886310615362196, 0.19140597461201653, 0.838459312915802
-0.24903566629852894, 0.18150965161850963, 0.9151167692765385
-0.6984828662379834, 0.18262164177903564, 0.838568615956539
0.4633345675141985, 0.18114121258258822, 0.9012549878807496
-0.4514307181118, 0.1811412125825882, 0.8992495307608575
-0.5228561835715251, 0.1811412125825882, 0.8782012674741764
-0.18648794026508697, 0.1811412125825882, 0.8931180169334534
0.07364217605007206, 0.1811412125825882, 0.9075185446996031
-0.16194455001882785, 0.1811412125825882, 0.9023649974087533
-0.0175317011860473, 0.1811412125825882, 0.9123882079351864
-0.637246590933908, 0.1811412125825882, 0.8640719304893498
-0.20328920189328317, 0.1811412125825882, 0.8794306911199798
-0.3112614285197086, 0.1811412125825882, 0.9063392226856462
-0.6135105203309814, 0.1811412125825882, 0.9135113722664253
-0.26876123099749516, 0.1811412125825882, 0.8769652449689531
0.3453538232572704, 0.1811412125825882, 0.8976787662954864
-0.29227208603404536, 0.1811412125825882, 0.8969817298972399
0.2644129488541976, 0.1811412125825882, 0.8909721798453765
-0.6675273402688614, 0.1811412125825882, 0.8657205390054854
0.16930910981330594, 0.1811412125825882, 0.9105882539948368
-0.723136389339059, 0.1811412125825882, 0.889724583020512
-0.3027664734638947, 0.1811412125825882, 0.8689228588854334
-0.10577892261346107, 0.18114121258258822, 0.8757664323926925
-0.38378764906514473, 0.1811412125825882, 0.8886752999425425
0.3488834927012074, 0.1815993871394198, 0.8390735379164901
0.3311286282770157, 0.1829793463366339, 0.838459312915802
0.5529553111108698, 0.19002996584765414, 0.838459312915802
-0.23296443324463414, 0.18784782493520286, 0.8384593129158021
-0.16024464698603258, 0.18554442127300375, 0.8384593129158021
0.17241892789262603, 0.18594360276173663, 0.838459312915802
0.5983391449950144, 0.18700165803870658, 0.838459312915802
0.3189785591360643, 1.1680464311395646, -1.0916504938018488
0.3956740789303202, 0.7742939762517249, -1.0978533112263307
0.47051162223767223, 0.8941208697541997, -1.0969431168507744
0.5469399790953486, 0.7736195215051422, -1.1043872670816528
-0.5296128143294176, 1.0331838928621906, -1.0960370276773226
-0.5450085207512547, 0.7706229745891673, -1.0973407056261324
-0.0002447523725631456, 0.8006465327907603, -1.025569680504817
0.01155976645016959, 0.8077387461786554, -0.9745094583693121
0.010370058479943229, 0.7806116283311898, -0.8793656888429784
0.03538236764321192, 0.7886569694104708, -1.03094970069951
0.04146874505280831, 0.81850761027549, -0.7194615366799703
0.023381114909327528, 0.7771582691653032, -0.7073605913776361
0.023952915268737097, 0.8174658491424311, -0.9484756546133893
0.009148690907079742, 0.7928283584941844, -0.777038880519444
0.02430235628769376, 0.8122511989913508, -0.8753831263604284
0.020943399213818145, 0.7788499537112596, -0.9551144921963506
0.02314748037894477, 0.7677329281542434, -0.9086195757416676
0.013855579592356008, 0.7759262538895382, -0.7667768011024887
0.03253236261825349, 0.7564012896393344, -0.8125388062300677
0.6274146302547389, 0.8010038257906891, -1.026881521008132
0.5461888301187231, 0.8194751735802424, -0.7046730868121781
0.561190499505967, 0.8252389161940656, -0.7084775668445222
0.6437514450417328, 0.7781508936793915, -1.0260300782199465
0.5260362322037374, 0.7444631463404123, -0.7228918264503992
0.5716159874311999, 0.7667100014969076, -0.7066688882749907
0.5006035459892976, 0.8750607513943306, -0.8882219813019663
0.5256787963253007, 0.8552083772564689, -0.9747893726499017
0.5676993139058014, 0.8525185065849791, -0.9337355882932559
0.5149864653429657, 0.8652855790833995, -0.7614315788862389
0.504600820517537, 0.8715001882831237, -0.7870444687866582
0.5530820459932091, 0.860577843687713, -0.7729363810449804
0.5578915327763033, 0.8645665640255413, -0.82174531388046
0.5090575879084893, 0.7234030462049462, -0.9614731722784742
0.5325762445055526, 0.7220679122803948, -0.9042228344479004
0.5529990607857556, 0.7245970339926011, -0.9039273863401727
0.5189801237336756, 0.7205327553132886, -0.8440665395400745
0.5113488831672751, 0.7199049874558917, -0.8298557832751521
0.4909348487082147, 0.7325768128446133, -0.7370643117607001
0.5692039285331122, 0.7347436558825425, -0.7503512947671742
0.40719224592094705, 0.8069965145243094, -1.0332354120745963
0.40887896639568344, 0.7896702481068129, -1.0342916086132883
0.17185134582113648, 0.7972762043404339, -0.6969358414871129
0.2836840533730484, 0.786756577976447, -1.0326249718927485
0.1930877728918129, 0.7941278807741141, -1.0338740054544313
0.18597693429002893, 0.8072724818973451, -1.033054817094386
0.33195721721093124, 0.7900379222411242, -0.6964849885665348
0.35445117858868597, 0.8037356121606525, -0.6977217270537839
0.06215845959545038, 0.7999493521182606, -1.0352214942338218
0.06620025352991336, 0.7905474404493227, -0.6961335924447324
0.6546397690395943, 0.7969635316118293, -0.7097889213310433
0.5906395461076313, 0.809042346279155, -0.7006261439822395
0.5756596922717324, 0.7807579534724507, -0.6990418083349128
0.646560324223109, 0.7861921797804614, -0.928233230701956
0.589200773039847, 0.7766598944113542, -1.0333995807451175
0.557062041580586, 0.7955967880500786, -1.0374069487523565
0.378664740177016, 0.8348650421709185, -1.0237447512398987
0.4181651124909895, 0.8380817507425602, -1.0159442809051091
0.3867939313666505, 0.8383411109585838, -1.0202421915223199
0.30667680428520266, 0.8548792947924155, -1.0043690126966944
0.21956911173134713, 0.809742704295866, -1.032376181869851
0.2764938499342152, 0.8196674400530807, -1.0292355441497534
0.2100075227545834, 0.8437284830404943, -1.0175657363659247
0.2864198251462448, 0.8698753051588507, -0.9816589473969508
0.13918491050506135, 0.8577795148002197, -0.9837253436491904
0.13698875432901408, 0.8076806708914642, -0.6995520952118953
0.13752230066588664, 0.8533967965414904, -0.7419227294785177
0.17932721173666918, 0.8527091932060387, -0.7370755157572307
0.47220229898162347, 0.8229534445738803, -0.7044150397812982
0.2624507747598713, 0.8067733601957587, -0.6992798728861084
0.31849927224352276, 0.8175653838864391, -0.7031004651691868
0.2958098653343936, 0.8599770035468813, -0.74432581837284
0.46908458520018687, 0.8537371218411041, -0.7291491746395153
0.4941405853421264, 0.8633309224582091, -0.7476850297985225
0.37338298923630603, 0.7382595544318243, -1.0034073429048227
0.4288814775205214, 0.7799168139423833, -1.0307361234207268
0.37348316085598, 0.780402764445275, -1.0312117854956206
0.34404376528158054, 0.7449055098645321, -1.0109608563230315
0.18883553154273203, 0.7425606984013745, -1.0076812962554598
0.2680357279156941, 0.7582284935839343, -1.0202956046065021
0.2803205918849026, 0.7687666764572926, -1.025053778626277
0.19049506364100327, 0.7470790895094366, -1.0119403869256502
0.22920152015787204, 0.7320037776720569, -0.7344449856572843
0.15439135646716506, 0.7398957140973175, -0.7268623409128288
0.18854739870315973, 0.7375750561683555, -0.7286113451061877
0.26431142768352767, 0.7702910355094056, -0.7048346111712073
0.4430951349181357, 0.7364505253718536, -0.7288532669263867
0.4299631391280233, 0.7279507809728045, -0.7427934025177626
0.32170878342949316, 0.7818199309780451, -0.6990503419891692
0.33920407854778817, 0.7676396479627472, -0.7056457893674499
0.4233507405356354, 0.74864276754981, -0.7163778568804855
0.47727770224321614, 0.7534838050468149, -0.71271979366454
0.06229226060398012, 0.8286007282673145, -1.0057316994318004
0.07590935250859947, 0.8314169383090153, -1.0085225112593268
0.038126411543299515, 0.8165017483440838, -0.7180807377568715
0.09091001164915312, 0.8312106360470102, -0.7142632186632458
0.049853090518024806, 0.7724884905297618, -1.0215170506289775
0.10355524956267156, 0.7431421218436703, -1.0018499490460173
0.102360023781321, 0.7691114981712155, -1.0241282054219427
0.09039182087849709, 0.7633846669403421, -0.7082273208181162
0.10643228417756609, 0.7429363229546833, -0.7264710782522754
0.6483129695296869, 0.8103640757190268, -0.7428362609463963
0.645064499557708, 0.8034103345852504, -0.8505342860137668
0.6336890072717387, 0.81558936743546, -0.9672175365624218
0.5364101669072607, 0.8307168983928774, -1.0160505186587567
0.55935096833603, 0.8187423864139715, -1.0248246996668238
0.44116402658000425, 0.8495948860883975, -1.0028142975325502
0.5414264182157956, 0.84453418615773, -0.9948057736249802
0.6492780694603183, 0.80801973129104, -0.7488752706386218
0.6192171992106743, 0.8299376433948258, -0.7277961384212408
0.6444398811626961, 0.7784171801678083, -0.7702918946814483
0.6411031035417742, 0.7800120586297279, -0.9142105994016438
0.6425349806002247, 0.7790519936541964, -0.9354395871158652
0.496769024414629, 0.7423046244214001, -1.006901180482336
0.5647515798458936, 0.7590676272795612, -1.0215225726882788
0.528876478655409, 0.7391612708104034, -1.0032642618265921
0.4772568819127656, 0.761366657678756, -1.022141587681936
0.6007871981473025, 0.7458765759079163, -0.7438708275866877
-0.004112509233574596, 0.797407759149426, -0.9760665831894044
-0.0007597124157963024, 0.7836925889518149, -0.7595050265216492
0.1651857846618553, 0.8759340692937376, -0.9092507836736186
0.1250860814715765, 0.8677769365401764, -0.9268510562427668
0.240786076279307, 0.882781624972508, -0.9265551633251778
0.15835407794333, 0.8674626174235744, -0.9646503314313343
0.22420401673999535, 0.874780775914264, -0.9632754669957927
0.4143551789556211, 0.8842755543716151, -0.873981307090413
0.39773713968823105, 0.8835679755947847, -0.9060478186138654
0.33749075942264745, 0.8868702068901269, -0.8832828997230451
0.3560941139858207, 0.8821251091902446, -0.9383958753946826
0.26725332642973554, 0.8712335632688624, -0.97863872519465
0.4775802349872812, 0.8692560937734317, -0.9464609709162849
0.37096544606668813, 0.884409401600284, -0.9135929610046537
0.41002090694472115, 0.8640471127074028, -0.9842785738503395
0.41302244058520515, 0.874671264188034, -0.9554011254482708
0.27791386496416143, 0.8778508647443551, -0.797010341632905
0.16367496758413713, 0.8708856078731693, -0.7916328612552059
0.17287884507712584, 0.8755729080148116, -0.8232477893712433
0.2399947460098923, 0.8754856059044136, -0.7938121189459102
0.15456180799480132, 0.875832359306932, -0.8767588712620127
0.2137521525403457, 0.8803028199927994, -0.846837001531279
0.4740034877642846, 0.8641596808175499, -0.7466893140219641
0.4796470399445876, 0.8748661200526304, -0.7894595496767077
0.3085808014566224, 0.8580199867483429, -0.7403072678079278
0.30483774982409145, 0.8764040745947943, -0.7861408463439885
0.35902140209365374, 0.8795422865065949, -0.7945677070189996
0.2733953777906958, 0.8737034592316146, -0.7790777229105366
0.2810647744211344, 0.8834666296349977, -0.8369893634774194
0.33262964808890083, 0.8833431523252673, -0.8207106788205638
0.40834119109035494, 0.8766757059696855, -0.7801766084146076
0.37362894003622427, 0.8854146478943682, -0.8449221547231163
0.4832253947291017, 0.8789931693600723, -0.8604125747140816
0.4812487017717376, 0.8773514216944946, -0.8907426249753905
0.25691783555530917, 0.7167932562931872, -0.9569546520391163
0.21696538302554033, 0.7187213844051813, -0.9626001911398383
0.12183347305619113, 0.7217576967706072, -0.9437882807731475
0.17238469250862132, 0.7131612675013608, -0.8777300812094011
0.21034264099332156, 0.711987285580346, -0.9028954965182467
0.2355695559684781, 0.712300401375219, -0.9177411783467663
0.4066133843661649, 0.7159971331537438, -0.9378388973768708
0.4106707495670574, 0.7190669116309134, -0.9588915917887477
0.27771594264443145, 0.721652385786453, -0.9752801060598256
0.35716704179029524, 0.7153747427691919, -0.9427586430259556
0.29855686483919, 0.7123311618301472, -0.9149380377217639
0.30632757835960767, 0.7117197831789809, -0.8962391113446775
0.36324766716861, 0.7134766262708737, -0.91885803223604
0.35394140254260165, 0.712553951981078, -0.8942587908332131
0.2310393569517966, 0.711338266438209, -0.8925305847314686
0.22940378052207444, 0.7114579797709801, -0.8324773558079308
0.1723244899124982, 0.7138178497101982, -0.8235986964944835
0.15997880754119895, 0.7176478481633819, -0.7866970980544898
0.24280030828882979, 0.7124104523498663, -0.8074939309234317
0.1778238716543048, 0.7152018268410453, -0.7978099854175105
0.20285838453114682, 0.7298615788879655, -0.7390226505009772
0.45657778301320895, 0.7163434916925355, -0.8530335706566644
0.46755597891435535, 0.7170370092110839, -0.8549849141874029
0.40709237035798185, 0.7139774876063687, -0.8656482484113643
0.2934608310647381, 0.7113594324702757, -0.8458436144092234
0.3326277555569751, 0.7119915796050488, -0.8462677605395235
0.3444321519113296, 0.7126844323212749, -0.8208495308172296
0.2632833984400196, 0.7129507591955946, -0.8012264279745956
0.32053945739505263, 0.7182130452746037, -0.769297751286859
0.4986801796407266, 0.7191999282766135, -0.802129237828979
0.4654345239869291, 0.7169302941463443, -0.8080156845783139
0.4471047267241181, 0.728230454791341, -0.7428678389200678
0.41288344931352416, 0.7240577389366669, -0.7504420553796152
0.04544192536179925, 0.8333564756672207, -0.949728068845483
0.06177725534789882, 0.8394670287966732, -0.9796652431897601
0.12056788314170887, 0.859388753158037, -0.9719415817104606
0.1372907417321411, 0.8675485669643789, -0.9475320725248256
0.03796597115701591, 0.8202111763388156, -0.7899928680266115
0.052667339996301084, 0.8407646893991675, -0.8893360584642483
0.09079367864549476, 0.8604487408970832, -0.8959232874754427
0.11547650149898944, 0.8664956976351285, -0.8063876109966036
0.09923369470812594, 0.8625704164074907, -0.8177483442983065
0.14836068250846968, 0.864129400445748, -0.7681180228509451
0.04522177632641344, 0.7460855932460203, -0.9383549728827236
0.07101099489388517, 0.727598764564062, -0.8854985705412282
0.07659353477960867, 0.7268801571529926, -0.9169476266923476
0.0935407425551264, 0.7252822740200316, -0.9487157915105018
0.03717868650635268, 0.7511468715197038, -0.8293436947425188
0.06969474722463874, 0.7297363689102712, -0.8048137649403949
0.1178636294138242, 0.7237241018140949, -0.7751783703372757
0.06414437479446324, 0.7311123152665238, -0.8614186701138731
0.09703322597639238, 0.722241499320814, -0.8088241647101215
0.09297748605407863, 0.7216867294467246, -0.8373697069796227
0.6004997477434776, 0.840824499152869, -0.8800776680111378
0.5875758308824205, 0.8440872258096911, -0.9331110627283162
0.6299599580201796, 0.8195767871904113, -0.9629017228093345
0.606335954489162, 0.8422206502417398, -0.7765709856789405
0.6035330810634844, 0.8423764480647493, -0.812801923582928
0.6272452726849003, 0.8228602386697338, -0.8591397125458483
0.5688251276525248, 0.7293783983444221, -0.9742571996736517
0.5988611142146358, 0.7392751773166979, -0.9255932977372967
0.6283093784942482, 0.7637330435938164, -0.9094036098824296
0.5931635368284598, 0.7386282480024792, -0.8572305338748987
0.5941663609813502, 0.7382969281373417, -0.8241015852319905
0.6025258026184456, 0.7424886662737964, -0.7838213704395739
-0.7801112379719604, 0.38704052795152183, 0.9458228746267487
-0.7866828346078605, 0.4246667293050512, 0.7169365187966013
-0.7828705208554476, 0.4081184912990896, 0.9014045892568828
-0.7852679154964827, 0.4222569538015586, 0.7935402340452332
-0.7837692204896136, 0.41198129545048545, 0.8562537948229377
-0.7777851459398538, 0.3869050718514976, 1.0286559628394467
-0.7814654756278826, 0.4211267578641132, 1.0103334386401173
-0.7730811544560162, 0.4636773604863615, 1.0770778393222686
-0.799441901060047, 0.4689937555284085, -0.2057300863294167
-0.7998861169556111, 0.4446737299135548, -0.3542152669191289
-0.7901012189349842, 0.3621041604015078, -0.08096464735571267
-0.7935879805817001, 0.39610483679892816, -0.04068761649439091
-0.7966183103328084, 0.43358611547457204, -0.16332672461735834
-0.7959592476358893, 0.42206145617504603, -0.1440155144866416
-0.8040964211480738, 0.44921636856804525, -0.4322328495560659
-0.7977932575638067, 0.3975604394264221, -0.36868758350017244
-0.8041561866462925, 0.4599097835564416, -0.6042971190920423
-0.7951164696663349, 0.35217740054451757, -0.5615963553577383
-0.7959753854410134, 0.3823647972497992, -0.3669450187776515
-0.8028779633952299, 0.4497506794451257, -0.5131073181601883
-0.791397022586724, 0.4632155338514148, 0.5011367968096059
-0.7920672841135474, 0.4729802025439348, 0.4906313433875893
-0.7823102925646523, 0.382518852217818, 0.765679263232656
-0.7881969419650504, 0.403344706790351, 0.6498734666590704
-0.783116530643003, 0.3277295782658459, 0.6261757249610731
-0.7837210703185291, 0.35884716150656143, 0.5393893145155751
-0.7908721278392282, 0.4636347199127199, 0.6103227518690901
-0.7879115593694488, 0.3661598582804614, 0.07476562875850158
-0.7951701777583006, 0.4508693504244389, 0.14952557934943836
-0.7984827939855226, 0.46343270571966616, -0.06139070642825813
-0.7961924241939798, 0.43991465900238796, -0.03040459510313671
-0.7950509746796224, 0.44416788753843695, 0.035589333958599145
-0.7856574323804681, 0.37367863725739714, 0.38332701212117815
-0.7906037749299203, 0.43728156988844114, 0.4080777640779034
-0.7876754558828584, 0.3720699072030421, 0.30676508991270507
-0.7873593547561712, 0.3631631556634189, 0.17253856603345824
-0.7951628959396433, 0.47263178617541945, 0.33380528122154507
-0.7942618169968042, 0.43563369691195103, 0.2450066965059786
-0.7966105373625342, 0.35764789227928107, -0.6729453265911797
-0.8036273074212203, 0.433719640503044, -0.7171743423732131
-0.8030783189494435, 0.4292975086269664, -0.6769181838538902
-0.7961532722593777, 0.3521029805063411, -0.7354186837469683
-0.8034061336141304, 0.41934530833191946, -0.8228568754182377
-0.8000041361143453, 0.3779649245433929, -0.8365751411540532
-0.8064030816339394, 0.457572845714805, -0.8435474779383678
-0.7987854875442824, 0.366456866995412, -1.0028044810766161
-0.8084148459589917, 0.4742796225698199, -0.9208317351099575
-0.7996613538238384, 0.37857779326678476, -1.0245958367653853
-0.6684199151835559, 0.3823823962056576, -1.0803428972093065
-0.6352619191649458, 0.4502179856589597, -1.0805044756636257
-0.7251139800168233, 0.34704702116549513, -1.0925006944805147
-0.48755311175681537, 0.3670164958434638, -1.08183150414598
-0.58354127974065, 0.4029227413203559, -1.077613925199615
-0.47519935316906237, 0.4165990524748202, -1.0782659404319854
-0.5281040580535757, 0.4118438410237794, -1.077741512125213
-0.6728668729256546, 0.41240588571734293, -1.078280776706051
-0.7412661732901247, 0.4309955771792855, -1.0766012311715722
0.3195492116778801, 0.37981377759508617, -1.0837452125964526
0.3911256026489227, 0.43133913061174545, -1.0827927517768585
0.2565239474077848, 0.38021783275019727, -1.0839089873352017
0.2844547092486137, 0.46614297397251203, -1.0815005297967146
0.19403031679211855, 0.44221487059607034, -1.0815853932779174
0.2144789876200156, 0.4220042153673964, -1.0814923778659602
0.10484751339486956, 0.3618240141522437, -1.0891487945922829
0.10526930881276794, 0.4183450461315011, -1.0824986401509775
-0.011801535517836567, 0.36968564052847386, -1.0873148890468167
0.07667599293450861, 0.3980935289151175, -1.0820595164651758
-0.4467492481610692, 0.3718761991579606, -1.0816492859766873
-0.40023297136532543, 0.372946368728052, -1.082077923201476
-0.28443130169873965, 0.4048345855134207, -1.0800232317655913
-0.26005016517025265, 0.41832314295425554, -1.0802453294783463
-0.2743198221734994, 0.3913117859375902, -1.0807320415634443
-0.16370758997989163, 0.4173527919146447, -1.0811375261738863
-0.2172844420891937, 0.3785454568117209, -1.0834258280325453
-0.11063572275568387, 0.39662186542625133, -1.0815268995298621
-0.12708393670362117, 0.36479904111160155, -1.0876227455702308
-0.04522137408139465, 0.3840739856499116, -1.0837918163553226
0.02465829710505188, 0.4208186699517872, -1.0819635176964497
0.7311496898247752, 0.3766310129740257, -1.0802110035979653
0.7032647784718893, 0.4414882336037349, -1.0780719573002253
0.4225065449649569, 0.40931816847838254, -1.082514523442849
0.44081576788289606, 0.37828174226418304, -1.0842509417513893
0.4947015562431306, 0.37132613918020974, -1.0850924283738288
0.549338705880293, 0.34606078370707877, -1.0921378310547607
0.6855907594790779, 0.3507225593807232, -1.0887948396645009
0.6148567855066525, 0.472458301896793, -1.0799605476854153
0.6324603281020682, 0.3348049748887876, -1.0952815341819007
0.5598496561179108, 0.46110038304688705, -1.0809287289890217
0.7779558841008406, 0.36339858960843796, -1.0053101633227621
0.7810224859288835, 0.38812179828730176, -0.9308395499202093
0.7830423326134703, 0.42892720314539895, -0.6805951762236211
0.7852311205087521, 0.4551322750537511, -0.6455899199320823
0.7817769181214268, 0.4148703602326898, -0.7369969322570377
0.7758749684456583, 0.3238962930143874, -0.8916678591085548
0.7781322690982692, 0.3522354675923819, -0.9533743970397566
0.7861427369886325, 0.46994140388558736, -0.8723817024478443
0.7764011723446562, 0.3377052875498543, -0.8268547353730245
0.782108230846646, 0.41475702840015405, -0.96148958530121
0.780998913998323, 0.4302477445388543, -1.020747773425642
0.7816880543388034, 0.3671731389602003, 0.2662876917720111
0.7824868030318733, 0.37380272079002985, 0.12529260328351693
0.7869374518214352, 0.4652771560082217, 0.3064866422701038
0.7822510875140665, 0.3776568599078417, 0.22291655031171576
0.7870884004423466, 0.4529184464891991, 0.10515788419759359
0.7828789860690503, 0.37936112471762945, 0.1359077009687768
0.7841711136184619, 0.40893733963331685, 0.17577906882167169
0.7867650011975205, 0.4547760881501847, 0.6936021023930071
0.7842682581592679, 0.40433868633345404, 0.7028628500406813
0.7839281200777215, 0.40407784755757076, 0.6400342765948219
0.7781849319140411, 0.3317580556000883, 0.40170433951064166
0.7871421676294331, 0.46732423688959224, 0.38673685157529303
0.7839625734108132, 0.4033514572208946, 0.3831057087518478
0.78676717597979, 0.45958124399536343, 0.42537710509211957
0.7853835733824485, 0.4317350364751523, 0.47380121683578946
0.7789098376743877, 0.34109635849494735, 0.5362820714616655
0.7858569777772407, 0.4361071272404873, 0.5334237837004536
0.7881277533812299, 0.4711890771885746, 0.5337419027499568
0.7813419451097674, 0.3736702342686087, -0.4296195841838484
0.7845594060535512, 0.430515771040737, -0.3869446654601524
0.7848693840025799, 0.4413507947279531, -0.45247808587113597
0.7807100125461781, 0.3799472194997386, -0.5678120683592143
0.7824081466156243, 0.4033530896316742, -0.59867794402085
0.7832121346096522, 0.3868401515149867, -0.5277591160999171
0.7811538089982613, 0.359582960901519, 0.032634286540092435
0.7811248864312031, 0.36790081889997894, -0.04321412861234074
0.7843640831253611, 0.42862121034658385, -0.11388932041469613
0.784712980421856, 0.4192023094306152, -0.01742420031857584
0.7849992081966555, 0.4182044567155706, 0.0029267950427905847
0.7780916323971099, 0.33524487486870225, -0.30283597623752356
0.7804196409193361, 0.3564850605983231, -0.3827798585326183
0.785534751676404, 0.4312381720319376, -0.28247653347026475
0.7879157658981689, 0.4683385812378035, -0.27764248043119333
0.7786028261193797, 0.3507096033341338, -0.14269837401849633
0.7839966103295885, 0.4116607799540981, -0.2050893603563548
0.787389118176008, 0.466326244383797, -0.2296933693738637
0.7823878405198575, 0.36820462126873893, 0.7385873467449529
0.7793310805175856, 0.3387303849515966, 0.7995888858711773
0.7862106257687236, 0.441252853865148, 0.7323125294698734
0.7853142220273219, 0.4257043828694629, 0.8138720579855403
0.7883053314875353, 0.47495815223408466, 0.8493244212693373
0.7895922774674397, 0.45950797610741034, 0.9460525900068074
0.7884855050008389, 0.46258316546701145, 0.8790913322510157
0.7812716105713056, 0.35114727659309386, 0.9077702725778628
0.7838138379208681, 0.3766292394839747, 0.9958698609087835
0.7784661593749038, 0.36104697331166447, 1.039306669416506
0.7805838942382173, 0.4662614493639117, 1.0731792304598926
0.6732405851131118, 0.34274205501897437, 1.0795826929362107
0.5398969211616913, 0.4052150573713938, 1.0840849710967395
0.5133286781514237, 0.3747708168601244, 1.0803614637935324
0.5007670222441997, 0.42218679221178956, 1.0849937127492357
0.7036240791792884, 0.4322559331733617, 1.0908081759232924
0.5948264650432653, 0.46800755517892084, 1.0900318105509503
0.6032513135004536, 0.3750681479539391, 1.0830702496865316
0.7096455482498863, 0.38067773765715757, 1.0856644474200072
-0.1802899261154104, 0.4047096262472487, 1.0828028448924427
-0.14224715740613728, 0.38091014705313164, 1.0802809199731165
-0.16209984194359098, 0.3869123688394858, 1.0811678463151035
-0.10677997183754875, 0.4450585322897878, 1.0858847605899862
-0.01925972869774219, 0.3690930001898491, 1.078048092529281
-0.3169123247487754, 0.37530602423110593, 1.080267270295208
-0.226942493511297, 0.39664314789590027, 1.0820186123297406
-0.3406070525236591, 0.40390248029588716, 1.0837641376099603
-0.29130209626932335, 0.4292689150676581, 1.0859381177707284
0.3063978055987304, 0.35868787572036753, 1.0767776340274648
0.2448539358229414, 0.407482153249195, 1.0821553302231868
0.4051807252505864, 0.4568749874004656, 1.0879012357530708
0.3915265732310217, 0.39070377644389725, 1.0819422102314196
0.2734083147805155, 0.40865851197762026, 1.0823359821102607
0.3448551327341973, 0.36525648765877083, 1.0777621420637216
-0.05163958181148343, 0.4131885911893568, 1.0826491508619172
0.009864032957489211, 0.3710981091661832, 1.0782635550249131
0.002478963376625884, 0.3985331688547482, 1.0812960620932373
0.16220985135223004, 0.4308796147790338, 1.0840436260977615
0.24560804498243036, 0.3667784508137526, 1.077752354558002
0.05986341252893461, 0.4267162808553432, 1.0836334340171432
0.18944668982789636, 0.3610759419189954, 1.076936335589513
0.10791789949374325, 0.4245669978747232, 1.0833941940765788
-0.42652497738768014, 0.4054881672510282, 1.0851704443560684
-0.4605480347375501, 0.39357169131206604, 1.08405466689388
-0.43498197780065945, 0.38482051065497863, 1.083094702435419
-0.5286469502629842, 0.35427822834484224, 1.0789853813179804
-0.5750670048642487, 0.34070253193453454, 1.0777482275130652
-0.600504601464109, 0.39936767746642754, 1.0860734531502712
-0.6451124046048152, 0.41757415588921265, 1.087966732621062
-0.685287237901362, 0.33554212707096653, 1.0788031093799426
-0.7035612436457491, 0.4145003265122406, 1.0873950803017591
-0.7340115772968965, 0.4352675149688915, 1.0873054388963552
0.7780353206934807, 0.33382592764290886, 0.6399156632635831
0.7735135937125899, 0.3056370279421519, 0.6667397080314872
0.7731633404090469, 0.2975744323929808, 0.7047674088474228
0.7788275530985758, 0.34079781056685643, 0.555963847308112
0.7758838630005762, 0.32031359077495186, 0.4922081154427816
0.775175772702322, 0.31757879642155945, 0.5379761538670136
0.7666020535177396, 0.29117190231939427, 0.46065143873726355
0.7602800966893563, 0.2726067524962589, 0.5691393558636844
0.7788850679277122, 0.33800708535534346, 0.3928205341820492
0.7715780892249612, 0.3053690829588284, 0.2778268505258218
0.7680266155353914, 0.2954321378204383, 0.38737250401482387
0.7742956960935088, 0.3206180595730521, 0.1270688521672976
0.7815461294988152, 0.36399580204102033, 0.06125790913679678
0.7757865221570219, 0.3270831685940676, 0.17091509564147495
0.7720156750194236, 0.3055872079718312, 0.2999619159706295
0.7763011050846594, 0.32786023150565397, 0.09258911171431033
0.7653079959829405, 0.28886028940102443, 0.3221758846270426
0.7569987382614174, 0.2666753234131867, 0.3550820022392927
0.7525092643228999, 0.2599811802449026, 0.21825775166822536
0.7586119865616159, 0.271414335339057, 0.3004997800809082
0.7437191573720395, 0.24776509589180415, 0.12190257693231399
0.6836870124930166, 0.2087907139557692, 0.16619266167820135
0.7476248212397376, 0.25315540893900973, 0.11298979785796988
0.6745934133778682, 0.20441630343078382, 0.21908068075963408
0.7477512976176837, 0.2533433960914252, 0.19297421871229262
0.7335143308070237, 0.23338924965930194, 0.23900775512024047
0.6766882544193572, 0.2049691859406462, 0.3855703074936664
0.7517902024287513, 0.25541819543963973, 0.5735456321079638
0.764892893980852, 0.28637839424456873, 0.4802990266074689
0.7390674000390125, 0.2397452830163103, 0.4156431031897016
0.7591631164966999, 0.27048513279212055, 0.5138477202638508
0.7644838741880825, 0.2836044573238168, 0.6205858571311033
0.6926764636045855, 0.21232949064299683, 0.4101234611404908
0.7364109184249075, 0.2341887709429047, 0.5402123389493156
0.6889951722134278, 0.20998174959620192, 0.5186955703335279
0.7332074496263346, 0.22883623521743301, 0.5936158396305415
0.7357198002751556, 0.23072901419491068, 0.7073443858958791
0.6736891541618102, 0.20245423779806196, 0.6473714213235296
0.7796276135229672, 0.3593530572570415, -0.13180206583873327
0.7806753704825543, 0.35964879164644264, -0.01289235504508233
0.773895465148659, 0.3227527763049985, -0.09367488531948039
0.7676665036555527, 0.29728095283374545, -0.050180255874695545
0.7782670476822499, 0.34774201256582077, -0.17458603211662793
0.7813813686887826, 0.36263384660704845, -0.31701614305909137
0.7667063801646353, 0.2950528541850008, -0.10295411538198065
0.768050139885071, 0.30055205018170283, -0.17277553788539102
0.7612045293804925, 0.28064974417520994, -0.23156641476589127
0.7596745884279223, 0.27540630580325887, -0.045503343426364404
0.7615971872174127, 0.2817033273870685, -0.13986812011580582
0.7815481041144758, 0.3664983299868903, -0.5114760518344256
0.7787549803660561, 0.34168527102160146, -0.3878742667190807
0.7697512638035342, 0.30203996875002365, -0.42258272593260754
0.7738797267703484, 0.31422866205010924, -0.5134584818065133
0.7588271085679017, 0.27230873695679464, -0.30966244236623947
0.7597390745629141, 0.2752537922492997, -0.5056255460552197
0.7502086519308535, 0.2567386182831288, -0.5219375981521375
0.7415913092460835, 0.24413402949324622, -0.4173290041412337
0.7432471161624883, 0.24754736002466476, -0.4702340991860739
0.6888970001247063, 0.211324056609562, -0.47173989518329973
0.716084638209431, 0.2282424721177408, -0.5505745374524564
0.7072029846884631, 0.2334336266744994, -0.5735887877719216
0.6848880419891461, 0.20871195095577846, -0.3834677634029368
0.7589117911436268, 0.2745091205657904, -0.09655312421653048
0.745810994689884, 0.25043271922780996, 0.05176030392062898
