0.4310626140800594, 0.4043952075004559, 1.022606802089336
0.47096042152625567, 0.41874847688458516, 1.044635623284199
-0.584023007447236, 0.6305402462311224, 1.071722827908195
-0.6936148891790436, 0.662043500009597, 1.0580339943853787
-0.4706810359580652, 0.6629193263554907, 1.058833085402765
-0.497553603041132, 0.604612870732993, 1.0697166517648735
-0.583191641263858, 0.6641232879658591, 1.0661448511493863
-0.437009012783268, 0.450036877758342, 1.0604423205414872
-0.4455291191509005, 0.5161547957874489, 1.0709940776210183
-0.4993215832452256, 0.50957846649867, 1.070011305552844
-0.521136374545905, 0.5338788094662488, 1.0729134016532877
-0.5211446451749456, 0.5962102803288917, 1.070665414685448
-0.3987313598811254, 0.568285980683876, 1.0723874930345574
-0.4738652253389422, 0.5486692966842076, 1.0718303585621909
-0.46134332631253583, 0.6243827854012048, 1.067568106869214
-0.453120306161512, 0.49501372635465923, 1.0690437971766897
-0.6243660963399933, 0.44799645096679597, 1.0592172073681776
-0.6144413107667818, 0.5200229857524008, 1.0697155481640526
-0.5406912434554044, 0.5791892996389251, 1.070904810190381
-0.5614449377600292, 0.5694008871259816, 1.070725705669126
-0.5965589804215083, 0.5779140894257736, 1.0718566364447497
-0.6384773999276505, 0.6077066378257894, 1.0744646609255368
-0.6056261933504947, 0.5426181255184406, 1.0708985506243733
-0.693747636362501, 0.4983810773302318, 1.066945392341716
-0.6627984344249265, 0.5345538394397962, 1.0702147317296795
-0.6674924988825949, 0.6317415356544226, 1.0691191463238572
-0.707120196251212, 0.4589377667979655, 1.0598521300561954
-0.725241542337258, 0.5255704261712559, 1.0680200533742072
-0.6581640543950397, 0.5797934087620196, 1.0730300865452258
-0.7524757771949022, 0.6070815799125017, 1.0604816428891595
-0.7286543577882215, 0.5641667214217766, 1.067505528908763
-0.7516825221335584, 0.6306899135536139, 1.0574177471213715
-0.7730652232269979, 0.6755928815454098, 0.7325641547607319
-0.7667065260297915, 0.689864461607526, 0.8235035753186437
-0.7362749408916196, 0.7099374115138428, 0.7426968720798436
-0.7291373150053952, 0.7120359868993633, 0.8127001973448514
-0.7515616669586843, 0.7011706604753403, 0.9605879755138289
-0.7671985953757888, 0.6892124180017491, 0.8593546849680638
-0.7200786998625002, 0.7135388664859811, 0.7691138550339334
-0.7014732363377977, 0.7170363460209406, 0.7037465485610731
-0.689097464542406, 0.7198029856352931, 0.7821810491346506
-0.6151669240926133, 0.7309686948654927, 0.7619456849167993
-0.5916250773708134, 0.733616663195883, 0.7518399160098936
-0.7180949596616811, 0.7148156963368355, 0.8229279959283484
-0.6290873233129953, 0.7280681794787438, 0.7410779455218536
-0.6666261802491669, 0.7225674763577425, 0.8329747216783774
-0.652573618231361, 0.7258245614844672, 0.7977729993838232
-0.6395283850430591, 0.7268404170435955, 0.8078462284384218
-0.568214335461724, 0.7352623926569979, 0.7669872189648171
-0.5273437659664806, 0.7380973350310607, 0.759449792806969
-0.4017138964519745, 0.7320419802099776, 0.7597988672043126
-0.4898200037264288, 0.7370152901457415, 0.773018588280788
-0.43387784694812814, 0.7357371646076182, 0.757059650608085
-0.43464131927853916, 0.73006984767745, 0.7912324559114688
-0.571301700688285, 0.729996912651137, 0.8297138827826277
-0.43060048392124517, 0.7243638173468996, 0.8230202602477158
-0.5160521375095104, 0.7373545231915686, 0.7713253714561275
-0.43370634064945035, 0.7221705264476529, 0.8380340179289196
-0.5869921077591264, 0.725290316971961, 0.8725741970257526
-0.4763235202864664, 0.7188158215778835, 0.9002655919577965
-0.44994121675364357, 0.7187647095846839, 0.9114767623926666
-0.4053802832322215, 0.7204376367744858, 0.8802788513279778
-0.4647835705210936, 0.7182152625975, 0.9075890394896308
-0.48138357230316187, 0.7184034957541171, 0.9119480861253704
-0.6989680278732238, 0.7151712518444372, 0.9166077144078764
-0.6300267433233099, 0.7207001460380262, 0.9110604918377908
-0.5494467131410419, 0.7242730765994843, 0.8787086592513547
-0.5167051565088182, 0.7176262474347306, 0.9227206496331073
-0.6538538374550034, 0.7211711316579064, 0.8787681649114025
-0.6286124233022877, 0.7220690838427731, 0.8927296385637019
-0.664904737858917, 0.7158608746944451, 0.946748103407283
-0.6399914533061362, 0.7165227395424032, 0.9496586334255237
-0.6061153400005679, 0.7065783232022226, 1.0217679823032144
-0.6805051824560032, 0.7001722444284454, 1.0266130427501916
-0.5461694322524688, 0.7169090906877734, 0.9481459740220918
-0.4477428428508292, 0.7187006585015697, 0.9252039197089975
-0.4145755127692977, 0.7213211751179734, 0.9226222037615935
-0.41184518313773316, 0.7216682977341985, 0.9675007918398086
-0.5332229375197717, 0.7153469766568306, 0.9711832329351349
-0.4913059069840285, 0.7158117217674052, 0.9721768727832287
-0.44242260515069903, 0.7135954731814548, 1.0077597968687961
-0.3933817496704972, 0.6692440973912818, 1.0570626349592196
-0.49255482855148713, 0.6988392709533741, 1.0392727852958743
-0.5514149195495293, 0.7045402770303202, 1.0376234077706774
-0.6356616392312352, 0.7051597230710821, 1.014609455452144
-0.5390333219206491, 0.6698150375853452, 1.061626662471397
-0.5765970492435644, 0.6731359010492708, 1.0639697680733409
-0.6327337715515322, 0.6991235959779588, 1.0346287350550685
-0.7637353978713408, 0.685054372161294, 1.0139870209167583
-0.7035030172913943, 0.7125544942637227, 0.9635547300879825
-0.7309016747444405, 0.6967210330754317, 1.0263951852923
-0.7343592347093002, 0.7037063205003335, 0.995669749625976
-0.690071889141822, 0.6971338078808282, 1.0317647118689333
-0.7297883185126335, 0.671098737652024, 1.0513904929948803
-0.75964089021477, 0.6883857076600433, 1.0165435157555422
-0.7643725029503229, 0.6969859553268292, -0.43216850996071415
-0.7297851879821573, 0.7115629506061258, -0.4813452084766828
-0.7424504662375313, 0.7105469582155656, -0.43821546923733257
-0.7562795686408091, 0.7044617254625021, -0.42933945363295245
-0.7407417723232244, 0.7099111195650993, -0.3044516796903486
-0.7121579431520915, 0.7161846003251866, -0.20871051725584722
-0.7425423869319427, 0.7084454476624339, -0.08242554667179806
-0.7347079932028153, 0.7109689896070999, -0.12089968094415371
-0.7686005205548163, 0.6899295347842209, -0.27775410322696636
-0.7550159698954411, 0.7034808731055899, -0.29587478612782914
-0.7593151610511915, 0.6997954283622262, -0.31511076107105773
-0.7669322733905781, 0.6917959289919196, -0.1960367280543766
-0.7666524018116527, 0.690720304537749, -0.08104678786423256
-0.6328158024151607, 0.7199793941081412, -0.5325164303608451
-0.6278468076435124, 0.7197881427564271, -0.343747924549194
-0.6330882021838701, 0.720008715637811, -0.4292632813228174
-0.6214664691588548, 0.7191809522220158, -0.4806855851729246
-0.6991776350762438, 0.716086780537177, -0.5143692204275917
-0.6419572605081851, 0.7188313155066902, -0.48984747554451286
-0.7210279286727748, 0.712619443269326, -0.4971445604435614
-0.7290059694814569, 0.712977275757174, -0.44934841139111803
-0.649614803398391, 0.719654975328337, -0.39966322180390274
-0.6826771281224601, 0.7173992097384253, -0.4630608490458349
-0.39344965429019024, 0.7214791165598449, -0.4872919946813588
-0.45971300108061913, 0.7210199170917491, -0.4229995808057241
-0.5798157076966907, 0.7209108261530386, -0.537069912027056
-0.5395429351073725, 0.7211605155632639, -0.5677093211042549
-0.49655669105900874, 0.720813708685411, -0.5745749124855821
-0.5341455964123335, 0.7200408857224941, -0.44014587866582466
-0.4461549919270453, 0.7203833903850093, -0.5566120824949883
-0.430790608165571, 0.7213282218936871, -0.43627132679074476
-0.44256090571335865, 0.7213861950263595, -0.38758688576826705
-0.5587636074512481, 0.7208539166454665, -0.33784157469248044
-0.5177280453404592, 0.7203172113579114, -0.41003268431905604
-0.48123280703605675, 0.7208594733891756, -0.4091664425577526
-0.4879317724614126, 0.7216655922256686, -0.32126095387943043
-0.510344224118857, 0.7218708401451552, -0.23668590264643427
-0.5465404522257487, 0.7213597175877663, -0.1831356633550429
-0.5390356794190201, 0.7216617974585948, -0.28031558882543695
-0.4606493280336045, 0.7213794725893711, -0.27074352646264604
-0.38934659889206724, 0.7204249629810253, -0.2853694992346738
-0.45509003513574403, 0.7217714055652042, -0.34222938443043005
-0.4025871270212128, 0.7216101517543743, -0.4094561937624758
-0.5079635080071664, 0.7217763905993293, -0.26560970602359524
-0.4468000524068407, 0.7206055450887514, -0.21021542427759482
-0.40167864713511237, 0.7199688124147703, -0.22247770048535181
-0.45747741394363867, 0.7215098199214205, -0.08062517746849518
-0.39531229895805886, 0.7198071539915879, -0.15084429486194473
-0.3950550255307504, 0.7243520152988563, -0.010879851215149342
-0.48682068021979374, 0.7211476865562527, -0.07734076336805967
-0.4648206599235156, 0.720698215227389, -0.18232889328992896
-0.5138088886960798, 0.7215363972974447, -0.20520338493369245
-0.4516780331998142, 0.7223870817562397, -0.04385618332983346
-0.4544644037476516, 0.7206890142225129, -0.1170614165020846
-0.5301154740969687, 0.7225125024248058, -0.00950259147774453
-0.5050935900474673, 0.7209169062591938, -0.15438134224701128
-0.7174470069124537, 0.7156047225425617, -0.2487789841227549
-0.6963386032888927, 0.7172787342332331, -0.36775888184028505
-0.719161365904973, 0.7142030148630438, -0.3567099970654074
-0.6921819133569604, 0.7171361115802597, -0.31786256412951785
-0.6464643954228515, 0.7197654011660448, -0.30177999765194274
-0.6197273767933821, 0.7200774956200234, -0.4104320700220929
-0.5274732564456333, 0.7214453579749709, -0.3132649459675823
-0.535098651219174, 0.7201909145746243, -0.40694882190929615
-0.5630046522865435, 0.7212129497836441, -0.31075999408507293
-0.6049957270022985, 0.7210449304771508, -0.28044664107400213
-0.5613454010605516, 0.7214959129427673, -0.1892812230904904
-0.6085173212754426, 0.7202243284906333, -0.3344391045055445
-0.6711200511524176, 0.7189708476501835, -0.19898939466774795
-0.6075289288222258, 0.721320458817936, -0.2001670818243177
-0.5547939198284166, 0.7221785178883003, -0.24482200243019298
-0.5750831700399367, 0.7208768619727556, -0.11649084937906544
-0.5898641986678368, 0.7215732324235871, -0.20765556124188636
-0.5725103011698047, 0.7205758438425663, -0.0861123445133038
-0.5374253409447093, 0.7207963280815333, -0.11874124969833184
-0.6051207254390536, 0.7217301276987715, 0.01539170615276543
-0.6344294251968193, 0.7196819160305923, -0.07666233891972954
-0.6093295381842612, 0.7209030277937656, -0.1437406724071575
-0.6754683442260234, 0.7181860233827649, -0.12076831511087799
-0.6699655142450801, 0.7186447819580355, -0.13063493714839974
-0.7101325563586831, 0.7157023090471101, -0.12272774425825492
-0.6997686102665382, 0.7173504615956703, -0.16970608069113546
-0.73903765259454, 0.7101283694549598, 0.02221184810545411
-0.6735270328431524, 0.7180174785638195, -0.09141146088924731
-0.6523722872164726, 0.7196365693377447, -0.008161361355038083
-0.682744005999948, 0.7176752221349737, -0.005471577852703186
-0.6237167341973939, 0.7204673718873039, -0.020744027598817084
-0.5636258256585492, 0.7232541989576793, 0.0485648799197684
-0.5882085935401118, 0.7204912969179746, -0.0555319285385714
-0.628165984725057, 0.7222925665282667, 0.07195987658817596
-0.6862816200679717, 0.7185012943011454, 0.05412106274640212
-0.6577453101124373, 0.7215265094342341, 0.15638382761006375
-0.6162346414333578, 0.7231013949499293, 0.16525102359770644
-0.5810350359253282, 0.7238457635252804, 0.13106988714788387
-0.6181060986370935, 0.7228061787259022, 0.3476972276371027
-0.5661620192425004, 0.724673413651668, 0.31902059660913795
-0.6348855448723498, 0.7217607565196381, 0.2368080166013875
-0.6163724873350882, 0.7235163890141094, 0.12752312765921106
-0.6086481593406148, 0.7222957774163206, 0.2520276561711677
-0.6547200419788903, 0.719660556355924, 0.28955989647024205
-0.6417644684563187, 0.7205628602339884, 0.31119258472221123
-0.5210074420543778, 0.7237648359856663, 0.05130407829556868
-0.5532099872101311, 0.7219308448034001, -0.019554631473179648
-0.595272994036721, 0.7231260524026225, 0.06676153404510793
-0.5688373582094404, 0.7231796676241287, 0.16534534698285488
-0.5149421516435148, 0.7238398910794079, 0.05491602563621062
-0.5568590442080084, 0.7235682302951901, 0.06442914220324479
-0.4851301381370846, 0.7239359645071917, 0.09306318460056733
-0.49829627456282966, 0.7229619234049416, -0.0015959998012581916
-0.45041773226124476, 0.7243829134396755, 0.08666612474989961
-0.39275390171664354, 0.7261023700189625, 0.09317834345430522
-0.4711382548380308, 0.7234477339594226, 0.012008199907779984
-0.47410134106793683, 0.7251438530640664, 0.14846856797064267
-0.45819364806266943, 0.7238180628918429, 0.02909089170886918
-0.4611030200812151, 0.7247978211022809, 0.1283679599594809
-0.46698637591392084, 0.7266946019082121, 0.19317890683845604
-0.4376168239352418, 0.7259419208737515, 0.271633137964622
-0.41054137478750363, 0.7266141956050445, 0.213361356331999
-0.5566459865950859, 0.7240371581186322, 0.11992527022168743
-0.5422325000298902, 0.7242507137531372, 0.23876614832820395
-0.5750744611884191, 0.7231075134608869, 0.2680947720645631
-0.5114951314697047, 0.7242127618998535, 0.16451054496605272
-0.4838940014901162, 0.7262648014059003, 0.2429362184601947
-0.4889210893072728, 0.7260521069233893, 0.26734400411053644
-0.49786788800865156, 0.7257414813866211, 0.3576984913273472
-0.5560432282104585, 0.7240292931197885, 0.25559252949083644
-0.5282060993241043, 0.7262905179647732, 0.3055255891767885
-0.5066227957715399, 0.7259988679177494, 0.34597514971060583
-0.5255804687470518, 0.7254540443841285, 0.40075043051134807
-0.5131353976681275, 0.7258626464027474, 0.4405634746765843
-0.4684576912765963, 0.7262661755579968, 0.30940619406770853
-0.47925157103009286, 0.725547641171329, 0.39578130523754085
-0.4042883711683813, 0.7255255224581556, 0.3065329481354586
-0.44428292297068894, 0.7296272853623164, 0.4457972025986645
-0.41042362214189987, 0.7366010395450956, 0.4830027015198265
-0.4719253220287075, 0.7274744068106346, 0.45393741035388063
-0.434087663241841, 0.7382271584304675, 0.5275818726212491
-0.48215509105713694, 0.7295747836161088, 0.5080567549147081
-0.4644832885065212, 0.7328789737067595, 0.5182355086396526
-0.4421417815089903, 0.7397090959368515, 0.7351235706981802
-0.4734618563104008, 0.7394567581625078, 0.5926869152565509
-0.43608771056120677, 0.7458191831312261, 0.6271096357598194
-0.4823892786876682, 0.7350872112504436, 0.5672745423333524
-0.5004912317421907, 0.7272438919802129, 0.5040045727027652
-0.5056454134290668, 0.7346175958485995, 0.592099760550209
-0.5112423246718978, 0.7406448114670892, 0.7329913365496319
-0.4507831419012195, 0.7448511278859847, 0.6311888624533569
-0.48576135042164736, 0.7412254375386406, 0.6423395376181534
-0.555876247220147, 0.7332028298565159, 0.653574747545947
-0.6243343740159137, 0.7238376092898824, 0.4379677889166833
-0.5707960380607122, 0.7252203758592406, 0.37026082508903657
-0.5595865818585719, 0.7256056370250621, 0.41699504431368795
-0.569270599334714, 0.725319335018917, 0.49264764747972056
-0.6243990106348221, 0.7237563278886897, 0.4184782775532846
-0.6855683328405988, 0.720100375747993, 0.5373880720587694
-0.6485128252519277, 0.7224855610780138, 0.45963318312596174
-0.5918150352540361, 0.7250234423711639, 0.40423302909118786
-0.6098603140043599, 0.7248955779202972, 0.5296120918268192
-0.6313438787639263, 0.722476299733126, 0.6081500942460119
-0.5505830178841339, 0.7251493286862435, 0.5116355315753239
-0.5243915974416973, 0.7358541256729185, 0.6326077898444895
-0.5679387119458326, 0.7309924459440248, 0.6522071791437478
-0.5835352700593596, 0.7286481135417124, 0.6560154237938535
-0.611078778690967, 0.7289856410387429, 0.7125988684146581
-0.5868558245267407, 0.7245527964111, 0.5708666968104023
-0.6656012742201819, 0.7220896959590632, 0.5890948566122093
-0.6168738066762658, 0.7242673512635799, 0.47898419911122847
-0.6551479445858779, 0.7238428248458365, 0.737183094540373
-0.6599307887118411, 0.720696293659414, 0.6516548123937298
-0.6038528115264181, 0.7248900037936644, 0.5456872596228818
-0.7707840908626199, 0.6833227323586688, 0.17899201279748644
-0.76482070822728, 0.69429109688406, 0.16484460070541443
-0.7666229481868279, 0.6922595034150847, 0.25554120972204314
-0.7607353897966126, 0.6980990729403312, 0.10888511562811928
-0.6769659981491722, 0.7191483918294538, 0.05343101781529335
-0.6532924697593611, 0.7202388757886943, 0.03137522123688061
-0.6474877765620555, 0.7191364228233879, -0.0671219569916043
-0.7381700782835928, 0.7100028399417335, -0.04442927608690035
-0.7177183296806388, 0.7148813472319349, 0.08722361710392053
-0.7208205314291813, 0.714380464413467, 0.12504064098496362
-0.7254896363952754, 0.7137233304234292, 0.27734317700732325
-0.7375663529561985, 0.7115022701857233, 0.19671713545581926
-0.6860208091352413, 0.719396869676193, 0.14024023394141644
-0.6548244294158307, 0.7211254486026125, 0.2231171302821622
-0.7267251944466362, 0.7123337355266356, 0.3780737856112537
-0.747683667999382, 0.7069877375233411, 0.16853081051391103
-0.7528599925629621, 0.7036278725027804, 0.37928103253888557
-0.692087354284623, 0.7175811330955002, 0.3417923255313763
-0.653572219819704, 0.7195925529143492, 0.2974732642072543
-0.6641031052039299, 0.7205271910458, 0.39263226676066665
-0.7275397355094949, 0.7123775809651558, 0.3963222103885467
-0.727873321497188, 0.7126748094978822, 0.4311408864837929
-0.7206961596803604, 0.7145440015654794, 0.472040777371985
-0.7120982782172561, 0.7172647470783237, 0.5614069013364754
-0.6890381808487859, 0.7191939547373627, 0.4630324542655788
-0.7031353131270914, 0.7188081399455125, 0.6399127956881382
-0.703383861433866, 0.719618247717072, 0.5859621163342477
-0.7440079745518382, 0.7095976286649579, 0.5860706963979202
-0.7329849550675793, 0.7132510505650056, 0.6439385679835923
-0.7508302954022404, 0.706135143846808, 0.6712215861012014
-0.7686693267225687, 0.6876850883294415, 0.4034936862256155
-0.76821080968331, 0.6890241659195219, 0.3574697988654829
-0.7548467027451407, 0.7030421075121316, 0.4338995390286905
-0.76252609590637, 0.6970459884675939, 0.5645642379030921
-0.7647575116445394, 0.6936963389262734, 0.5203675676242002
-0.7679615505553429, 0.6903534321545601, 0.6155210684491598
-0.7097523967910545, 0.7021266983650167, -0.9822750440545023
-0.5791000517455043, 0.6804290454704406, -1.0148852397797405
-0.5419802126156005, 0.6846047901547138, -1.0117419184315244
-0.4523621197926427, 0.6949591617616886, -1.001991003762484
-0.5170128257813273, 0.7092714994393083, -0.9705227160521012
-0.6354097763182691, 0.6962493506868146, -1.002585394811444
-0.5169944735398795, 0.6986776880825122, -0.9981545948506451
-0.6620185865708903, 0.7052688444813942, -0.9820577774817948
-0.6101122804554875, 0.7143052291586947, -0.9291422801332674
-0.5628411891233213, 0.7176065046360287, -0.8782433836225609
-0.596587520047547, 0.7134270520096043, -0.9502673591476645
-0.6765812269562158, 0.7130293869686045, -0.9083658866027438
-0.5686777182519726, 0.7147046918205404, -0.9340444244853054
-0.505319509940102, 0.7096801759987673, -0.9682181194449268
-0.46937985652780584, 0.7099274575391952, -0.9649083324935186
-0.4024789948745888, 0.7132453931723663, -0.9382083373542286
-0.5368164114188535, 0.7131813406217962, -0.9557728371526075
-0.5219875737875326, 0.718222409756899, -0.8918758173702984
-0.44960271218464243, 0.7140296800982523, -0.9357605124706262
-0.5500991444810623, 0.7178862136281791, -0.8693367119733979
-0.5084319781053598, 0.7183725223994732, -0.8764468057757974
-0.43530209876331727, 0.7192892005925452, -0.8155943747309673
-0.3922600023746636, 0.7191634798602792, -0.7117753968962026
-0.4269014767771391, 0.7191527035429011, -0.8006903557390026
-0.4090432188076169, 0.7195229059877608, -0.6653137648069382
-0.4321888717101196, 0.7209749177524597, -0.5045892438646065
-0.43162285637211756, 0.71985883665896, -0.6406437196381344
-0.44075164878070283, 0.7193681540746837, -0.7130135936792354
-0.4453188412531584, 0.7190931924274887, -0.7588784126256529
-0.5122825139481477, 0.7187960794950414, -0.7950800667135935
-0.49198412189885826, 0.7196334002902205, -0.7417446974414961
-0.47647527829360325, 0.7205360067890699, -0.540261310566538
-0.4653887074500118, 0.7203692702450435, -0.6201389220435893
-0.5063405182231495, 0.719784715257735, -0.746710977232697
-0.49092205793170024, 0.7207671357017289, -0.6122613475724719
-0.5181941239208625, 0.7204779657219496, -0.5263871099542978
-0.4923600552189048, 0.7207948109882754, -0.6457383098354315
-0.5496985777749624, 0.7212437735667153, -0.7256630313447734
-0.5409200870134625, 0.7215485812253053, -0.5990551106293047
-0.5977881592286882, 0.7195555207999368, -0.7988719132891761
-0.6720615717802684, 0.7186610051204657, -0.8094399766376218
-0.5425179105775737, 0.7184111695814327, -0.8213894386987326
-0.5591132817402937, 0.7182446828264534, -0.8350299872574372
-0.5996776570069989, 0.7206616719745881, -0.7660373344578906
-0.5820345739612668, 0.7186757423882442, -0.8129950877065065
-0.5245505481850399, 0.7208322509064747, -0.7256356481012093
-0.546463638109491, 0.7217924027673369, -0.6202006698398332
-0.5701805407600644, 0.7217767828689396, -0.5808148938211171
-0.5828297660867019, 0.7216532003194445, -0.5676576528446611
-0.590448551685249, 0.7223752868021636, -0.6249826917242522
-0.6008976812680932, 0.7221235951399816, -0.598860519053115
-0.5759901740576704, 0.7198051391548036, -0.7789618689598035
-0.6586182573474886, 0.7210991983835788, -0.7357394611561494
-0.6267966136481269, 0.7213310123912255, -0.7549897742701066
-0.6984903353201142, 0.7169985799384591, -0.599885913733238
-0.6882100886825624, 0.7194055355743914, -0.6456726251539898
-0.6287300703569237, 0.7218658081366669, -0.6240045609823966
-0.6214225063311876, 0.7212311331696957, -0.5680449795555786
-0.6955169236294991, 0.7162233644293761, -0.5016579444270639
-0.769397533545207, 0.687842463593014, -0.8557977955699805
-0.6855949020795842, 0.7099095405622007, -0.9428180036397765
-0.7182538621539529, 0.7067509686342901, -0.9449732943188154
-0.737827712294966, 0.7044807673894747, -0.9370312888441197
-0.7488549404657998, 0.7012345531592121, -0.9279155239717263
-0.7296557473355243, 0.7137252149884119, -0.8231610988510306
-0.7143902134851845, 0.7172835138268434, -0.7933782446781945
-0.6475286907883456, 0.7209973472161514, -0.783715038573343
-0.6806983731579936, 0.7200645568814905, -0.75014363095681
-0.6726672342073057, 0.7206736991633123, -0.6592874942986215
-0.6514847828449107, 0.7214487519835275, -0.6391380564315324
-0.7215315082208611, 0.7128910392619736, -0.5925068487352633
-0.7172980046493141, 0.7171717882361724, -0.7264610033754102
-0.72335020291521, 0.7146403592455811, -0.6481553326760351
-0.7457177036403605, 0.706712707599294, -0.6002552395507063
-0.7707802048023408, 0.6866660912580322, -0.7882934992347401
-0.759628269855529, 0.702673218199567, -0.7262143684950328
-0.747063109493217, 0.7089031561877542, -0.6695192139281319
-0.7657028545503413, 0.696237018521357, -0.7284474640619472
-0.7627247743158442, 0.6952107313538802, -0.5791344764679187
-0.6669875093389989, 0.48701307318105935, -1.029247613537716
-0.6226899328352828, 0.48102567290160586, -1.0304495153690003
-0.5609540557000935, 0.5691100370818092, -1.0340979186446257
-0.6173365895575504, 0.528214084857166, -1.0359642186004947
-0.6458194967955759, 0.5494693443305728, -1.033211575430066
-0.5484073363595101, 0.4900033963329249, -1.0315624465971673
-0.49942829256092347, 0.49383978777390186, -1.030987709903655
-0.3944449612386087, 0.5207746784514269, -1.033062862551843
-0.44559402856019925, 0.579938300910054, -1.0330201850032172
-0.5718803516514956, 0.5173884152908633, -1.0346603925232218
-0.5418736022379319, 0.5285293872506599, -1.034042339416013
-0.5097745808630105, 0.5278467795202078, -1.0337024416065355
-0.5199912378624885, 0.633053855035289, -1.0279240084138266
-0.4870860358498966, 0.6150911769680214, -1.0300961603656507
-0.42466909920242735, 0.576254131708289, -1.0330621269599523
-0.41080474784470555, 0.619141139940927, -1.0295411305547728
-0.4447088997245391, 0.6481965479403727, -1.0250435681515804
-0.4692664218841589, 0.6145985858745866, -1.0301380779463036
-0.48534563848581186, 0.6462722832517362, -1.0256373398962273
-0.6595793976815447, 0.631844451431239, -1.0281301357210775
-0.5991684263537586, 0.5999411163324031, -1.034075586191664
-0.593431729378367, 0.542260836329514, -1.037510627967635
-0.5637566253316688, 0.6920368266978552, -1.007057944823561
-0.5344247535714775, 0.5946869871842457, -1.0329416474648463
-0.5718433312607083, 0.6437999660314067, -1.0269443164267125
-0.6162524333602103, 0.6081402985123217, -1.032321764744999
-0.6576905833362866, 0.5143872159902622, -1.03198083470319
-0.7165510870007538, 0.5176319411376803, -1.0310924622999313
-0.7449079262581991, 0.5470507803335385, -1.0306278828740518
-0.6691194302403047, 0.5430947425730255, -1.0331129639179366
-0.6577761806356024, 0.6508657455392903, -1.0246009303634949
-0.670636063116206, 0.5986784423068425, -1.032082010951302
-0.7452876790252178, 0.6595742782980759, -1.01544629070638
-0.7592952111852362, 0.6367943698819478, -1.0156696888134802
-0.7617522544844719, 0.5773050728356759, -1.0225543607728482
-0.7724911086063834, 0.4309146254667208, -0.6831746270051827
-0.7669460959573537, 0.4149787779638022, -0.839454235529167
-0.770590244588133, 0.42141462307271016, -0.8330889806613109
-0.7105503704372863, 0.39292374110661576, -0.5883605834294395
-0.7517318156175463, 0.40533468590940724, -0.7618256300924687
-0.7315569916879492, 0.39855995830732965, -0.7466376028211468
-0.7376584506425727, 0.39878170472057073, -0.810466499748007
-0.7672340133320409, 0.4167387209355991, -0.8589383045480007
-0.7531838362287353, 0.4047653963212967, -0.8543218461160774
-0.7771194477707571, 0.44507896389510554, -0.8602266146703462
-0.6738250474584506, 0.390783201186669, -0.5858376464305722
-0.7311621878299778, 0.3982213513227321, -0.7638898439033995
-0.6531375632030784, 0.3915239960252317, -0.7462201921333759
-0.6282342179076706, 0.38950086299684306, -0.5864926893615601
-0.5877286132959311, 0.3898492097983675, -0.6596622202806127
-0.5979205060445236, 0.3896826865134265, -0.7570825275123991
-0.6173309782430791, 0.3893109752888191, -0.8285848214342438
-0.6944063721575916, 0.3939015177441364, -0.7041390613465297
-0.6999792239261385, 0.39345602953175357, -0.7736595361212099
-0.6419167103796758, 0.3904400205418964, -0.8142777399746146
-0.6384280375989151, 0.3909901515051033, -0.694238057646957
-0.5700412908205008, 0.3892651111399194, -0.7430755298950463
-0.5503023283752085, 0.3893963692377019, -0.6581424047660898
-0.5136087894841662, 0.38892189891289597, -0.6520886631312264
-0.5207917230348403, 0.38806709357728353, -0.7650641355798884
-0.4256391848530342, 0.3876915684156187, -0.6947038706248205
-0.422618700256884, 0.387880520990901, -0.6097792888117621
-0.4998062817596307, 0.3877937747685307, -0.7692789674428566
-0.4415614838605956, 0.38806098968750674, -0.6044779512366437
-0.43733141475770865, 0.38799695605327417, -0.5894933239105611
-0.43304416485339225, 0.387632298046082, -0.7879530590827699
-0.49487203685464753, 0.3883960116230278, -0.7179701224506652
-0.588835130971973, 0.38851250617502253, -0.8370019502438162
-0.5356715465921591, 0.38885040585991076, -0.7284756869254843
-0.47804054286968894, 0.3890418077289062, -0.8535409257648323
-0.514207817874126, 0.3881649240137876, -0.8305530255253433
-0.41612781676991784, 0.38762109236298303, -0.7861021767423828
-0.42791884926368917, 0.3902715411956321, -0.8805672586203468
-0.43546129815236023, 0.39367664029963334, -0.9305587076642385
-0.44988663156317543, 0.3890700402841059, -0.8503777938034306
-0.5332223550897401, 0.39461450491855055, -0.9353281513569198
-0.7205329615258358, 0.39693842234920795, -0.8811241333394683
-0.6946441031701164, 0.39328206304901575, -0.7952263382236853
-0.6291117265022402, 0.390426618808586, -0.7926012388476209
-0.58937233312717, 0.3885198794060606, -0.8290815566557725
-0.602181556398151, 0.3904529984803376, -0.8965936023115292
-0.5898642062519743, 0.38923448738099986, -0.859946679266647
-0.5596602027745164, 0.3916714665650801, -0.9101414903887189
-0.7199842362015428, 0.3998766514522568, -0.9449899488456666
-0.6671533796238966, 0.3943668173052282, -0.9253515238493113
-0.6290159879127566, 0.3917166513675723, -0.9088500361801035
-0.6337663284495428, 0.4032497273892328, -0.982333135912636
-0.622821154860348, 0.39716429875376813, -0.9590614622778788
-0.5311967446941365, 0.3928791217758835, -0.9184730892910948
-0.4402303019358764, 0.3920359363614926, -0.9111990557667587
-0.4081151351745381, 0.3920797932596424, -0.9150317349660186
-0.5084184340789648, 0.40954022548488067, -0.9984821930852334
-0.5134651501449788, 0.3999777951933809, -0.9710513878463585
-0.45618497578408435, 0.41534504719334786, -1.0065773005247334
-0.4373905062151616, 0.4419994560756346, -1.0208994680524959
-0.5558439973501277, 0.4134385588353597, -1.0030850060050587
-0.5246357954981681, 0.43798346460982357, -1.0192350911424453
-0.7670622010918752, 0.42066969371445806, -0.9200664695081854
-0.7488876271390645, 0.40507383904451155, -0.9099565042329303
-0.7040003721232122, 0.3944808603955411, -0.9080314051937801
-0.6836680427840696, 0.40016639074861304, -0.9662471175508949
-0.6925493057783015, 0.41334435973689043, -1.0010438088914146
-0.7191911163057274, 0.4212098782120051, -1.0071847239013036
-0.7643830140727432, 0.4114597939868351, 0.5687583996368651
-0.7685724207181568, 0.41997434564717406, 0.5147377548260983
-0.770759106201866, 0.4253537658436656, 0.4674559959146232
-0.7401200302037352, 0.39682923434375017, 0.6522270063233216
-0.7587557419905615, 0.4081161022530813, 0.48725174789953885
-0.7364835240038865, 0.397093709544482, 0.5623504498451142
-0.7564729784642046, 0.40622483749347893, 0.4910414108815555
-0.7313177372637936, 0.39705402051190675, 0.4379423997903318
-0.7545209268620825, 0.4059163171324375, 0.3108582427693042
-0.7203492273292118, 0.3963528762741438, 0.2620496739957407
-0.7077168760135049, 0.39475223099564005, 0.19828444894167782
-0.7468568186502077, 0.4025146768175631, 0.13921935454642573
-0.7664375741374612, 0.4171832594213631, 0.4210778266076106
-0.7742658583648194, 0.4310047457103233, 0.26651198942604765
-0.7519979385168611, 0.4043560811064467, 0.4296667497897423
-0.7476014917048511, 0.4028066737147622, 0.28486729975220976
-0.7440053035128953, 0.40064778593134365, 0.05296041433076412
-0.7707110289307892, 0.42299775186801947, 0.19796465987699155
-0.7761595417841686, 0.4417089654141785, 0.1573948906298231
-0.7163198632971585, 0.39425649186839273, 0.541331118129048
-0.6411505422793667, 0.3925736149276629, 0.5678268161803351
-0.6324730212430553, 0.39384230072074433, 0.6713013910079465
-0.6097990006542395, 0.3940496405052368, 0.5555388412396765
-0.578982966013379, 0.39620973584488406, 0.5906859960714403
-0.6234396759487403, 0.39221222082742785, 0.48980707795160305
-0.6016692846105177, 0.3920930972735388, 0.4379958784544849
-0.639417050957898, 0.3927401145580155, 0.5745477369071403
-0.6990876086658451, 0.39130690145019653, 0.5947484668939518
-0.681815396247685, 0.39212648245621273, 0.5315833495730475
-0.6257243433191737, 0.3926374150386647, 0.5214704416535656
-0.7010251961812789, 0.3919971006160274, 0.46609351213985545
-0.6428626069417717, 0.3904283078810307, 0.4261305612403602
-0.7244978868405365, 0.39592491859790097, 0.4144261308257029
-0.5711392204976351, 0.39585180833967165, 0.5478469870535283
-0.5558814658993491, 0.39770304763697, 0.6345237627559799
-0.5301654895149137, 0.3982863345428349, 0.5672331072340222
-0.4680456298317738, 0.4016407049185329, 0.6357513077372514
-0.5126705742474827, 0.3999419475348362, 0.6547322598390405
-0.4389033159244386, 0.4018492224180842, 0.5726390268623499
-0.4073553897451252, 0.4020892805864662, 0.5377671251221119
-0.4541831856836936, 0.40019636081638343, 0.5034071676244273
-0.41122483180174496, 0.4001352464601817, 0.45296182579474037
-0.5838017815643736, 0.39385382902695765, 0.4849383463523765
-0.5569586952371813, 0.39744375205429516, 0.5999843447271653
-0.5132464202655013, 0.39959769921553034, 0.6028964020738907
-0.4454036679756256, 0.400221583244293, 0.4939313051946308
-0.48046394009720184, 0.3996610632110518, 0.520866592733203
-0.5929633292690256, 0.39126720208203625, 0.38108462654477937
-0.556721660424161, 0.39501913213007933, 0.48263386316839935
-0.5060686408810607, 0.39755758467397184, 0.4872710612756893
-0.49497201007022507, 0.3968502689061133, 0.4378338738691795
-0.5503720182314967, 0.3912613401392203, 0.29730492055368263
-0.4961494032287395, 0.39440655972403965, 0.35804034249299416
-0.46769861245186245, 0.398531412762382, 0.45276813846137753
-0.4842863744292489, 0.3943643995759011, 0.33806911212269547
-0.436515106244027, 0.395811958357413, 0.32879691119927346
-0.45022546663508356, 0.3964079133741285, 0.36836748977896316
-0.4059427831014701, 0.39746531547645425, 0.3519330672408997
-0.4378078967773008, 0.3940818989594128, 0.2511805746824482
-0.43032473685272726, 0.39325655161451584, 0.19237825823162896
-0.4204831472932057, 0.3944489733525058, 0.24293297185297424
-0.4557992653067845, 0.39010667710866453, 0.03279439235236887
-0.41511483129050136, 0.39335771252573837, 0.17078844856140288
-0.5099802924987994, 0.39202515786187303, 0.24750603417604253
-0.49446604769053837, 0.39146041655832575, 0.1429123865772868
-0.47249267145618645, 0.39342548865641236, 0.28147386310841566
-0.4888680562551781, 0.3903011494966308, 0.0737969145068274
-0.4708974955298263, 0.392058513852772, 0.16941532374921212
-0.5368829470268113, 0.38912455092250653, 0.03528676193362644
-0.6503737462192148, 0.39003705824301915, 0.33035577960776624
-0.6818644595749961, 0.39114546671806005, 0.3614102736529569
-0.6695899849417208, 0.3919850442202359, 0.26446501163793823
-0.7257154918884625, 0.3974433632855875, 0.2399201363246624
-0.6298888116665666, 0.391139325136605, 0.4482167430100408
-0.6567637936157017, 0.39033111816258426, 0.394191061341009
-0.6030390304652099, 0.3899200317896581, 0.30997284079694754
-0.5728175669017522, 0.39337038711040945, 0.4410932784858884
-0.545384290544316, 0.39417434969340565, 0.4263444416940077
-0.5405653835270396, 0.392844672036334, 0.3633070481540489
-0.565288920463492, 0.3906027486360691, 0.21446954332181367
-0.6854130673339118, 0.3918899200812942, 0.3185476603230243
-0.608448627450793, 0.3898465432422394, 0.3136269269427697
-0.5786798076839716, 0.3916759835709241, 0.3748648199688487
-0.5781162020972673, 0.3905454303279107, 0.27312981469221154
-0.6004719773475782, 0.39055238472542264, 0.19055121635602346
-0.589261561271484, 0.3908065136091016, 0.12036366004546428
-0.5255860797891398, 0.39191777784700393, 0.2874298899981947
-0.5616095463403326, 0.39008476887440413, 0.07699305050051498
-0.6303378378421571, 0.3894404596014902, 0.03132556951383087
-0.592068999740995, 0.3907602899544723, 0.1308142121093238
-0.6753179369996863, 0.3924951497136712, 0.13184734639691473
-0.6892008373468295, 0.3931456206481633, 0.2576449721542695
-0.6286327269203529, 0.39047444693857475, 0.2566966914279746
-0.7400486744040295, 0.3995205561762309, 0.11865983872845176
-0.6964441247841978, 0.39368212720684526, 0.16721557604595916
-0.6542747340956332, 0.39070853241772263, 0.06716951354426162
-0.6658159298153081, 0.39110034691923357, 0.06001266698923345
-0.6332096644630383, 0.390303224228832, 0.07994059676815508
-0.5986342038081252, 0.38862185220146395, -0.0016767393053743057
-0.5771702492455264, 0.3880820722099756, -0.010577640433449048
-0.583598096208968, 0.39023276944966684, 0.08265180314107573
-0.6160563491083398, 0.3882137678270041, -0.0373139552852275
-0.6043202804468351, 0.3886248378089705, -0.11103916421758764
-0.6631861261159722, 0.3900585555300976, -0.06784971851176516
-0.7050094883196818, 0.3922747917341521, -0.004444388971108992
-0.6842415558877182, 0.3914980605017029, -0.14467005603305214
-0.6020696660531071, 0.3889569765902994, -0.23499066818002096
-0.6194898858780711, 0.38973028952952715, -0.1552703093767943
-0.5662435341983447, 0.3882755651454243, -0.28130502653986095
-0.6470384502206958, 0.3890011995615271, -0.2322968116212759
-0.6323303496208073, 0.38962935961464074, -0.17676649349110451
-0.6117583104229982, 0.38728529438673803, -0.29525654898861164
-0.5407703948464765, 0.39037514847972815, 0.09119030423685917
-0.5339413895042784, 0.3886659462719886, 0.016989270032043077
-0.505177137109337, 0.39095598870960824, 0.11218834110286828
-0.5513543278810361, 0.38815594403136033, -0.00010923117035737621
-0.5538082898611244, 0.38654048906593974, -0.07286179157550358
-0.5889456193864444, 0.3874451918933343, -0.05673874988615524
-0.47716513079195544, 0.3871651071080245, -0.04216756407187347
-0.4404622653740282, 0.39192684943502637, 0.11196628249516241
-0.4364900094292806, 0.3885995335246428, -0.032629849418570486
-0.4954692561072341, 0.38721435882423805, -0.13998078653473933
-0.46490697254066193, 0.38864565877217117, -0.00699199526331443
-0.41451225891465204, 0.39077716583264355, 0.01947745354549856
-0.4628223317451379, 0.3865137288674468, -0.1517080928062258
-0.4249871419116884, 0.386839286951161, -0.13293284061687038
-0.46395367681966065, 0.38841763179544764, -0.23166201151353638
-0.38659592196686465, 0.3886376264767015, -0.31379287046404286
-0.5205775947041327, 0.38945417629740564, -0.22802793213863304
-0.5926110620916367, 0.3880436951910786, -0.09819619037980878
-0.5663925957247372, 0.38921338792906746, -0.21247613227381731
-0.45770115821534973, 0.3869253881301466, -0.1848858055116127
-0.48614041997026747, 0.38709928872991883, -0.16560419074424912
-0.5085755021826872, 0.3868131089222014, -0.10364074088549571
-0.5413098345688638, 0.38848040985509474, -0.15495292960301443
-0.49974233690714054, 0.38868818052262144, -0.20567479578004436
-0.4963573730378452, 0.3882948224215935, -0.33018760719156715
-0.5264783817886572, 0.3895741293270914, -0.2280402539184059
-0.5331723610575523, 0.3880313989388834, -0.3000586384392951
-0.5076599668150764, 0.387902732449431, -0.3369320765622813
-0.48146860440606315, 0.3890584673745152, -0.2557471209615723
-0.44188278250707913, 0.38894533858614183, -0.355738715780463
-0.4634332128598584, 0.38910978495777904, -0.31350105082481167
-0.45965394657601655, 0.38849207141719977, -0.36997453319935036
-0.4873282259155943, 0.38732927150302665, -0.3989513962408038
-0.4914330705240104, 0.3873858257863546, -0.45584517009002684
-0.4587724325136041, 0.3875357810716273, -0.4347868963294288
-0.3949276699225308, 0.38845460799887654, -0.4270102150083314
-0.46157762152057646, 0.3875660582761586, -0.4697726121813005
-0.44624414865907785, 0.3881089640271951, -0.6324381509808231
-0.41255165649855785, 0.38804044135025956, -0.528214987036408
-0.5250944607641466, 0.38827552210902205, -0.5527502165640159
-0.5079435161302878, 0.3870220667635811, -0.4434789389569559
-0.49230645908069803, 0.38863255715067196, -0.641271470048829
-0.46581129501948293, 0.38778088512888587, -0.5202375112448615
-0.5379089420342207, 0.38927046332301196, -0.6617292349629709
-0.5081946010094878, 0.3881651665973188, -0.5498547045479731
-0.4915755593399864, 0.3880814282288594, -0.5486976057911943
-0.6969920659631078, 0.39083925653949503, -0.262123309612711
-0.6884894557352595, 0.3902779708424844, -0.2731895287443068
-0.5918974274067902, 0.38843493557415515, -0.2651986359951697
-0.5198835280465506, 0.3868014416339905, -0.3941336091012481
-0.5328277810553952, 0.3895745602739315, -0.25174148756167336
-0.5250539494867601, 0.38710092799326046, -0.46975889888727973
-0.5692345840112545, 0.3867236304379703, -0.4332631937142484
-0.6045861609195756, 0.3871473796280668, -0.4130178936856901
-0.6038304293485786, 0.3873319491586415, -0.4375486001927027
-0.6933042650495909, 0.39121614153298095, -0.379947084775458
-0.6447619792482772, 0.3884899193856358, -0.4937849274654057
-0.6368719148428782, 0.388248193922091, -0.4511888599388175
-0.5759930954920272, 0.389901378674668, -0.6891688275219058
-0.538282577284728, 0.3880799175264129, -0.5305413786783743
-0.5998395199586408, 0.3894905215634315, -0.5924755530819258
-0.6109221023001523, 0.38903371347625576, -0.5553241814083285
-0.5736238008480365, 0.38887789861522626, -0.5659521497813624
-0.571796503483367, 0.38740988853703373, -0.4899237604718038
-0.6209356898619077, 0.3887217492720374, -0.5320537844954568
-0.6934973068090242, 0.39147017836711323, -0.5343519990792513
-0.6761816515501916, 0.3928805518430981, -0.6813435824021603
-0.7745027349473963, 0.439351830594575, 0.06951891889486277
-0.7689741612845432, 0.42209965439554764, 0.029472465142042967
-0.7688301404087438, 0.4191332148348465, -0.07690553996469093
-0.7759914707161802, 0.4436720767700156, -0.24653623398077337
-0.767033795899631, 0.4171229384665951, -0.11691250560625421
-0.7438631783877356, 0.40034134958583706, -0.02146438536754506
-0.7343957912282081, 0.3978460147301791, 0.041020924517393344
-0.6859931993687873, 0.3928206370393435, 0.11284113181319486
-0.6411801242920078, 0.389080363596932, -0.024734417738037084
-0.6823268109347945, 0.3911313650049062, 0.011037765491926518
-0.7503772262019741, 0.4037801590259395, 0.06961859602117394
-0.7186002868786333, 0.3948360805066291, -0.11605662306840583
-0.7406282022145418, 0.3986917880440326, -0.1387686503845538
-0.6732579791368914, 0.39064029692200924, -0.08560148754032253
-0.676490442626541, 0.390931349529277, -0.19776770085404916
-0.7005849475707527, 0.3914774594424822, -0.2270061256475989
-0.6729966565954402, 0.3893931706026755, -0.2822931117983492
-0.6589363886476414, 0.389045411673404, -0.2622324839151883
-0.7544997673744391, 0.4053522929618284, -0.14613841797469362
-0.7606444354821057, 0.40972859679529416, -0.21260189781778877
-0.710857328183058, 0.3924412007041107, -0.28754563307084086
-0.7350149684348593, 0.3970927095270398, -0.28131571616625684
-0.6490824918279654, 0.3879999717068984, -0.3561100268643782
-0.7506566280238074, 0.40359240533619545, -0.40622792632480376
-0.7108526109601108, 0.39340163030454145, -0.4428917051842719
-0.7107055028448085, 0.39350364449675007, -0.6091070584872529
-0.7023315176219008, 0.39218679904102083, -0.4314241719818878
-0.7247494786287413, 0.39527167480873804, -0.5651154478843835
-0.6483055627905843, 0.3892544278527244, -0.5354482915648082
-0.7269685961323065, 0.39607229064898586, -0.51659192340933
-0.7170281907298461, 0.3946540960268778, -0.4249285252599765
-0.7776835863744576, 0.4372971690976617, -0.3917550375661886
-0.7689842881674668, 0.4172257283836027, -0.41740041751088736
-0.7433235609655573, 0.39972019318576957, -0.3566431139307061
-0.7620472452592321, 0.41053819959533505, -0.4433735624328614
-0.7460768617610405, 0.40138216339545696, -0.6065878860157844
-0.7728283207160981, 0.4296073125935688, -0.5410096876784107
-0.7679145088528515, 0.4179480997999667, -0.5544398556396553
-0.7166421833597116, 0.4451852039542482, 1.055837787338677
-0.7547136368006271, 0.4114424085811817, 1.0032574668029437
-0.7729785752384335, 0.4372602176146263, 0.9678816142318721
-0.6250962392222033, 0.43800391307230263, 1.0554973872075704
-0.6591933811834908, 0.4129518823876254, 1.0372994984593853
-0.48587069313664427, 0.4255688755288793, 1.04974429461252
-0.4146695294013897, 0.42201255712670455, 1.0467940319383775
-0.4632807411487136, 0.41121495409069786, 1.0348064049563535
-0.4111342575591512, 0.4062728203175866, 1.0229656053579066
-0.47464298863826454, 0.3977667372365301, 0.9933191242959176
-0.6610411841332515, 0.4068011437616744, 1.0271114201378122
-0.6100428191445759, 0.413816141181694, 1.0395080532126777
-0.5809990493465851, 0.4019376812683037, 1.0150013174591386
-0.6011566037598431, 0.3951918831872606, 0.982472472144519
-0.6404485603447518, 0.3942757868927672, 0.9709124354615606
-0.6238839719188969, 0.39369276106145723, 0.9685279260917508
-0.6216305034772416, 0.3926806580575756, 0.9485215520041965
-0.6929070994448736, 0.3944966480433496, 0.9361530674202068
-0.5545705655562948, 0.3968500667325307, 0.995015684914764
-0.548469529375258, 0.390547031094546, 0.9183043756135966
-0.41595085090980055, 0.39680865805301035, 0.9773910161040711
-0.44160227606265856, 0.391722944162396, 0.8860148442125843
-0.4517865360851127, 0.39278656104084586, 0.9426816238586421
-0.5424518862582213, 0.392246281097105, 0.9566698927400472
-0.51409793732684, 0.3923991473974703, 0.9591956998566716
-0.5515135520476007, 0.39246096557683563, 0.8648692116840484
-0.46593784057233295, 0.390618913078617, 0.9127122791885859
-0.42718980324550276, 0.3944690845453729, 0.844597787441695
-0.4569909888767728, 0.39601126229631095, 0.8247106925249944
-0.4640135569676741, 0.3970412665457508, 0.8084905892879377
-0.3973046728236465, 0.4012602855679804, 0.7290975138453883
-0.4637562696769947, 0.40104899094064894, 0.7101753104982168
-0.4064937414555068, 0.40316905031029876, 0.6481407714775583
-0.5435421283213265, 0.3959108170483224, 0.7956882560206515
-0.4502103156624948, 0.4008165347299306, 0.7290233969023483
-0.4871854043866658, 0.40100809059701437, 0.6831188669983497
-0.4570899368507113, 0.40198913075892095, 0.6793250179340338
-0.5520943376691707, 0.3965549878652791, 0.7682802778938197
-0.5209847434048245, 0.39965572349411976, 0.6698759703054532
-0.6052736080456825, 0.3921212544042318, 0.8477081524887754
-0.5503694498583953, 0.3912774382793449, 0.8889493275980508
-0.6140007504208164, 0.39138192118610426, 0.8786254963358957
-0.5251672071188802, 0.39535597029497765, 0.8193315356644681
-0.690374033779331, 0.3930275932937469, 0.8455988198045822
-0.5698047294958897, 0.39364456020641486, 0.8280777010661631
-0.5762832452924409, 0.3945042278004067, 0.8007876158060552
-0.6087278531210694, 0.39406797750781375, 0.7568460657009661
-0.5659589355586393, 0.39715323369649413, 0.6559849178510591
-0.5796497453276395, 0.39550007585327795, 0.7634950042250881
-0.6047505967237672, 0.3952903170282546, 0.6307393051090713
-0.6111285682951793, 0.3948656210744692, 0.6913353420991402
-0.6479682792230966, 0.3926827277751531, 0.7485931082222059
-0.6264177542840869, 0.3931632107791463, 0.7565045089529812
-0.6889318420937196, 0.3919888129851865, 0.7012631714419819
-0.6317695234712242, 0.3936652035860248, 0.7012449380323365
-0.768346303539007, 0.42192074153156695, 0.9388190210041176
-0.7506299402917589, 0.40572430716244556, 0.954426866816993
-0.7107107672194088, 0.39778180933017104, 0.9707660460010955
-0.6653354867109662, 0.392418516942132, 0.903107422607041
-0.7570807532419536, 0.4073639796134875, 0.8838881293542435
-0.6602572490861496, 0.3920246084834976, 0.8682977489469588
-0.7128102270002601, 0.39421590601556605, 0.803515674747045
-0.659589872693526, 0.39207476753166187, 0.8319510175645687
-0.6769696414585182, 0.39278888185964617, 0.7130804617457989
-0.6887254562956535, 0.3925333709187252, 0.7722419955898459
-0.724475930020004, 0.3932873365183579, 0.6371327195127588
-0.7418993535552256, 0.3986824823322069, 0.6951176380159086
-0.7742480609582691, 0.438025736347496, 0.8441519934289702
-0.7616474896975776, 0.41167120133508794, 0.9031038165313228
-0.7577564602695441, 0.4072253506652174, 0.7908944204785964
-0.7692261471268219, 0.42205876971254175, 0.8369073003774737
-0.7751908934941627, 0.441153444364053, 0.6941902453631216
-0.7700006882021359, 0.42326310014711815, 0.6847755372534818
-0.775573664110879, 0.6540037443610696, -0.9441765399418381
-0.7752963814013853, 0.6704355344383417, -0.8241061493362457
-0.77167919727342, 0.6838532380116609, -0.6877198403473703
-0.7801929420052875, 0.6425143506628672, -0.7031639426925446
-0.7741953522528817, 0.675137545453718, -0.6540199220115901
-0.7811839037530215, 0.6292604592782207, -0.720343451864443
-0.7782978913884829, 0.6454868085812108, -0.8993912614669912
-0.7801609005745817, 0.4742396949297997, -0.7163808568658008
-0.7824693331221766, 0.4936852593288379, -0.6847668641121684
-0.7825866805909603, 0.4912776767516309, -0.8121200910749744
-0.7838272454409072, 0.5254581351422046, -0.7850944981249608
-0.7828684984520291, 0.5024163295144807, -0.7064475584827512
-0.783934906917938, 0.5571391303345006, -0.8167353718526841
-0.7838761887642866, 0.5780660798364572, -0.7703815664957228
-0.7837628334148176, 0.594215346392234, -0.6984085070377857
-0.7814512932786759, 0.6257618560798028, -0.6900982229549244
