0.47993119257627775, 0.6503366992734061, -0.9946132829551342
0.41958729530078376, 0.6522730447376003, -0.9907697864143031
0.6921254845698348, 0.654236779086677, -0.6732663364002113
0.701666874297178, 0.644253297799234, -0.40490609991954074
0.694075761537237, 0.6526133016875435, -0.5428882949495144
0.689689601863399, 0.6555214271946057, -0.5228468815250509
0.7027936859700985, 0.6427331397087475, -0.1024646765291784
0.6819255566983752, 0.6588836463077492, -0.13995320100231176
0.6970703425843294, 0.650312457644703, -0.11751541217254942
0.6757845001175542, 0.6606990976572463, -0.2872059550541157
0.6762610583103565, 0.6605741099627056, -0.016431351802304792
0.670431796419265, 0.6619180043561317, -0.09823397136874407
0.6457670197881002, 0.6652483995824949, 0.002652997527657042
0.6573875367181764, 0.6640018067944086, -0.1902561651708648
0.6583487600853024, 0.6638769165794705, -0.2522887169621089
0.6682251322470747, 0.6625480102676458, -0.6380833153728274
0.6854632678661874, 0.657604919681078, -0.3330406930182886
0.6660480398058171, 0.6627539852185057, -0.44180576508950603
0.6387135901425735, 0.6658178052057543, -0.26520071874570217
0.6587741078195616, 0.663820990479956, -0.3886007677802169
0.6626421913093631, 0.6633192207703456, -0.48417652489990515
0.6418890278811654, 0.6655596541235603, -0.42267761170644164
0.6429725499597813, 0.6656344830650054, -0.5889631220951653
0.6969713379094911, 0.6503900763371145, 0.1561575234759609
0.6878087671429118, 0.6564749537373693, 0.3455805063795752
0.6903728705983179, 0.6551817530355623, 0.25083237397375235
0.6801374913194187, 0.6595302193527135, -0.007748852700900538
0.6992124397134141, 0.6475767734535472, 0.525655249767479
0.6915136443452268, 0.6545897982347784, 0.3044735033561953
0.6836092543098099, 0.6582793893486147, 0.465571496267414
0.6706779290673595, 0.6618758372151141, 0.49149002489052396
0.6716475834011164, 0.6616892625657658, 0.5503438494386288
0.6347988062028549, 0.6661614562767577, 0.5567351472492259
0.6451697358018228, 0.6653126186164111, 0.49397958098683714
0.63495330216945, 0.666127475928126, 0.3657470122010535
0.6794025489346543, 0.6597387963522288, -0.07565230145185348
0.6803394379511652, 0.659459097065332, 0.24122845249031588
0.6756860788075001, 0.6607277052085373, 0.09687010481814279
0.6598076977305162, 0.663691680167535, 0.308583540110261
0.6525970501808569, 0.6646289302590532, 0.20340933906029474
0.6580472194702496, 0.6639203392281543, 0.24078194471731199
0.6512937271069963, 0.6647951642436842, 0.09888058280401357
0.636958392537582, 0.6659767273534885, 0.1678680730528882
0.6423502902277576, 0.6655281815893055, 0.03492211679727439
0.6143365526918293, 0.6671587544037911, 0.06915095471308004
0.5987710723796947, 0.667684574425226, 0.1378522430520581
0.6341551942838819, 0.6662022700791403, 0.21483905879892967
0.6315665176029048, 0.6663492913637621, 0.2803263917235939
0.6089773059842257, 0.667426030210432, 0.1875063939635455
0.6085263645108724, 0.6673946208597387, 0.3475387971060064
0.5536347056547046, 0.6685598421144048, 0.22470950843413812
0.575815798372061, 0.6681740508637309, 0.32402501452921295
0.5277612974946571, 0.6688401647488197, 0.22707809280653485
0.5927654907041502, 0.6677873275273524, 0.030318996079340174
0.5763115464267758, 0.6681914925068542, 0.11012769964483306
0.5729789396353548, 0.6682285841090801, 0.10491671660354637
0.5665085584686522, 0.6683740050344604, 0.19513113177023178
0.5587522232937434, 0.6683165793946706, 0.007315111227099036
0.6197965310656028, 0.6668956830539201, 0.3271315384487996
0.6370403423520041, 0.6659659601364938, 0.4403589899940273
0.6300203395391621, 0.6664197708808894, 0.3943454933338557
0.581901797513944, 0.6680438587533121, 0.4159121808116141
0.6496608955042, 0.6649449658745228, 0.5415766519866656
0.5836704115236359, 0.6680380761474538, 0.47960673910541696
0.5960631039241622, 0.6678247635498543, 0.5740549758369533
0.6027082735729365, 0.667649299531918, 0.6010377672332357
0.5670875364085164, 0.6685888759239755, 0.6096919626971596
0.5374185289323576, 0.6691574469861754, 0.5674758426665033
0.5642189346456382, 0.6683332167718377, 0.33730630091223435
0.5659646959779953, 0.6682859762698036, 0.4008847162314912
0.590432587123922, 0.6678985160074495, 0.512961751766191
0.5200307143128186, 0.669215849741819, 0.47707054279917027
0.5625796827001194, 0.6684676387860051, 0.530744647031209
0.5307667988703473, 0.6688623512641704, 0.34993483291510985
0.5279086092579478, 0.6689288114097824, 0.3999708382769956
0.5231958893332141, 0.6690740325543006, 0.44760707130406546
0.4974941310421285, 0.6699635233752688, 0.4173155134648514
0.5056002422561533, 0.6696319938666819, 0.4449803395406907
0.47914116735193674, 0.6709371348277176, 0.4688389023466135
0.48867753261763014, 0.6707247466525331, 0.5414808817151842
0.4430892904359962, 0.6723908362305633, 0.4991640088747028
0.5012472721601651, 0.6700129117644112, 0.5142228371890621
0.5041029795907486, 0.6702345601997053, 0.5828964355411987
0.401742766039518, 0.6715073676051934, 0.5629346176467959
0.4658522342877451, 0.6717846958108377, 0.614876251697262
0.3802035461251493, 0.6705505753830246, 0.6251783314863653
0.39704616725448383, 0.6742045222799294, 0.42163367984775124
0.44712073656662943, 0.6727627086285353, 0.399003812495305
0.46602406538604535, 0.6714978895968644, 0.5155340057369078
0.42817301658077767, 0.6725188589360874, 0.5057368403967561
0.4193006095939792, 0.6722101473448286, 0.5287116560263682
0.3597840310083462, 0.6737847269073219, 0.3762264305713376
0.38231066970447447, 0.6719936115295151, 0.4879269385227333
0.4164024246221835, 0.6733469342505783, 0.46469227158680965
0.5186156044984885, 0.6687096415146746, 0.10680627169560523
0.48128737916422215, 0.6686955300156281, 0.04089259686509798
0.49422305300178493, 0.6688106276976928, 0.10927135134629197
0.4539853098603712, 0.668985968373589, 0.07859352044451354
0.5428666220233926, 0.6686953333870602, 0.2512336207690869
0.5346363588277737, 0.6688090950485591, 0.29801178079345375
0.5011281935299752, 0.6693937792261417, 0.2606985278127654
0.4843168930844812, 0.6699865390644375, 0.29151111411603875
0.5342033753938362, 0.6688023560048381, 0.3869385155278601
0.4667357978434522, 0.6714888823338562, 0.38696176309394653
0.44126043261728143, 0.6697050751222692, 0.1306790658940851
0.4989240465706797, 0.6692138657514557, 0.2243416839677483
0.46354871179704826, 0.6707546330160299, 0.2613859211515329
0.46948507329284106, 0.6713081522228426, 0.3510628244085505
0.449894492962233, 0.6723809439967638, 0.31607098427667607
0.40586777859315837, 0.6746819603906183, 0.3434841979377711
0.4297502305357342, 0.6738625663558104, 0.376882810691482
0.38414357272414557, 0.6748980120250732, 0.3318016666047273
0.40599836034537984, 0.6742930178524741, 0.2802039220251089
0.38127510901833594, 0.6745539982990509, 0.2647908371623638
0.42550643608708694, 0.6720485858121322, 0.2156874621067282
0.4688000230636683, 0.6699923918501038, 0.22168153225312592
0.4062956895595377, 0.6698989719504627, 0.03536507057514132
0.42498672265029525, 0.6706604459666586, 0.13871455832233623
0.4744364567167542, 0.6693890708575105, 0.1816502382975101
0.41946096696370866, 0.6708191496497113, 0.1305719062721453
0.379312037657039, 0.6732223257905734, 0.17674872724693858
0.6363434460430776, 0.6663248067606402, -0.5990881968703123
0.6153602546001877, 0.6677897818999812, -0.599449151101582
0.5870891593560041, 0.6692973133294208, -0.5704358662510948
0.6176289631925858, 0.6669832692452449, -0.43342906823783633
0.6296191623341234, 0.6664295466424984, -0.34911237095902414
0.6057606739067103, 0.6674505673136584, -0.4050632445934523
0.6152542081289376, 0.6672616877392579, -0.5286698218094288
0.5810851823507519, 0.6681926942378772, -0.4628161600258257
0.5160611570338445, 0.6717957575516127, -0.4744266781450007
0.5507251573664431, 0.6691011557755426, -0.46104759512733645
0.5764380891703726, 0.6702457062741152, -0.5883376839962555
0.5754710708918026, 0.6683691583105899, -0.4863678598355838
0.5822447941312263, 0.6700807999038607, -0.6084642553438389
0.5567405367704652, 0.6706588250644283, -0.5428619966919587
0.5630441255752067, 0.6714646141101963, -0.6249856437320882
0.5432766820175228, 0.6725435770122096, -0.6004873749888409
0.617999046957258, 0.6669672271175183, -0.2686570239598426
0.6413963783663504, 0.6656001842212345, -0.3281518098139616
0.6166651704957786, 0.667028480106605, -0.33696684110127006
0.5965383417473639, 0.6676721670930924, -0.30025040205699793
0.6242343116718225, 0.6666798810876624, -0.1202182370912214
0.6317911999041912, 0.6663378885485005, 0.055184441841076425
0.6189080849965722, 0.666929368562402, -0.010594080976320586
0.5917923826540341, 0.6678337324937433, 0.07905199567575945
0.614406954959068, 0.6671342529962255, -0.1161610039368266
0.6278681056046636, 0.666511100378772, -0.2511237905978963
0.6082787614859947, 0.6673923246259612, -0.09446337936190007
0.596594605725883, 0.6676756804769235, -0.06040892748084636
0.5982245494152759, 0.6676327096264829, -0.17022842192347096
0.5395915086646318, 0.6685528363846938, 0.07139922657348893
0.5489956083409961, 0.6684197159980345, -0.03538029011435283
0.5660802530201908, 0.6682191053293447, -0.14419547369509375
0.5754063911320774, 0.6681121617539084, -0.3134063090920718
0.5902241235045244, 0.667822812102425, -0.37773821622022535
0.577325639387572, 0.6680934474724034, -0.08866204061254937
0.5680661721570696, 0.6681958973417154, -0.19865312209197833
0.5879503656944958, 0.6678777648381591, -0.3091594752613924
0.5372082456812535, 0.6684740499699314, -0.13289030129719964
0.5409308271829879, 0.6684565465636283, -0.23878607133622246
0.5662244538859157, 0.6682149594830815, -0.3066078458407919
0.5521598622030386, 0.6684175148251095, -0.40024681211218294
0.5017544401500696, 0.668629544292088, -0.21932300884593364
0.5327371631421232, 0.6684924979589443, -0.31772544461282654
0.4712660726530401, 0.668714528046737, -0.20597278383932566
0.48678295743041466, 0.6687484972118756, -0.304539398113467
0.5177579691167082, 0.6685738524712788, -0.19398208611630138
0.5022501626835283, 0.6686166999389629, -0.10570675808484618
0.5276687744337754, 0.6685197852473854, -0.06541569766382706
0.5117013420574101, 0.6685921959201881, -0.04124090122372014
0.48128261593152466, 0.6686352144843974, -0.015800197146901368
0.4423750492963625, 0.6688122366352538, -0.0363114275133713
0.506184501380371, 0.6686893966582601, 0.06441139501862189
0.4769714526019482, 0.6686804405192722, -0.1074918170077771
0.4992452829444596, 0.6686229663781909, -0.25602540018975484
0.42517360018214245, 0.6689750985415086, -0.09660768565273825
0.471026993698622, 0.66873152757573, -0.16367264936682593
0.4682605571280992, 0.66868654548785, -0.032554526567793125
0.40201210576250535, 0.6694456509084625, -0.06688027266679326
0.4700790893183211, 0.6687310176822465, 0.03839270261435894
0.391031455058712, 0.6705738238252457, 0.029920710177712036
0.42501415210751964, 0.6694191960596911, 0.05861146446284746
0.3692226478847562, 0.6704855690367253, -0.10055650010210865
0.3957090776534409, 0.6699950848725914, -5.744641966034386e-05
0.4210367766015079, 0.6691032608549193, -0.04986546729772674
0.4460031779258491, 0.6687407538259753, -0.24703234817834757
0.4211445230686065, 0.6689469216830899, -0.14095389553109172
0.38129188624619514, 0.6692483093783894, -0.1829961127969003
0.42374768777166066, 0.6706536492927369, -0.3305727817897369
0.42953863983091545, 0.6688096295121961, -0.22530834110730924
0.5184428825872656, 0.672222796752395, -0.6691951560097162
0.5194794548791513, 0.6737908937363859, -0.599852944621865
0.5109540020039011, 0.6741654769874466, -0.5493397556962427
0.4977673246829884, 0.6736084641977866, -0.6083656108406016
0.4457348086194507, 0.6721666503912397, -0.5761457516420555
0.5247773296979283, 0.6714287261787012, -0.47398307406790785
0.49360796033666204, 0.6724419379012647, -0.45303844339037536
0.5044210736447523, 0.6686102760602313, -0.2865927169143502
0.4809542087442915, 0.6692888815359049, -0.34753027203197373
0.46851648934416423, 0.6695801143302008, -0.34548348426261544
0.49420367991490355, 0.671124707805638, -0.399169797443673
0.5104865304433239, 0.6722884161059176, -0.47986070409755505
0.4829195050635389, 0.6753328580967383, -0.5137554269838763
0.4422218333722034, 0.6736088617173158, -0.503960773189441
0.4661031261550672, 0.6695348582614238, -0.33769815877850545
0.4745536832345058, 0.6732573076036952, -0.4224242728604024
0.45083528722604316, 0.6743169360215955, -0.4926465432867672
0.40538912459929444, 0.6707567710680233, -0.4605899770333045
0.4091488519975083, 0.6716427409142459, -0.39618516365326567
0.3822409122721329, 0.6697442434691787, -0.30883975393335944
0.38637469679562664, 0.6698936048569499, -0.34756338827634464
0.44992996501349003, 0.6713771564627797, -0.627724797810847
0.4532805953211441, 0.6732038424244599, -0.5446998436554117
0.41630553209939475, 0.6701840987787454, -0.5750433986587511
0.3694265257323198, 0.6690934211766739, -0.42942077744505514
0.4077038781375233, 0.6704820950784198, -0.4983653251525425
0.3902247668156038, 0.669088046920113, -0.5207406718926504
0.38705837039867763, 0.668813640819965, -0.5772080896405363
0.41686820114556894, 0.6698337119164488, -0.6199524977821619
0.697815559545079, 0.6509029684753009, 0.8209189457073645
0.6924584836766945, 0.6538684884180967, 0.6530288401353541
0.7029179682669754, 0.6447134866492217, 0.8758860887646999
0.6746602735949434, 0.6616036990954484, 0.8425645679626623
0.6544850531788393, 0.6629811307556253, 0.8839834192113106
0.675008123546902, 0.6609079146161669, 0.6746932703980566
0.6710152317482636, 0.6623272657564664, 0.8343754498203305
0.6601500914250636, 0.6635850299808785, 0.8486407798954658
0.660559961069817, 0.6635938773420774, 0.6937955738425715
0.6602588067532321, 0.6636402445302239, 0.6522310223895588
0.6975683822540458, 0.6428599613347763, 0.9757765300944303
0.6772955582234449, 0.6563396736561806, 0.9490933507623588
0.6372577807288501, 0.6618596048245888, 0.9366777980849211
0.5667100100436622, 0.6578311913010981, 0.977918975495227
0.6088906294911144, 0.6562488616037168, 0.9822498876527717
0.5509723875612438, 0.6508502192330723, 0.996569604996208
0.5018376942724515, 0.6527375507288262, 0.9932169048176377
0.48508665698524484, 0.6597829891758751, 0.9699895908018342
0.5022925032449451, 0.6571018229639811, 0.9815372601579291
0.4228527744754369, 0.657203176323505, 0.9812699634857249
0.35769478263474985, 0.6626015743864897, 0.9530182934651654
0.6142489011596002, 0.6672183264234801, 0.6876558299439273
0.6219795689085458, 0.6668382842011695, 0.6761564407645356
0.6447138783263847, 0.6652081573712325, 0.7570197130156184
0.5824993868054161, 0.6681863722794551, 0.7254332684081504
0.6028595101070414, 0.6673704000198327, 0.7965292284302415
0.554356304425933, 0.6683939729505726, 0.8001880337234163
0.5482903800339953, 0.669007421641507, 0.5973679867466122
0.5895169738190007, 0.6680222886902863, 0.7142476069692436
0.5762713321837837, 0.668243843012409, 0.754289377812413
0.5408822114137991, 0.6693769805944703, 0.6406485980165468
0.5572353924812583, 0.6689367414643765, 0.6584556651078168
0.6343910071243292, 0.6658881890578494, 0.841521049172593
0.5976287105469406, 0.6672631252455667, 0.8257195422587905
0.6114024270674241, 0.6641475288719695, 0.9184909351622833
0.6218920536171801, 0.6627415677144652, 0.9344414939930751
0.5401717948952757, 0.6627277674084036, 0.9492920452033606
0.5490800097476505, 0.667867316857853, 0.8385496996081291
0.5783131949702027, 0.6657603228094102, 0.9012245373779297
0.5183965956501057, 0.6690441009174088, 0.8139809205270302
0.492026145923008, 0.6678018323325958, 0.870503825280049
0.4659237316567407, 0.6667929697251149, 0.8964586470052631
0.4786957524626155, 0.6655611423516832, 0.9176914693321214
0.4890336227541296, 0.6648548568142658, 0.9278686538296275
0.43535702780936913, 0.664721149395122, 0.930186427812581
0.39892101235459715, 0.6646268991229994, 0.9315704286115065
0.47016265810133295, 0.6677923339207074, 0.8745104311275853
0.3630531714429752, 0.6711770422217185, 0.8508839261502191
0.48272706051931846, 0.6713817603280956, 0.624322669658907
0.5338638241683915, 0.6696069746299143, 0.7312926713727533
0.4475490956877298, 0.6720765230655815, 0.612499334680767
0.44988727779519155, 0.6723139025810426, 0.6884246408158797
0.4762184231953711, 0.6719857535782563, 0.7091352050669343
0.5462278921861542, 0.6685037554822819, 0.8037521897043142
0.5214507750961542, 0.6683008403293919, 0.8429844922478491
0.4464899223614075, 0.6722359917303083, 0.7420600168737475
0.4966000812573165, 0.6698892236652123, 0.8021543021553442
0.4406088592814975, 0.6712574260490054, 0.8009463137372594
0.4530651081692312, 0.6693225569768841, 0.842569142386395
0.3847401231059139, 0.6710079973658939, 0.8378228399497274
0.4749821695525108, 0.671934679093358, 0.6750323168841744
0.4284053496914927, 0.6723242300535072, 0.6906210682327278
0.45888147794805034, 0.6720421007790272, 0.729137123213597
0.36956331497426004, 0.6722934419827529, 0.7532879173155231
0.42408637965879487, 0.6723710198553196, 0.7108714346286427
0.35669870129227715, 0.6707585535480726, 0.6989530557075864
0.6953726183346189, 0.5898411901277196, 1.0117561952429082
0.6703812051709972, 0.5399985277520551, 1.0236802590710294
0.6714541582447902, 0.5645175095718886, 1.0239288639466262
0.6570168760645545, 0.5967694987609707, 1.0217090995280294
0.5876416171550207, 0.526947083384417, 1.0252936319345205
0.5206967047548333, 0.5239748367669638, 1.0252143571050605
0.5519093477568823, 0.5706113885110168, 1.026585537759335
0.554040256042297, 0.5511150392471863, 1.0270233133094917
0.44297046292269965, 0.5281972873334252, 1.0257845442320106
0.4656610570344985, 0.5135135099452236, 1.0238562420727995
0.4081765987780983, 0.5346777533347028, 1.026263847048366
0.403960085228259, 0.5850918804933803, 1.0252491727958761
0.44424155003589766, 0.5493959767227216, 1.0271450919791225
0.48061278329488066, 0.5856684916905354, 1.0254899874067744
0.4367429213390146, 0.5885759911910642, 1.0249952514670477
0.3932317425864198, 0.5874289229199636, 1.0248777977256178
0.465922011122308, 0.6077710774876822, 1.0215544384912882
0.46781010422442393, 0.6314430174467844, 1.0137712149512486
0.6033317635477575, 0.5903659525848242, 1.024258266971961
0.4960262200152905, 0.5725133019048552, 1.0265315096630392
0.5398887588976833, 0.6103843905800626, 1.0208279004520038
0.5547330942099843, 0.6425645555323787, 1.0064611926111489
0.564917956343291, 0.6332368049656163, 1.0125632773956352
0.6996942924987862, 0.4785828266497766, 0.9920215280191642
0.6371088810025558, 0.4491945607596482, 0.9462905019842641
0.7052398772464642, 0.4764466877773666, 0.929369672303763
0.6913689886802317, 0.4562659054801762, 0.8535939067416325
0.6962896097031017, 0.4597495137509144, 0.8210074737814362
0.697355097388729, 0.4603334439140253, 0.6251630890057037
0.6819245357454131, 0.4513894114875122, 0.6895824040025318
0.6745653562136559, 0.4496852834391133, 0.8225722241906503
0.667354074800645, 0.4478022068873397, 0.654894855076445
0.6618167379834284, 0.4469186785212861, 0.6705913473821704
0.6640418781953139, 0.4472880486610304, 0.7529528568044428
0.6521760432105941, 0.445807337669913, 0.7739189315152519
0.6830290768550543, 0.4525611387309811, 0.8639348173555649
0.6503322936536193, 0.44606749192068473, 0.8287730291319677
0.6502926179882219, 0.4467323303592612, 0.8741940910219277
0.6299454155239466, 0.4455683753667036, 0.8826536667253457
0.6051635620738571, 0.44440506220169773, 0.8770305314052411
0.5295415175183764, 0.4434554629295384, 0.8740385879186194
0.569755890713642, 0.44518811266221625, 0.915077796790343
0.6411076263947366, 0.4456996878515523, 0.8555153904901706
0.6213576486875101, 0.444098152203951, 0.8216148483999154
0.645822808987649, 0.4453726412557605, 0.7922499239073262
0.636827568814229, 0.4443873997341117, 0.7240705352918593
0.6219431544329255, 0.44354853248260057, 0.6821115808399305
0.6111886717410794, 0.44337736986914267, 0.7967912988114015
0.594267958862457, 0.4427337426468331, 0.7509541120185357
0.5886808458247681, 0.44251329320561106, 0.6635795245945805
0.555306914975114, 0.4422812644675823, 0.6413393205568042
0.5231252845666219, 0.4427845764811461, 0.7220133921525673
0.56886436860232, 0.44270809796116367, 0.8094703799290376
0.5739101335930126, 0.4424062410319593, 0.7398757796381445
0.5324967592068061, 0.443070474535003, 0.8502783462884101
0.5131280898040724, 0.4429426482524865, 0.8072523170410617
0.48705860376155363, 0.4432230770674986, 0.8191929636626774
0.4549648569225745, 0.4436186644345751, 0.8043544447572378
0.4794409914890325, 0.44365289885498704, 0.7737318325240601
0.5289795088183755, 0.4426912099466368, 0.7017252844907754
0.49037685265673503, 0.44370180904684936, 0.6703638636667353
0.5118183646365714, 0.4427137840784327, 0.5946440777758221
0.450672652680982, 0.44459117447213237, 0.5901683720992461
0.4554557931516535, 0.44438780640946174, 0.7248664274022565
0.5061578322996058, 0.4432064738599757, 0.6868460834514277
0.43135358579010097, 0.4446348418694056, 0.682254309606713
0.4047706965488047, 0.4440828604496079, 0.6701087969791885
0.38761319451331094, 0.44346939489346293, 0.6197387552246152
0.3853343546065, 0.44351430195101804, 0.6688876386381908
0.4498647060804064, 0.4438382499739622, 0.7865900081113822
0.4221277805788014, 0.44441390400258995, 0.710191178338637
0.37262259438651874, 0.44348666191227004, 0.7058622849894911
0.38365882976439425, 0.443756465770587, 0.8025038287828657
0.47458596796446517, 0.44518050351144967, 0.9216193723355206
0.5427085925212671, 0.44408069191156624, 0.8946502795053728
0.4957687354615719, 0.4431928898347135, 0.8440356644691691
0.45718512636033204, 0.4433339777099933, 0.8419947067261822
0.4611362536054345, 0.4434163877466764, 0.8606541713249457
0.42190534176693056, 0.44333678075589544, 0.8425875219652693
0.36809659882757995, 0.4435365467719552, 0.8540333849739822
0.4111585745656761, 0.4435790933171895, 0.8817238205694778
0.41909878367660347, 0.4449758833338183, 0.9192507067622335
0.6232013755819328, 0.46211257506338105, 0.999239053695289
0.5723567143340558, 0.4651113519483922, 1.0040522615562404
0.6328107228357989, 0.44865809944050317, 0.9429835981750989
0.5630427509931002, 0.44621813938446175, 0.93262990258709
0.5534043868737606, 0.45398414774384044, 0.9838218452394027
0.49292664957556964, 0.45167465967287246, 0.9755785124611718
0.47409368047456546, 0.44685746210099775, 0.9441198130947761
0.40640822459067727, 0.4453820952671535, 0.9269718761970646
0.4012006725303906, 0.45213034865427293, 0.9773760392251525
0.4463811196001603, 0.4714611398468904, 1.0094022806395855
0.42146351049884206, 0.457415912412186, 0.9927277725873384
0.3568487320126364, 0.46822535373012586, 1.008328925229518
-0.5761693470298922, 0.6090288307835805, 1.0307144111982431
-0.595809678340254, 0.6046690266366946, 1.029634237930644
-0.3693366584422199, 0.6260095356422387, 1.017803085853519
-0.414856253894363, 0.5862779369915586, 1.027482617593259
-0.46155640430475725, 0.5869750679665691, 1.0267760953296388
-0.3899755067769173, 0.5275145111701149, 1.0279210129193803
-0.43093360980355505, 0.5347480495454605, 1.0274883602581708
-0.4756516326733313, 0.5647539118846759, 1.029725985419151
-0.40801938714330827, 0.539710353492993, 1.0281696309089452
-0.42864759447416534, 0.5997097845226322, 1.0255489779358853
-0.5020024320009115, 0.5287680215043632, 1.0284315097562062
-0.5891567543628553, 0.5041753321083047, 1.0218122234167915
-0.5988918457283038, 0.5678766822018697, 1.030199457650164
-0.5008624601034202, 0.5560701208661841, 1.0287706557639014
-0.5737913735740335, 0.596717300098141, 1.0317451871163614
-0.48366316547337296, 0.5997345551038696, 1.0239786877691084
-0.6402656091962381, 0.622205037732485, 1.0174799325656845
-0.6852512835659404, 0.6145591629275324, 1.0141668979956135
-0.6667094568217624, 0.5312506364961139, 1.0239569667403714
-0.6707843122577231, 0.5509123320382251, 1.0246619653869276
-0.6867490465322131, 0.5421693023386888, 1.0224461845519257
-0.6940431398068112, 0.5914156129281742, 1.0152848629136244
-0.6919512299675445, 0.6553696324824871, 0.788716852265974
-0.6764937716020225, 0.6614408611088498, 0.7245557546755558
-0.653153760900353, 0.6658295945770182, 0.7258555505182935
-0.6792524803050476, 0.6606089861893517, 0.727287005925348
-0.6567616017912532, 0.6656102092993788, 0.7646265319977893
-0.6537481852664008, 0.6650057506791385, 0.860004764992895
-0.648515934647638, 0.6645110059978958, 0.8939570212184778
-0.6964524452403631, 0.6511752681962513, 0.8837884501695832
-0.6861402102261873, 0.6568971929253049, 0.9018213164346709
-0.6143445467311915, 0.6690879498934578, 0.6487398342341061
-0.5863683173900949, 0.6740554849302567, 0.7396516571219818
-0.5664408106837763, 0.6762024726718697, 0.7415385509866583
-0.5589618112060977, 0.675206264345745, 0.7806388596478457
-0.6284694622425646, 0.6686851904557991, 0.7124564723360338
-0.5512847165534304, 0.6778507797473665, 0.7055874050296969
-0.5899627374258158, 0.6710944659667857, 0.8291758184273138
-0.5882494071131269, 0.6740467625757657, 0.7561545134490606
-0.4816178081612179, 0.6836661508101338, 0.6569134656479239
-0.5191100176581785, 0.6803012159736062, 0.6973892762380429
-0.505333283432234, 0.6792962979269124, 0.7549883661728458
-0.37656819497071664, 0.680035986133007, 0.7110592217091745
-0.40063088386803475, 0.6778219977472172, 0.7408287137669416
-0.3718295063702091, 0.6729327159328008, 0.7685648793771515
-0.4247153199494181, 0.6741712637917519, 0.7867060110159174
-0.5307500361810982, 0.6764069060385177, 0.7844359105981622
-0.4656237217941449, 0.6826835688531454, 0.7138098919308501
-0.47168141728900165, 0.6784284291134128, 0.7714740207383087
-0.4985166730803415, 0.6789610738977074, 0.7614466305653687
-0.43284557218767017, 0.6697727197935548, 0.8308474981166438
-0.49087130500795484, 0.6691548100746647, 0.8666912242739211
-0.38051021192145407, 0.6693898112885215, 0.8135886755787192
-0.45617480691791645, 0.6687281576834908, 0.862628617321338
-0.37041044853604854, 0.6694712883777088, 0.8540297793871293
-0.3888696618873756, 0.6699899602481443, 0.9111097470749502
-0.49084742201672404, 0.6671700969585077, 0.8986472409144544
-0.39769559602299637, 0.669335563951114, 0.903509614297831
-0.6064316326222686, 0.6690213256053126, 0.8572164320487315
-0.5834406135980784, 0.6707418114834982, 0.8433203202258441
-0.5341209619266323, 0.6750150111704802, 0.8021665646698494
-0.505361394129116, 0.6737853557751977, 0.8246495053055508
-0.5277113847573359, 0.6721480716203465, 0.8435995223306878
-0.5497744396050289, 0.6682198342340048, 0.8917656046858355
-0.5275846499003387, 0.6649884405919118, 0.9369351648152164
-0.618199160319107, 0.6674830150634944, 0.8778040893636385
-0.6264107563753001, 0.6654083072665005, 0.9205165728531136
-0.5229215348970038, 0.6655947642313752, 0.9293486576523506
-0.5360008506035351, 0.6626803322574827, 0.9707923598926496
-0.50614827069645, 0.6661065740062169, 0.9277803442764971
-0.48914406502686414, 0.6653207879392391, 0.9496752965323971
-0.4201605720298998, 0.6660493883324557, 0.9562498240043095
-0.49230327314230005, 0.6629263491590796, 0.976128628058909
-0.5151946867744192, 0.6613703870994868, 0.9868281073419245
-0.38105652416880614, 0.6481229115221903, 1.0055657325740126
-0.4442408922931764, 0.6461014819042373, 1.0076559125093922
-0.575193651597916, 0.6547898132334709, 0.9942573066700267
-0.5181570775180777, 0.64787387978656, 1.0148484730978364
-0.6983712348867545, 0.6480368215464961, 0.9300667945465189
-0.6240874998328013, 0.6632707715490175, 0.9463577914266109
-0.657625113466717, 0.6589218448960816, 0.9647258771455821
-0.634025863089641, 0.6385168992784465, 1.0089141100664307
-0.7003381680030598, 0.6483655122771224, -0.5295612607689049
-0.6933918515474444, 0.6556179345508242, -0.3649801804408004
-0.6980463666114995, 0.6518987813231668, -0.4675619958331113
-0.6549253145509755, 0.6648627604714225, -0.5706546910474134
-0.6339775980877993, 0.6677821910488305, -0.45467575067028715
-0.6487626240355169, 0.6677240538943164, -0.4215412644414002
-0.6809155845773295, 0.6599824716565124, -0.5458086576959172
-0.6810053410526085, 0.6616580771683929, -0.4521201302585746
-0.6740960411408162, 0.6636824280604026, -0.2559172949009625
-0.6550573231882512, 0.6653823536065631, -0.3394755018823835
-0.6555021288348044, 0.6665776280432709, -0.25915842133637823
-0.6426490268477056, 0.6676515190512157, -0.24473098614491767
-0.6613678197888386, 0.6646897156833795, -0.08957382895867148
-0.6792975040135022, 0.661721649269715, -0.19836810757999948
-0.6672510311263735, 0.6637758292409206, -0.05334380906419371
-0.6977744737982905, 0.6522081545921873, -0.37498383486707787
-0.6828034037588333, 0.6606908985650161, -0.2979466542562108
-0.6810613147677452, 0.6608122872375933, -0.15424150962797012
-0.6874309918831949, 0.6581199272031469, -0.06209261473681724
-0.6994827796300133, 0.6499218040063814, -0.1599559980463003
-0.6053671952585485, 0.6687212000328483, -0.5597132373309178
-0.5830169679743916, 0.6691558353572581, -0.5350548679371676
-0.5733640077147707, 0.6702343835014273, -0.5831292942863386
-0.5301388640144664, 0.6699536318952414, -0.5463866231998052
-0.528646553017252, 0.6708703311171079, -0.6218301131749037
-0.5745925811252193, 0.6692344399041846, -0.434393946208809
-0.5219922252050122, 0.6691004925712064, -0.4776628008351256
-0.6121350137103345, 0.668081845491752, -0.480136221888637
-0.5662598606223891, 0.6687100056301046, -0.48106662043726134
-0.5918006123181123, 0.6685156829041397, -0.47495230329996607
-0.602511475031154, 0.6686289970380667, -0.46415794197468835
-0.6252279986832375, 0.6675988867299865, -0.4811736696993091
-0.6155914578623433, 0.6690927764815959, -0.419142307816038
-0.48339641529349686, 0.6694055745766982, -0.5195091114966333
-0.46808042130272465, 0.6701783922152795, -0.6144124576159944
-0.4369421401990826, 0.6695404777653091, -0.516924991958432
-0.3976680691549211, 0.6695382958487317, -0.5465503489831036
-0.3728862784196361, 0.6694819559258449, -0.5689583223423158
-0.37033301414955266, 0.6701574244374113, -0.4850188764494585
-0.4312840422457739, 0.6696972448841918, -0.4612618584030539
-0.5017618707022194, 0.6699916476452094, -0.5602509205813386
-0.5365491742543138, 0.6693822635993546, -0.5204559626581466
-0.45608428718122784, 0.6695235090893434, -0.5416806558586493
-0.4076219206757653, 0.6698436296359052, -0.48978446166930545
-0.42181444879532626, 0.6695152767235012, -0.5635788483458298
-0.43574263107192657, 0.6696841366312939, -0.44892499172029543
-0.4955120815911865, 0.6691749915504022, -0.47809067848036857
-0.5306137561486538, 0.6695358457673218, -0.3534642884354916
-0.4730977689480075, 0.669788558536051, -0.37859733785206345
-0.46272197252464586, 0.66938895086456, -0.4685655888625301
-0.4355020664113971, 0.6704966885017744, -0.3356808858957724
-0.4533016333507371, 0.6702403880397169, -0.2316036779153699
-0.4817072976755988, 0.6703816047357034, -0.2262996645185295
-0.48196545041886396, 0.670609173957222, -0.26365586644504385
-0.38317684433528454, 0.6702846224489877, -0.40355968611404136
-0.41843000930174146, 0.6703115961543968, -0.36600399783491144
-0.4202821526989549, 0.6699558619153122, -0.26308976276695606
-0.3732413013007724, 0.6699857174024826, -0.31733847136896076
-0.4676579007111371, 0.6702359510005323, -0.3207807035668523
-0.4269239041962457, 0.6696236603759607, -0.1808419872882437
-0.3752983761527473, 0.6691959074868755, -0.22414399821220532
-0.40067580543816556, 0.670728458013585, -0.0920559623100912
-0.3878209914395555, 0.6695982361650792, -0.1441312167837031
-0.37135989658723945, 0.6716847892792015, -0.07191675044331985
-0.4937245950109314, 0.6696447258034273, -0.09882286044633272
-0.45691420826516504, 0.6700622873186884, -0.2016418271656388
-0.4566920308551434, 0.6697149658167568, -0.10942948612048273
-0.4239332939166669, 0.6696987663999395, -0.1370261354607034
-0.39835032906218626, 0.6711716265096779, -0.052267104541585015
-0.4424745555550962, 0.6706534647986031, -0.046518762668760844
-0.4734906320671736, 0.6700114265959889, -0.06881538013218248
-0.45127535444738137, 0.6697300804610546, -0.1543948919537689
-0.6268049136367283, 0.6686105263411416, -0.26360613405245253
-0.5815091166100904, 0.6692635614907029, -0.41349339165706506
-0.6260414754676737, 0.6682982546450893, -0.2891341213611224
-0.5858712386877327, 0.6691585330264912, -0.31579755374038526
-0.5599047885277868, 0.6691939108504759, -0.4009632077777592
-0.5929976774215849, 0.6693576618323281, -0.2803374534351696
-0.47252811424663954, 0.6702263838875973, -0.33020068718833434
-0.5169921724882419, 0.6691201916031526, -0.42214637904112706
-0.5222790299706693, 0.6699141617279474, -0.3238483163013446
-0.5445921020886895, 0.67006370644942, -0.2883774173385514
-0.5405016356285346, 0.6703613748672455, -0.25151532682249866
-0.5488961393983085, 0.6700378239308226, -0.18812884017328715
-0.5841382813003324, 0.669695996445823, -0.1778540563883656
-0.5272428116611608, 0.6700316395349357, -0.17799818785113353
-0.5078230774272312, 0.6700156754594125, -0.17801813006558434
-0.5145930716444197, 0.6697237960914351, -0.11762663667827783
-0.50551634395315, 0.6697319773332839, -0.12389633945797993
-0.5101088562689369, 0.6700056168815085, -0.05886829293817796
-0.5310624250053527, 0.669415803081264, -0.08620407465273588
-0.571457684803392, 0.6690401773700703, -0.08477370323363521
-0.6272528609787342, 0.6683828642095181, -0.20158364734765172
-0.5924831636271907, 0.6695120873829062, -0.2153381832853688
-0.5564749395928227, 0.6699494082454927, -0.16756913827179043
-0.586561820900575, 0.6694110162566063, -0.019735214686627863
-0.6314680918269603, 0.6675492248717891, -0.05072256857535475
-0.6068087292443018, 0.6689594747397009, -0.006520581795825811
-0.6045071707564471, 0.6685799461767017, -0.09419572261339752
-0.5946144542483073, 0.6690598028263147, -0.028583762183953476
-0.5930976111653258, 0.6705236199794349, 0.12831609756676407
-0.5743474620769186, 0.6691720804480188, -0.06788174920728642
-0.5356857845874348, 0.6699775376281178, -0.04252183776083973
-0.5191785166811271, 0.6714883431340505, 0.050246739805749445
-0.5763700854587182, 0.6709869901108236, 0.0654292263434553
-0.595943856159956, 0.6705824607860241, 0.09046857078828835
-0.5220041899429257, 0.6718985982585265, 0.10679326237008145
-0.549874042117708, 0.6722010088058357, 0.3410236166015732
-0.5370606596391656, 0.6708208139261802, 0.21536964733020014
-0.5760194457683878, 0.6697260299557835, 0.2589937645335133
-0.6191663158479892, 0.66950224280826, 0.14756236206339063
-0.5474208402175904, 0.6708127056164781, 0.23648323332994026
-0.6000054483052025, 0.6703614871001027, 0.12945556847868026
-0.5798268618820284, 0.6705327531850199, 0.19750830332271954
-0.5966630390112716, 0.6700059178890886, 0.33946618378694304
-0.6124185109522085, 0.6690932367189094, 0.3281528843065992
-0.48635861110622153, 0.6716559469992224, 0.014423604582532262
-0.48409399774520406, 0.6701343620208271, -0.058723409800466045
-0.5112628961033432, 0.6716347769062263, 0.12589835092359258
-0.4528864173817877, 0.6717809927981643, 0.01856145896335564
-0.49137556895565115, 0.6718423895846439, 0.08265966082267245
-0.4734198071799349, 0.67219614288896, 0.1813761248234225
-0.4507855705825168, 0.671825125618059, 0.07933992099592502
-0.44613087309325616, 0.6710416493347405, -0.022891163398281508
-0.4069540029806433, 0.6715412270508543, 0.00028349261299341296
-0.37676032944349264, 0.6718918242127055, 0.012177741794495874
-0.36148392069371543, 0.6747879217125068, 0.10362617076112257
-0.41019011987437703, 0.6734028389960401, 0.1323857999082623
-0.4262800892366917, 0.6717549425105118, 0.04098507853194212
-0.43754880250569106, 0.6722688584712276, 0.12028413150958658
-0.395119869992101, 0.6734735462319636, 0.23766005917662691
-0.39404009718977123, 0.6749038152633364, 0.18058305513485404
-0.3957494194082425, 0.6727460908416777, 0.3132160505850977
-0.501028537941562, 0.6711819567209464, 0.15752705487833357
-0.47839261201439104, 0.6725726985773612, 0.20892656010822008
-0.5243106595537278, 0.6712155536119566, 0.23894622350260708
-0.4430091046559064, 0.671872933688832, 0.09598167571611126
-0.4560929532693605, 0.6729974500490741, 0.19235392555143377
-0.40895689136513735, 0.6745533097001731, 0.21084381345737113
-0.4686109249367424, 0.6724311396390193, 0.1916039417265818
-0.5013006126674419, 0.6719230657617595, 0.2192139695444286
-0.47328747126332804, 0.6728662515587387, 0.34655555966494994
-0.4627927812041594, 0.6733612381953369, 0.3159162820834113
-0.47716330085678776, 0.6728155976477527, 0.34421657837991493
-0.4611609219081412, 0.6727787932336159, 0.3560500717674679
-0.48303769093732857, 0.6731658195225312, 0.5041203747153278
-0.42699719958675986, 0.6734773239730816, 0.2789720970828007
-0.4389216389258544, 0.6731321028212611, 0.39097486034587486
-0.3590148624601597, 0.6759183312672011, 0.3655038939996361
-0.39392192889374844, 0.6739665448816085, 0.37459747427033985
-0.4032490620137087, 0.6733869530676094, 0.3745141736894611
-0.465065838038007, 0.6737707052149693, 0.5012047119654627
-0.35769878261132576, 0.6833034619062075, 0.4739926125525734
-0.38895186587268515, 0.683128464102238, 0.5166526718753296
-0.38455731903490903, 0.6879912536452575, 0.5952090954776956
-0.4145776690899153, 0.6869793293116158, 0.6314275929674465
-0.4140212029670146, 0.6847572013872716, 0.5647057024520733
-0.40592823019835395, 0.6818451388151823, 0.5224698968257555
-0.45176479765794797, 0.6737006660639551, 0.4461143962551925
-0.47236858811701454, 0.6759463745006038, 0.5393596868712003
-0.46645641831258094, 0.6765964799196756, 0.5376587872625296
-0.4283610617045216, 0.6856354870897056, 0.5896143521504009
-0.4691213094678245, 0.6826162132108826, 0.6182122745903269
-0.43304748513589675, 0.6855219011254243, 0.6039076531429228
-0.4849818995989591, 0.6829486277436752, 0.6892300278303591
-0.604938036377829, 0.6697557352024112, 0.34274163619795595
-0.6202263809251793, 0.6692960665292955, 0.40043568523846323
-0.566784202441058, 0.6709514769530022, 0.3170518363281887
-0.515624845392869, 0.6728985992341303, 0.4139417074118803
-0.5420389620755562, 0.6715484783937711, 0.3010980663844034
-0.49376689459349904, 0.6729817551440285, 0.37135255515997767
-0.5819653393764948, 0.6722735978540451, 0.5052488007079778
-0.5502860313318338, 0.6725699184802171, 0.4711736670683563
-0.5678400705870282, 0.6717044129229225, 0.38925383361977767
-0.5424144744859278, 0.6727302252107381, 0.36396416020290256
-0.5390653252292404, 0.6727781609270067, 0.4844359201727536
-0.5080992087613171, 0.6726671916806615, 0.4656281668672715
-0.48314111777353497, 0.6734947992103429, 0.5184752769227482
-0.475493966524142, 0.6811218795916485, 0.6063720138884146
-0.5424538094764859, 0.6725486579910983, 0.59169895224498
-0.5150271479209776, 0.679901961347155, 0.6688815407942722
-0.5516840469013243, 0.6731827905431387, 0.6209033602568839
-0.6028876068834627, 0.6711385237390624, 0.48248766287505535
-0.5601803541655558, 0.6722361316077503, 0.45202762562544885
-0.5651219805810599, 0.6714621367503838, 0.6020249002748034
-0.5745227528864243, 0.6725576169806804, 0.512214951413435
-0.5914215099195422, 0.6717573191040714, 0.528875877006326
-0.6258024370153227, 0.6686518783414078, 0.6345430373946613
-0.704481880147819, 0.6421969068662925, 0.0540153081577589
-0.6881753471036288, 0.6581400360269487, 0.11282880595904082
-0.6916318285716462, 0.6569131893310248, 0.19457891981001502
-0.6771475454016684, 0.6619387710766659, 0.039910561394621215
-0.6821651684193747, 0.6604669766422178, 0.068335059736466
-0.6568018530190134, 0.6656546435650447, 0.03355644802246228
-0.614273867067105, 0.6682269218107333, -0.05965562923109096
-0.6428652692546681, 0.6666630567638772, -0.06540931746241857
-0.6351671243326196, 0.6681615018131892, 0.07524272140099537
-0.638759430261725, 0.6680372501326475, 0.10870000829645936
-0.6552849742219999, 0.6665213560919913, 0.22576633826600911
-0.6317572482289073, 0.6687870738623295, 0.2061988614523229
-0.6183459667102724, 0.669609623475806, 0.19122332749501061
-0.6437162625539403, 0.6678400015498296, 0.20586425926301502
-0.6683474467938234, 0.6645385252597453, 0.22419627010804408
-0.6824724003451155, 0.6609840557664503, 0.24251879430992968
-0.6811693954065025, 0.660800749930745, 0.4157356164823427
-0.6638883070218482, 0.6650408988124966, 0.28711404333808344
-0.6106895679737346, 0.669651663209399, 0.36939876781255054
-0.6438297191181779, 0.6671349341259998, 0.2894650641088071
-0.6648680744669321, 0.6648470838218592, 0.5011765739523225
-0.6110454142478395, 0.6702417733900924, 0.44080735039573304
-0.6337045850607983, 0.6691462500523006, 0.5176606978581867
-0.6258207050901691, 0.6704241242219697, 0.5684072064659978
-0.6298449060043616, 0.6698388481067303, 0.5935390143021683
-0.6776493053661686, 0.6630051502666272, 0.5637423069730505
-0.6541698446620666, 0.6679341614483476, 0.5872595157943237
-0.6753972210158494, 0.6630955841424703, 0.6394294640825104
-0.6965067911559539, 0.6526314352702551, 0.34670789895190085
-0.6841446709862737, 0.6598454379068712, 0.47523688083725724
-0.6942160028303072, 0.6546231679281904, 0.48346688895263235
-0.6889827384567297, 0.6588984571971656, 0.588433503906332
-0.6901587351161235, 0.6569325949826517, 0.6845574816148428
-0.6801501828011153, 0.639223455094038, -0.9991608960504494
-0.6497348608946099, 0.6585476975596724, -0.9632531700140947
-0.6048272731742548, 0.6493999686225338, -0.9968332420833232
-0.640871272245997, 0.6515897742871515, -0.9915302506829539
-0.4766400725424251, 0.6536524043205666, -0.9895135399964844
-0.442464931793573, 0.6577871754189668, -0.9777864482310075
-0.40551874786212727, 0.6634715621503715, -0.9464724516110029
-0.4759188989833547, 0.6641147834397338, -0.9486087747771312
-0.5122326516789262, 0.6570021561923894, -0.9830609889473285
-0.5621066658992538, 0.6627755441354019, -0.9582223822810343
-0.6052313787133298, 0.6621977217359786, -0.9536670061118148
-0.5556805608570763, 0.6655599615628445, -0.9261789593092874
-0.5905427703664595, 0.6649436522747809, -0.9187505293110179
-0.5214736549195627, 0.6676200277499051, -0.8554667515051864
-0.6129511833322452, 0.6652688188464958, -0.8936758009964787
-0.4968655291259231, 0.6647592494529895, -0.9442905081137194
-0.4681253565746724, 0.6668761806301065, -0.919286648956244
-0.4043618732107489, 0.6662812740898734, -0.9183707779580788
-0.3808345801934061, 0.6665479530726015, -0.9091529042470423
-0.39128884990052887, 0.6680219044839057, -0.8818347190826941
-0.4625880919931078, 0.667674439785479, -0.9006303326160514
-0.502754773319557, 0.6676954321306561, -0.875322611348585
-0.5365832113955439, 0.6671089300245001, -0.8797393938392695
-0.44953182144110554, 0.6682958171928111, -0.8113086974608469
-0.45356926325272956, 0.6684649920477604, -0.7715847999212841
-0.46913065732179443, 0.6682283625182459, -0.8538969144696211
-0.3760739567984576, 0.6686361094220454, -0.7840192484456835
-0.4060575645201558, 0.6685074552643719, -0.7795569725312428
-0.4159381362311224, 0.6685072081152494, -0.7621767068985114
-0.369243132527171, 0.6687385209780679, -0.6881467930925643
-0.4302685059772705, 0.6690163555008815, -0.7173931321741193
-0.4886281305835399, 0.6703635826998675, -0.7040678557647639
-0.3963220110333778, 0.6685900872263052, -0.7395463341836597
-0.46359124569632115, 0.6687050390109139, -0.7580671453022509
-0.46369806920792234, 0.6698574321378692, -0.5789726766517862
-0.44930317001478143, 0.6699744221043372, -0.6509964913337971
-0.4719651558597864, 0.6703246234902726, -0.6272811906136915
-0.48501734753731846, 0.6705697420078403, -0.6591301002748041
-0.6229690707165398, 0.6692360799202386, -0.792617007305429
-0.5812890347604664, 0.6676243416079494, -0.8332548860881166
-0.480503852604275, 0.6681853022067928, -0.8152565506143916
-0.5112779529142024, 0.6690731629180484, -0.7714882202542895
-0.4926852957938003, 0.6685656008463506, -0.77801934002512
-0.573936376665748, 0.668235976416304, -0.8174104235767237
-0.5152572357490791, 0.6705140993780121, -0.7166260181462096
-0.5004259559574249, 0.6708250304717008, -0.6700524717795282
-0.5026602702754367, 0.6702515164467676, -0.7197978823617104
-0.541321473139429, 0.6712147916404945, -0.6851910292246638
-0.5213558570896464, 0.670160526510427, -0.7433654832060789
-0.583469208290849, 0.6710025239568802, -0.7027512961714608
-0.567205651688875, 0.6710867131841908, -0.6597146049067528
-0.5921840912197445, 0.6707731523486962, -0.6607660989840837
-0.59438366800652, 0.670323703741762, -0.612752942320326
-0.6991768968358947, 0.6469267406421799, -0.9288927648641707
-0.7043100262934928, 0.6439838811046252, -0.8368448404546158
-0.611176553179736, 0.6644723475479994, -0.9147577465235552
-0.6381231928391365, 0.6646496137953748, -0.8790214553974863
-0.6668918033100001, 0.6614887967905216, -0.8936193665891681
-0.6819431359799691, 0.6622726386011853, -0.8037423976761269
-0.627503304842451, 0.6681038509727257, -0.815441297468088
-0.6279263563408435, 0.6694316488600784, -0.7762760107596618
-0.6329196731381168, 0.669539637784939, -0.7182526337264759
-0.6415932762099411, 0.6685943618223208, -0.6506953857312616
-0.6317772954654841, 0.6693572301509746, -0.6498347525959118
-0.6691460033581917, 0.6657198449162024, -0.717260360140102
-0.6626782894707793, 0.665877648724851, -0.6338138307404575
-0.6974223921687861, 0.6538388116047094, -0.8252714742432365
-0.688144906932798, 0.6596979642524566, -0.8212318061076511
-0.6917618884026914, 0.6574567118373615, -0.659753583513147
-0.7041607694478835, 0.6452829135023066, -0.7155735883003098
-0.5643569806303372, 0.5136763060641458, -1.0190755242833431
-0.5727250476995154, 0.5656815450705115, -1.0221970087843624
-0.5979642369555869, 0.5814644946827163, -1.0210129982787843
-0.44385431039701345, 0.5188540955765253, -1.0200971421217
-0.4200559127914474, 0.5059353337429845, -1.0179025663704644
-0.40366963814529183, 0.5337214520134547, -1.0217061662534497
-0.5159695977543466, 0.5607860440165319, -1.0223625376855054
-0.45848805414564897, 0.5850832808816032, -1.020959762337359
-0.4432194916039572, 0.5693255452282249, -1.0221609492879489
-0.4099198510079099, 0.5957238039609356, -1.0194119333068286
-0.3902825411770594, 0.6035557002634729, -1.018155702642293
-0.42008807709097096, 0.6070772996624423, -1.0173254979487416
-0.5019050247922094, 0.6403269074662791, -1.0053636334168603
-0.5528892929713743, 0.6014615543550969, -1.0186912743031322
-0.5615256740048638, 0.5920301963177361, -1.020015999210214
-0.5066926810882629, 0.6315672697250517, -1.0100064155356887
-0.5791978315696196, 0.6252484398457188, -1.0124549187675846
-0.6512761564030622, 0.5258294915134156, -1.019464860875412
-0.6202019893466282, 0.550089403194634, -1.0218330068702044
-0.6249474824126701, 0.5801967067161788, -1.0207565863296115
-0.6166034562134882, 0.6176256268765644, -1.0146817620863828
-0.6642889815147678, 0.5932999668637005, -1.0191601475004457
-0.688546158398915, 0.5302679723880146, -1.0157856663188887
-0.7066148498151766, 0.4747899977685449, -0.6502470709053747
-0.6915850367578412, 0.4552462501255523, -0.8207649177999438
-0.6894374483590764, 0.4549994959327781, -0.6641766600490936
-0.648029495511173, 0.4464690418769593, -0.6465617335067575
-0.652951945073905, 0.44720136221033147, -0.8191204100999693
-0.6557980863390915, 0.4477452004807776, -0.7472042587630325
-0.6685398335392873, 0.4481542271794365, -0.8578285735559656
-0.649640842244757, 0.44629345511399576, -0.8780882467634703
-0.6751787103082025, 0.4507848448798204, -0.8979201948648632
-0.683109439858641, 0.45140016267914007, -0.8451830679168091
-0.7029256964932209, 0.46710079011318595, -0.9130855468472487
-0.5996673021991068, 0.4445073512393285, -0.6567341941148046
-0.5684224678595635, 0.44388997718152967, -0.6497278014684257
-0.5582235320292529, 0.44389704610406006, -0.7434350188567123
-0.5610253948776943, 0.44369797442486747, -0.772748581841774
-0.6415606247062803, 0.4461222278167258, -0.7752669903157079
-0.6215930663986163, 0.44513942951566965, -0.7753620672827759
-0.5852408370772187, 0.44363502816753814, -0.8223380831172571
-0.6181289424937673, 0.4452555253453658, -0.7462426554351551
-0.5010149837734724, 0.44320708153822125, -0.6623119038250544
-0.4530704502787992, 0.44275574198121004, -0.6643601935555875
-0.4236046280114144, 0.44241435929227285, -0.6708429663286732
