1.476207408461583, 0.5886177923483475, 0.44075653964664524
1.28687253242436, 0.6290928909789903, 0.6269284093673771
1.3116766508255187, 0.5820913500438156, 0.4244131068395244
1.4692981493224626, 0.5299479349530317, 0.7424470225483957
1.479003647443621, 0.5390436465439448, 0.6785577529465172
1.386151914582215, 0.8430438389792784, 0.6875509184626278
1.376164474556227, 0.7982710212494121, 0.4700161806515317
1.364823334512938, 0.7941049707189736, 0.5115641144880381
1.439022348091273, 0.7335887482433576, 0.40542118582557624
1.4862407398199102, 0.7051487770590895, 0.4068748298794449
1.5691270458593234, 0.7669142985268702, 0.5322603057673398
1.5567869617694958, 0.7362890563944232, 0.48044983709612044
1.561921606818524, 0.7068871755601596, 0.551498851697374
1.5716431489914544, 0.7048742742041849, 0.7332088185090089
1.328799112153114, 0.7680214843559228, 0.649523269813952
1.3281317030603528, 0.7730133447899732, 0.7576609060053003
1.3529971944915182, 0.7766251024647068, 0.5173409671029191
1.3296264207439457, 0.7393262229075892, 0.5376029313366519
1.3871036446248888, 0.7690609709956111, 0.4248004544881725
1.424024380763093, 0.6870713930919577, 0.4062441479312149
1.4649798131875644, 0.7059194456408949, 0.4060906888118182
1.5348128239944736, 0.6864759624522523, 0.4658313789877363
1.5434616763642595, 0.6817674253226491, 0.5002161139675972
1.561638131862979, 0.6971176144663329, 0.5729699663170811
1.5603201960371875, 0.666280418645609, 0.7379890130030478
1.559500333011178, 0.6701943794343618, 0.6600360194126809
1.3144264004820219, 0.7387691800372628, 0.6422513889451242
1.2980192740496062, 0.6806892131337834, 0.6009050130655514
1.3119854610951551, 0.685735323422436, 0.5070805312202368
1.3395776820221743, 0.6695340338333651, 0.4321715516280247
1.3907563022304434, 0.6282455854103165, 0.408265829525932
1.4141966108525454, 0.6477852662306822, 0.4069606228196919
1.512560127215364, 0.6344103078236256, 0.4709271254818884
1.5215944525867884, 0.6361167428394944, 0.49532210828027606
1.5539258267592904, 0.6553024724122333, 0.6705162424569765
1.5236470110029532, 0.5986304640655707, 0.6458231837063411
1.5583895038195612, 0.66118869884607, 0.7522122992884985
1.2835447217552711, 0.6323483888864211, 0.7574621592683286
1.2944727957974702, 0.630607071957614, 0.5213070900219592
1.3038305320706267, 0.5979682556923286, 0.4429379515167603
1.3659649009426484, 0.6013766145742074, 0.409630021061868
1.4265193247033732, 0.5321546132597383, 0.41790968946883905
1.4631070120670122, 0.5262353503867443, 0.5833845615337557
1.510085852971712, 0.5782229730362376, 0.6382470154041688
1.4794953156242199, 0.5403100727562324, 0.6441934927634101
1.4849078838474876, 0.5466467199690794, 0.6236971392448365
1.3308138624257437, 0.5338305702027899, 0.6387116040274914
1.3415913975276434, 0.5204071253141749, 0.5252917446966064
1.4989297692472527, 0.8607083415752302, 0.49242518764155646
1.3975849534190476, 0.5075364128882741, 0.6783438736988295
1.3400664212907005, 0.5185024846169417, 0.49279368991753336
1.5093112104123305, 0.8202247165508814, 0.4077128977613941
1.5227504038401198, 0.84921342593045, 0.5774897266607039
1.54957876555246, 0.8391753668977575, 0.7077284328522551
1.5395224615092475, 0.840502535221071, 0.609709550260495
1.3943819451320438, 0.49990057559023654, 0.5239223792329316
1.5618749472953326, 0.8163576002256697, 0.6004586513058874
1.42064399464621, 0.871707006359501, 0.6577333779330173
1.2878522937622219, 0.5851652990718175, 0.635236852970699
1.3073788372734927, 0.5401569290424926, 0.5496779778427952
1.5705702908791053, 0.7640241735892171, 0.5519071339875471
1.4350637148662857, 0.8769673721947803, 0.6079162306602502
1.5525782550375722, 0.7843496781738599, 0.42820172385432625
1.5588159024532837, 0.8212937297342826, 0.5975901027376784
1.409906054019558, 0.8566113633054827, 0.50649722162566
1.5686104429564804, 0.7789884495769498, 0.5230655738438706
1.5511016471432724, 0.8335411009851739, 0.8744839895843974
1.4637956708938906, 0.8780568439132386, 0.7915323004716621
1.3329654208461683, 0.51684558206358, 1.082696411219796
1.3296203091721188, 0.5334880895666277, 0.8999832677784797
1.5538643052447432, 0.8335644810319536, 0.7248884676201729
1.3676402090556627, 0.5037149694433232, 1.0552931516448627
1.2939935391953254, 0.6014733218912409, 1.0366343387200276
1.3834989148716892, 0.8047083478749628, 1.053754665132479
1.480900873026299, 0.8592858327224218, 1.0387474555743235
1.55637548625872, 0.7505641310889505, 1.0520695612568687
1.4956712321602934, 0.6084605810096334, 1.0597743693581478
1.2920166943722546, 0.598303322056449, 1.0241117283343382
1.3061097375798671, 0.5414992918780657, 1.094040653968935
1.4430449744521523, 0.5127863659915921, 0.8330120525865015
1.3773285316039119, 0.8301486731201713, 0.910425412074581
1.331747430978337, 0.7716289253356976, 0.881541878556456
1.3300291146735186, 0.7656349765857111, 0.9068036008861904
1.5512384080069972, 0.644812330276262, 0.7601074663970695
1.5725442313712943, 0.7129591267845798, 0.8151971526793557
1.3237059067418588, 0.7503937279229228, 0.9145486144975996
1.5134943093567235, 0.5795951981864746, 0.6829618630698013
1.5323453422298023, 0.6082253410655072, 0.7824427561391774
1.289833047585237, 0.6467626913239434, 0.9081121516244431
1.4954344610730377, 0.5857686137304208, 1.0217584272945968
1.478559082527887, 0.5384129098216011, 0.7004938948346795
1.3502653756377878, 0.5240258107487694, 0.9115089438208395
1.4671507866391285, 0.8690281631789979, 0.9494390822891089
1.5013401980599634, 0.8581202762517119, 0.9114986743181483
1.5687726900438241, 0.8124468518029448, 0.7487466879996099
1.4297648118721202, 0.8763859102789362, 0.7658629065450342
1.2892117777785717, 0.579912223800002, 0.7078397335263245
1.438059845967121, 0.5107613360993921, 0.729700442572793
1.5710312573539584, 0.8026911954334003, 0.8000102087506726
1.4310511551110594, 0.5059209392260139, 0.9333092062406576
1.3804145353905632, 0.8348367629044752, 0.8879503987201319
1.4479630090686428, 0.8731237392407425, 1.02927567870854
1.3380636253570337, 0.6253962002755281, 1.101850379809106
1.4330107153123077, 0.7618690104902615, 1.107021423583222
1.4044794004305472, 0.49578144647234085, 1.0869901867899037
1.5100796224303412, 0.7811427199641094, 1.109707969426177
1.5622470830992559, 0.8243931671083183, 0.7908198332249075
1.4293779457374585, 0.5157482740803593, 1.090354016148428
1.296514854581793, 0.596793899536169, 1.055042337625693
1.3887905263816216, 0.809322646783195, 1.0597438748743455
1.5059480978509747, 0.8462133623346808, 1.0777039383610467
1.532210353029297, 0.6959995045508816, 1.070369466414632
1.2842440191606617, 0.6382947061129816, 0.7089339352928287
1.2841479813349386, 0.6176509895951676, 0.8226047170045458
1.291134064172252, 0.565775066328153, 0.9705635129951363
1.4477802279693561, 0.514716482865, 0.9899043184978281
1.4605889294514978, 0.5238818011568578, 0.8795866713671243
1.347027271096187, 0.7989416632204199, 0.7413718325378054
1.3690258472799997, 0.8242602831251635, 0.7908358988440334
1.3556746066084342, 0.7774773094502021, 1.0117271663239416
1.3720354486401007, 0.8070470375841244, 1.0000480378432508
1.4018005549085926, 0.7786127992206158, 1.0952243631817595
1.4437389669029648, 0.765014412267227, 1.1083849266236963
1.5213409741319843, 0.7307702876781952, 1.1023678676473763
1.5654355886662885, 0.7493486493565588, 0.9983963776932048
1.5759338458611696, 0.7532089539028637, 0.8057155344019996
1.5728690171216053, 0.7441490646548661, 0.9067065691678047
1.3127271988212164, 0.7438477460064766, 0.793557482492836
1.335701537351731, 0.7836027624403279, 0.7026964784945103
1.367153506896592, 0.8195967685096164, 0.8986707454997844
1.3278603548247312, 0.7464858764948743, 0.9536268317701054
1.3242893123454964, 0.7320842358403655, 0.9727285238653797
1.3516432785887684, 0.7188963293975319, 1.0724631160602849
1.4410037352335707, 0.7140210976781827, 1.1108919980919327
1.4431585216283838, 0.7192636900052137, 1.1108087220476812
1.545464932044197, 0.6945892646530611, 1.0304534084037158
1.547950422423108, 0.6884701966052906, 1.0095972730549263
1.562531579570157, 0.6909238548269669, 0.9193997907175064
1.5675858921663852, 0.6906591064116592, 0.8292570495800904
1.5614107972578457, 0.6754512220319533, 0.8561303999999896
1.3216941733416439, 0.7599635460409386, 0.82499404655793
1.2989543906819425, 0.7102588195512085, 0.7151801563547511
1.2969042992886237, 0.6680161338758861, 0.9425407706859895
1.293694451651949, 0.6461366398850363, 0.9532257804937307
1.3260919655706882, 0.6357022658623422, 1.087535554442658
1.3588352620464754, 0.6194413277457855, 1.1071317347844163
1.429582659196408, 0.6299086643240678, 1.1118373816990457
1.4533365863628567, 0.584257224221212, 1.1018418926968465
1.524550222597127, 0.6172429239561512, 0.9598071358514215
1.5299515734103426, 0.6315041673037167, 0.9745285265379467
1.5129069454328121, 0.5802777759348716, 0.8555026648851722
1.5351252129798028, 0.6209321269339453, 0.8825282119036456
1.5531079354621569, 0.6505730553377223, 0.7980506430630782
1.285678001112594, 0.6564112433252758, 0.7804658536703969
1.2847242810730193, 0.6469541976831097, 0.8103541172697263
1.3031832725302204, 0.6472731762294128, 1.0290383337588296
1.3218975877483143, 0.5656266642002588, 1.1042649761464232
1.3724156492276554, 0.5965215423644875, 1.1103641284764865
1.4546198641660428, 0.5297741959201078, 1.0469911126830602
1.4638131735496906, 0.5351235046732672, 1.019879457197509
1.4782120887769343, 0.5383168944273629, 0.8396466080083493
1.49783760858559, 0.5613949331183818, 0.8798778625544034
1.4531955282538713, 0.8805206859323467, 0.7133455377241753
1.4835068523982482, 0.8718855891054471, 0.8253025099066705
1.3240075989673556, 0.539416919523393, 0.793486646923426
1.3408800429463021, 0.5313494479293529, 0.8050756009523781
1.4793230895727885, 0.7980335229491942, 1.1088837888011793
1.495619147451423, 0.866899885283127, 0.8297375127232749
1.5272534128569555, 0.8529764325529275, 0.7841071734811268
1.3410835226612838, 0.528896131939969, 0.886598174293292
1.359520136768688, 0.5230791047031922, 0.8027053293346778
1.3876596218090085, 0.511618518058122, 0.8163697674380525
1.5368495118071315, 0.8098040290873245, 1.103158124773479
1.506596220262082, 0.8488159658921355, 0.9729421496865283
1.479750051099808, 0.8618115434330238, 0.9695406944326238
1.5409241354506618, 0.8384336509902877, 0.904416349850834
1.3656608358467006, 0.5096353947940064, 1.0048787221072264
1.5574094176503814, 0.8177274231681745, 0.9542967307578576
1.4392249757984437, 0.879267047573227, 0.8082963361587938
1.4114348674836208, 0.8640867185118595, 0.9089334171280636
1.2920472409614208, 0.5721558699844982, 0.8423228692122131
1.4053691141875964, 0.5075747887800889, 0.7736681625481305
1.568036908348269, 0.8000954962431674, 0.8964997747953483
1.576901397185817, 0.7724641595873978, 0.7672935571892966
1.2975011979375441, 0.5505190271245336, 0.9838069343452621
1.422083726888747, 0.49849052268053795, 1.0094115698801756
1.410533541774608, 0.8546481020824068, 1.0252256104556892
1.5647186212540902, 0.7877852474170454, 1.0435562252130317
-1.6591271162033083, 0.3034022077796583, -1.1871552193802848
-1.6591271162033079, 0.25954562400824527, -1.169516546060866
-1.6591274738311768, 0.2668983586184708, -1.0745141272941547
-1.6602956692656197, 0.28376710679525763, -0.9212357938304427
-1.6592335472367579, 0.2940025884470957, -1.05506184866121
-1.6603556835394642, 0.2692259211936022, -0.7714821768227229
-1.6603692153615968, 0.2864794427741101, -0.8691787945300076
-1.6603416259768153, 0.2789151116049765, -0.6707591310563588
-1.6603662035247835, 0.30758621086214594, -0.8413908354139565
-1.6603695690528326, 0.2969901883814734, -0.8686697436709224
-1.6603334177795073, 0.2875983589645818, -0.611698563728587
-1.6594364653251517, 0.276904540789372, -0.3872825420937548
-1.660304640955396, 0.28476050191993085, -0.5840887299208568
-1.66005934915772, 0.3159579463857096, -0.5282696867008065
-1.6595541687351993, 0.2913635271507213, -0.4139413170867068
-1.6591605808434002, 0.2350364039575377, -0.32469513714466436
-1.6595607675869188, 0.3150467345163824, -0.2544293039908847
-1.6593492511832042, 0.31878736617839243, -0.076796502918551
-1.6594156771992348, 0.31761314809499774, 0.1212800159958694
-1.6613506939917677, 0.2834076990068487, -0.1677584436216025
-1.6621272557501008, 0.23235558578109677, -0.238532508283649
-1.6621273756027222, 0.22392744567203504, 0.0391000300583553
-1.662127375602722, 0.2546986798183074, 0.14201034356287845
-1.6621273756027222, 0.2395468108465316, 0.2004649896260151
-1.6602253824548519, 0.3032999224918425, 0.2942582823118482
-1.635024053256037, 0.22493180117495265, 0.33646658623234915
-1.4763560640774038, 0.24141716849014358, 0.33668699860572815
-1.3182275590863366, 0.31644167487712715, 0.33418380950196935
-1.288406870084177, 0.3147325164783612, 0.3343009792997897
-1.5531447472321296, 0.2857150211452406, 0.335779754750393
-1.4690533562404526, 0.2708175390835933, 0.33662254513142764
-1.2375834860126815, 0.23720574692123925, 0.33668699860572815
-1.099842976300975, 0.2269286112136816, 0.33668699860572815
-0.918834415513692, 0.2547538958913784, 0.3366869719267145
-0.9423282319518426, 0.23104274878288752, 0.3366869754357168
-0.8303498359346378, 0.2581396130260799, 0.33668696880340576
-0.8391585346138906, 0.308564529849077, 0.33452579745600675
-1.060085995210766, 0.2741246724544877, 0.3364576259029114
-0.7432080934695378, 0.2642216762864326, 0.3366869335736269
-0.6784154492970602, 0.24810281552590477, 0.3366697117377421
-0.6435840534714165, 0.2500497896391823, 0.2935069403502239
-0.6435748338699341, 0.22302022636096025, 0.23118314003658152
-0.6446775421848576, 0.2891693504816313, 0.1618158182721837
-0.6463711203010962, 0.3191044893597443, -0.10292721703212887
-0.6440641614830233, 0.2783274316362526, 0.21072092521378083
-0.6465313396310605, 0.32193650504700255, -0.20416285606120532
-0.6435748067717497, 0.22870311650500486, -0.03337117698776216
-0.6435748247507582, 0.22070525348865677, 0.05220058423672226
-0.6435748338699341, 0.22620641516112838, -0.2980273504208397
-0.6449475312110154, 0.29394158916144325, -0.41218480527312307
-0.6444774349914079, 0.28563232046867015, -0.34275607037657313
-0.6449862795055813, 0.2946264914803856, -0.4349049639186981
-0.6435748338699341, 0.2351932536016957, -0.5231078619159054
-0.6435748338699341, 0.22652553774025913, -0.539085360996719
-0.646340950742955, 0.318571982167876, -0.6776058984012401
-0.6463804162998877, 0.3192695288395403, -0.6742890800163893
-0.6463953725427936, 0.3195366398012067, -0.9919004762448951
-0.6435747622041452, 0.22268987080422858, -0.6495799412287334
-0.6435748186602903, 0.21725955858865562, -0.6127979934700626
-0.6439827436859258, 0.2571878882826075, -1.0861641641115607
-0.6435743993820934, 0.2221301289197813, -1.0235919838876235
-0.6454885601571819, 0.2829732504546015, -1.1466632038295963
-0.6472762405059872, 0.2420118833978607, -1.2022854323076528
-0.7185007503817695, 0.2746014071794414, -1.224076528810156
-0.8826772047527268, 0.2503448916502895, -1.2240763902664185
-0.7040782231336332, 0.32740996337473793, -1.224076576779634
-0.8504076991809685, 0.2999025330852917, -1.2240763902664185
-1.0107034856538597, 0.2692750780070176, -1.2240766286849976
-1.0411680624815036, 0.254578739994319, -1.2240766286849976
-0.9322047864756472, 0.3040051976614861, -1.2240766286849976
-0.9128284934880818, 0.29349582282941666, -1.2240766286849976
-1.3408590308970927, 0.26856526052060214, -1.2240762705668935
-1.2499742544217571, 0.2669116972194946, -1.224076445092332
-1.1730968135357167, 0.3349701694483253, -1.2240765927195758
-1.294539417466505, 0.313255280860155, -1.2240763595141426
-1.1805400230377545, 0.2902368997506987, -1.2240765784264296
-1.4642907927275597, 0.2721614561930518, -1.2240766205215512
-1.500125052708051, 0.2939726808256931, -1.2240764632633898
-1.586863945297809, 0.25410853045934745, -1.2240761518478394
-1.6387338220631353, 0.2675290192853961, -1.2230964819478896
-0.7396955874357156, 0.34802696108818054, 0.1343836433960865
-0.7407210518501698, 0.3480269610881805, -0.04872507815907369
-0.7262287016698926, 0.34802696108818054, 0.01023984928952613
-0.7301030851839877, 0.34802696108818054, -0.00026372556988735456
-0.7085935735924844, 0.34802696108818054, 0.2507804051403458
-0.729440918250602, 0.34802696108818054, -0.4602033057147015
-0.7255492840390602, 0.34802696108818054, -0.32438398344303393
-0.736511509476302, 0.34802696108818054, -0.2111407697967511
-0.7467203744415013, 0.34802696108818054, -0.19945988433269785
-0.6980267813501722, 0.34802696108818054, -0.7951348601298914
-0.7191968653984345, 0.34802696108818054, -0.7275929813774114
-0.7236188380372448, 0.3480269610881805, -0.7249900099551946
-0.6948427080661963, 0.34802696108818054, -0.9242700409996494
-0.7026612415678899, 0.12829982334195247, -1.1695305600843235
-0.7541984352463926, 0.12829984476870207, -0.9318926286281781
-0.7295590409855583, 0.1282998345248064, -1.0411465821861088
-0.7129004751585717, 0.1282998472452164, -0.8275128936297806
-0.7311987470613269, 0.12829984724521637, -0.7369743450625442
-0.7574912369264104, 0.12829984724521637, -0.7710722903402514
-0.7370232962841203, 0.1282998440558894, -0.5723369839039876
-0.7077452917698659, 0.12829984400059422, -0.5718074125890502
-0.705459581017451, 0.12829983469172607, -0.48263429266137314
-0.7452898263673827, 0.1282998410647438, -0.2990051300187105
-0.7491794045859214, 0.12829984268184105, 0.2588412315200899
-0.7137789714765397, 0.12829982796406425, -0.023780331199438287
-0.7271228968436879, 0.12829983351181884, -0.12241447135664066
-0.6947739623343632, 0.1282998200627066, -0.06390547888166612
-0.6979054863883588, 0.12829982136464185, -0.07996779699951578
-1.567131551967981, 0.3480636594345608, 0.24315571686958173
-1.52528037968233, 0.3484519043579206, 0.27938135976037504
-1.2990779495754996, 0.34819102199601115, 0.22616413972501026
-1.3074406448640628, 0.348099257982485, 0.22213625531292092
-1.1479908992180923, 0.3506015416524384, 0.25283753610193516
-0.9762151810241714, 0.3495416677313365, 0.2611970792994766
-1.0859122399426022, 0.3490571059626703, 0.23464096951808766
-0.8212351928778818, 0.34814352155137934, 0.2598832200886001
-0.7091006134462929, 0.12829984292205882, 0.2766451425457409
-0.8096525687954177, 0.12829984724521637, 0.23115171948096003
-0.9032784150394075, 0.12829984724521637, 0.26617028417338306
-0.9040900287732747, 0.12829984724521637, 0.2490440477338972
-1.1256832833601984, 0.12829984724521637, 0.2470697675874794
-1.1905150204508854, 0.12829984724521637, 0.26230487794037527
-1.195541083926714, 0.12829984724521637, 0.2767710467216603
-1.4402618122173496, 0.12829984097360442, 0.24843795571944835
-1.4941435997371293, 0.12829983128225894, 0.2699261450036403
-1.659923094931047, 0.5106215966639173, -0.49857975736216553
-1.6596708808771177, 0.4228266175162183, -0.4408943013063207
-1.6603121924420643, 0.4284812891629975, -0.5859699727410175
-1.659493082595849, 0.38699495073521417, -0.40042089501719824
-1.6598117865334094, 0.4737594823098835, -0.4731355941086129
-1.6596739452864484, 0.36454790189813624, -0.44115804596322084
-1.6597791080751734, 0.43157590968644355, -0.46543456679459433
-1.6598852286891006, 0.49275301947799743, -0.48988460446358684
-1.6603287025419942, 0.4913122816468257, -0.5901665782138388
-1.6599042017015608, 0.5418122707757684, -0.4945367610260933
-1.6603361889951225, 0.41455955373366893, -0.5912942990956283
-1.6602120938696503, 0.5329241453719624, -0.5641017817786702
-1.6601861105015328, 0.500315436233032, -0.557985391793
-1.6600878949327615, 0.5672742678888024, -0.5362669407003806
-1.6591358649628662, 0.5756798383740085, -0.3193197774513444
-1.6593687100541283, 0.20104531720117405, -0.37198552660467277
-1.660070749711239, 0.16956810057499763, -0.5317158553110236
-1.6602039078014563, 0.23127655480217427, -0.5615747962247882
-1.6603433077624752, 0.2417055777995314, -0.5931585724446494
-1.6600351619093874, 0.1563960099137247, -0.524227154347188
-1.6522594348217305, 0.1355473477697495, -0.4463108957188162
-1.6137030375893797, 0.12825336915230715, -0.33949650194637576
-1.5952422553368713, 0.12829982942442048, -0.4919612122246291
-1.544417861659583, 0.6187356353315537, -0.5742979096682973
-1.544531003364923, 0.49514749121161034, -0.5475882812621586
-1.5444978461464471, 0.41241312247424805, -0.554565990209227
-1.5443398030822921, 0.4822739548504251, -0.5911413731976124
-1.545135146009364, 0.6901313667517089, -0.4110743164166587
-1.5445504951068516, 0.49030506207854163, -0.5431043306141985
-1.5445671908044918, 0.5463525904684394, -0.539693624057146
-1.5449937031319054, 0.7058024434595858, -0.44347326610540355
-1.5445442188931824, 0.5730446716921949, -0.5451280814823621
-1.5444336331531745, 0.4276252124259481, -0.5693324876630156
-1.5445573321898096, 0.5811429747361889, -0.5421925787690511
-1.5444328592349978, 0.6346330566931107, -0.5709880013500263
-1.5444221806988716, 0.49409956936882193, -0.5724216147438654
-1.5449223273190424, 0.6099582718694501, -0.4590814321767486
-1.5455059127075115, 0.3884084999345303, -0.3265960561118804
-1.5533606371078457, 0.740095289229812, -0.5155823653266215
-1.589033701081357, 0.7489733175619332, -0.4831248704137592
-1.6038195007778535, 0.7491698707142826, -0.5227116704905687
-1.6294976317747856, 0.7478125957159817, -0.4224847903407816
-1.6492558828804595, 0.7414533359210531, -0.47284933518328615
-1.659127116203308, 0.265299801716754, -1.1924982848745684
-1.6591273073495523, 0.27344037305168284, -1.132093564026985
-1.6597499208757989, 0.20583322828755568, -0.9900138958957864
-1.6600937144407366, 0.2000217995944026, -0.9467007272522866
-1.6595209428276108, 0.23301839899673904, -1.0188504177641078
-1.6603363468183439, 0.19560330451650107, -0.6335701957593138
-1.6603358035787843, 0.1887105608692693, -0.6291492475259044
-1.660342581878588, 0.2047517693183608, -0.6832349280155182
-1.6603518188171957, 0.22729682916296104, -0.7488550194951694
-1.660360390985175, 0.26246184596204436, -0.8058101312008565
-1.660339922558753, 0.23147537333759075, -0.6581866013160073
-1.6621271865603442, 0.26560695200212125, -0.27385099462500345
-1.6600429574762823, 0.16750838735154858, -0.24297703493840114
-1.6621273756027222, 0.24916917881772332, -0.0633506305773806
-1.6621273756027222, 0.240211933497877, -0.0985142262671797
-1.6621273756027224, 0.26260306831378766, -0.14610378514950095
-1.6599488761451435, 0.16529358314538856, 0.043753002311261835
-1.66133655287285, 0.19800610669855395, 0.08955189046685226
-1.660629637857587, 0.18134158129061342, 0.20576091578966693
-1.6619844670236006, 0.21327977364569287, 0.2705779881814903
-1.6422635253343087, 0.23713096859060223, 0.3349666643849869
-1.5873067444285434, 0.24534184584513224, 0.3366868830065548
-1.181555900261392, 0.21477485311645453, 0.3366075140882032
-1.5266623670706767, 0.23933161649752427, 0.33668699860572815
-1.5106181970940191, 0.22039124912108943, 0.33668699860572815
-1.4516999564883224, 0.18376761965497523, 0.33529216955779806
-1.256911155456356, 0.2196722414105423, 0.33668699860572815
-1.377009898984275, 0.25277898343658345, 0.33668699860572815
-1.0216732896023293, 0.19749560953110482, 0.33587453060691563
-0.9420737778105897, 0.19639162064814802, 0.33582768836262644
-0.793666824581708, 0.22395094312253627, 0.33668696880340576
-0.7777330298180257, 0.1757196931951092, 0.33495079457786014
-0.9561834290689784, 0.2262446614269812, 0.336686977505109
-1.0821659943104727, 0.2541673007066223, 0.3366869963216822
-0.6816648608814948, 0.21719154521545708, 0.336675239275519
-0.6447226803897539, 0.18962343919632416, 0.2910245978833721
-0.6452776298340835, 0.1765065956275126, 0.2598384019453441
-0.6435748275904531, 0.23338779231978554, 0.19808619328205124
-0.6435747705973771, 0.26438399340432345, 0.008611102396097359
-0.6435747846968536, 0.26493410650590393, -0.24710272560753155
-0.6435747557916033, 0.25305155880533553, -0.18176310762593573
-0.6455615292159707, 0.16981385435450919, 0.009954104140429965
-0.6450302196194669, 0.18233906119242388, 0.02832466240166191
-0.6435748338699341, 0.24613475430271486, -0.35718121818117565
-0.6435748338699341, 0.23950933811263017, -0.40170745446337464
-0.6449522932380223, 0.18417611448893273, -0.3150245219888389
-0.6452529751976398, 0.17708777322534378, -0.2699883015047231
-0.6435745016000356, 0.2649869347883673, -0.8193670693178944
-0.6435744708122915, 0.2601848198426239, -0.8394257042651061
-0.6440566082380236, 0.20529134695664852, -0.5745639300713253
-0.6453789071115659, 0.17411920365112177, -0.4098774449102908
-0.6435743898785886, 0.26593605618122274, -0.9988987711291494
-0.6451805798928797, 0.17878063617705034, -1.0283969247618296
-0.6455685470831033, 0.16964438492512718, -0.7363764368935606
-0.644141905004469, 0.20327148388708313, -0.8559784570640231
-0.6444170728208545, 0.20527764603332116, -1.0924642008886258
-0.6449063982183569, 0.23829525379108757, -1.1262900358373873
-0.6471021805442736, 0.2707258394927002, -1.2014104548149191
-0.7309920693369645, 0.19613346403187204, -1.2240764872638972
-0.7509652786852221, 0.23265077307007742, -1.224076420832792
-0.8338404342579451, 0.2309613325358576, -1.2240763902664185
-0.8111722129314038, 0.17779796572399742, -1.224076425331825
-1.0455882584207292, 0.1895680339436185, -1.2240766286849976
-1.064541700699589, 0.18598975961024447, -1.2240766286849978
-0.9233645667085862, 0.2718647827771674, -1.2240766286849973
-0.987904990707066, 0.24728240823115985, -1.2240766286849976
-1.3466684136623375, 0.1914553474873719, -1.2240764894191818
-1.2202356975230861, 0.1681220108721242, -1.2240766395314062
-1.258461607551066, 0.231220097922693, -1.2240764287941235
-1.2440985794592083, 0.23312495628404475, -1.224076456375352
-1.2060962455530118, 0.2466492522512123, -1.2240765293509837
-1.5705037674301647, 0.20643500486377162, -1.2240761544073597
-1.4600259644377098, 0.2600310104476369, -1.224076639237692
-1.4151476997068868, 0.23241011906916936, -1.224076836185345
-1.6252745297855506, 0.24687200959621014, -1.2240761518478394
-1.3296818793263236, 0.1358098042686276, -1.216723177969318
-1.2849098806632604, 0.12829982953552055, -1.1607741876550615
-1.395985695288851, 0.12829982800582987, -1.1831423840739839
-0.7726762662842608, 0.13001722517467057, -1.2073910963843557
-0.7173803976318575, 0.13109793791898372, -1.209749516959751
-0.9079977983821821, 0.727113291384105, -1.2228054321799005
-1.1447480857706918, 0.4035379963601081, -1.224076519199455
-1.1270835804907162, 0.7190541276633776, -1.2240765600960453
-1.140205447369881, 0.33390636414168595, -1.224076529716501
-0.9363161606798484, 0.4980275337100163, -1.2240766286849976
-1.006868223153419, 0.495214687743517, -1.2240766286849976
-0.9228969398460994, 0.5390746455128678, -1.2240766286849976
-0.9393320052752734, 0.5422378154318448, -1.2240766286849976
-0.906263093545992, 0.5934041241007398, -1.2240766286849976
-0.9038579204740513, 0.5463771085199807, -1.2240766286849976
-1.0705923277212501, 0.3676816574828461, -1.2240766286849976
-0.9455954939382843, 0.4239606252044139, -1.2240766286849976
-1.0071267619654816, 0.45538193869049837, -1.2240766286849976
-0.9029355530525789, 0.7032338708620043, -1.2240766286849976
-1.0466761187111344, 0.16954646927975464, -1.2240766286849976
-0.9534711861682067, 0.20431847975316342, -1.2240766286849973
-0.9611472196491724, 0.14764228010470837, -1.2228876620550113
-1.0021000692551238, 0.1304523599770739, -1.2087831976128924
-1.131529854840864, 0.12829981744289398, -1.1879888107182912
-0.965877929344362, 0.12829983151370836, -1.1640038060831772
-1.0072329123147532, 0.12829982223570902, -1.183280657247223
-1.098988049309991, 0.12829984724521637, -0.6902171860476685
-1.0981062669379362, 0.12829984724521637, -0.7383358585850172
-1.10134638994488, 0.12829984724521637, -0.804251643298339
-1.1352220260223138, 0.12829984724521637, -0.34670905773003946
-1.1493550730543702, 0.12829984724521637, -0.35207843407272826
-0.7209049961062306, 0.12829984724521637, -0.606094457658414
-0.7046122908275834, 0.12829984724521637, -0.7363999587282886
-0.6915989283738402, 0.12829984724521637, -0.8638632611439704
-0.7458423524511292, 0.12829984129450964, -0.41799201674907205
-0.7205434916629372, 0.12829983077642648, -0.3251656292712546
-0.7321226650869777, 0.12829983559052252, -0.40076786895234656
-0.7902279892637728, 0.12829984724521637, -0.8941169069170058
-0.8134274340987847, 0.12829984724521637, -0.845130460134962
-0.7894609276384632, 0.12829984724521637, -0.7428731954927412
-0.8068632043565254, 0.12829984724521637, -0.8206242684487803
-0.826837241334979, 0.12829984724521637, -0.804096466404276
-0.7828978346139577, 0.12829984724521637, -0.7971036061531823
-0.9231244712831955, 0.12829984724521634, -0.5986821732277982
-1.04840007913952, 0.12829984724521637, -0.4062748383054936
-0.909886473221255, 0.12829984724521637, -0.5995659438440528
-1.0875225412345286, 0.12829984724521637, -0.3698726270786207
-0.9253644907533729, 0.12829984724521637, -0.5792472519612382
-1.015912398557834, 0.12829984724521637, -0.5216383669506126
-1.0752586554580006, 0.12829984724521637, -0.4400730824557171
-0.9773493218450489, 0.12829984724521637, -0.571543931404157
-0.9138425350426143, 0.12829984724521637, -0.825395007066989
-1.023805503782818, 0.12829984724521637, -0.9041942948846935
-0.968245341243298, 0.12829984724521637, -0.7587122045132358
-0.901627951870331, 0.12829984724521637, -0.8256743790133317
-0.9507704906767762, 0.12829984724521637, -0.9066716090937054
-0.9812759156021653, 0.12829984724521637, -0.8258271258128015
-0.9677905904902915, 0.12829984724521637, -0.7326343216536344
-1.0244646669112243, 0.12829984724521637, -0.8449787586799891
-0.850227173316316, 0.12829984724521637, -0.37058115960007787
-0.8271359470432129, 0.12829984724521637, -0.44262488412928686
-0.8234355147769086, 0.12829984724521637, -0.3200847343690999
-0.8415637426571798, 0.12829984724521637, -0.37274140546025136
-0.8721574186975283, 0.12829984724521637, -0.45532438285386934
-0.8964694853060025, 0.12829984724521637, -0.5943662782288573
-1.3681864629290272, 0.12829984724521637, -0.3308235195655542
-1.3911955238871934, 0.12829984724521637, -0.38555130031071155
-1.3709219687503724, 0.12829984724521637, -0.3218570910158828
-1.281520362670382, 0.12829984724521637, -0.40422811083742993
-1.2755838308986562, 0.12829984724521637, -0.33854220819292197
-1.345241010910729, 0.12829984724521634, -0.521063991466224
-1.3298977810759267, 0.12829984724521637, -0.31990071163613865
-1.3868116594203328, 0.12829984724521637, -0.35277639260957105
-1.214682946997514, 0.12829984724521637, -0.38067311553535343
-1.494041476459583, 0.128299840208132, -0.5175600137921634
-1.5343380528014, 0.1282998245227069, -0.598387041171394
-1.4915942805031255, 0.12829984314366935, -0.4936557596387213
-1.4491406567092133, 0.12829984456963, -0.5531425440879659
-1.4928510900531058, 0.12829984012562465, -0.5204013948015136
-1.4780211971303754, 0.12829984170484637, -0.5308249561034303
-1.4303650300911526, 0.12829984499848648, -0.5813843379195017
-1.431806044264922, 0.12829984249443707, -0.6937642025024784
-1.4809918893011225, 0.1282998336477083, -0.8652340426890908
-1.4708143888509557, 0.12829983547825152, -0.9054314889112176
-1.5181390719432177, 0.12829982696632478, -0.8422656035486995
-1.4207660965961564, 0.12829984448009574, -0.7654181213287616
-1.5308111654115102, 0.1282998246870871, -0.8528079067124246
-1.4440489694533922, 0.1282998402923543, -0.8800927585370408
-1.189981156207656, 0.12829984724521637, -0.7873693005327889
-1.2253319143707824, 0.12829984724521637, -0.8027812415353619
-1.195081629500971, 0.12829984724521637, -0.6357799986170791
-1.1742203891612406, 0.12829984724521637, -0.7516516131436237
-1.1826019385594555, 0.12829984724521637, -0.7896266365811482
-1.2964145313519129, 0.12829984724521637, -0.7038686320302393
-1.3283292279632555, 0.12829984724521637, -0.6346861555239797
-1.2888321855057485, 0.12829984724521637, -0.7349631046758351
-1.175048236001734, 0.12829984724521637, -0.7432733428696834
-1.2176705886671342, 0.12829984724521637, -0.6730388029844458
-1.2181415158220956, 0.12829984724521637, -0.7901741271869291
-1.1163381903775362, 0.3480270026144656, -0.580976080989802
-1.1160651528585066, 0.34802700201393705, -0.46548198118807294
-1.1460011008218016, 0.34802706785622434, -0.7344298426852491
-1.1210212810617028, 0.34802701291465143, -0.8107556326549916
-1.1203892778532079, 0.34802701145984666, -0.9150102277238092
-0.7366489335273204, 0.34802696108818054, -0.5603040735147735
-0.7246038787989709, 0.34802696108818054, -0.46493752600292304
-0.7308984643674148, 0.34802696108818054, -0.5341250272975973
-0.7656931854453752, 0.34802696108818054, -0.3920760465778454
-0.8279149204494549, 0.34802696108818054, -0.34443694194571906
-0.8360837710321793, 0.34802696108818054, -0.34332445258851635
-0.7643379883964496, 0.34802696108818054, -0.499162992850338
-0.7647201833090675, 0.34802696108818054, -0.4215795794773787
-0.7788988055626105, 0.34802696108818054, -0.465371126781629
-0.7582109295844179, 0.34802696108818054, -0.8170578673263558
-0.7172326377070379, 0.34802696108818054, -0.8165153021356176
-0.7100185241811375, 0.34802696108818054, -0.8296293600141185
-1.0198760229635384, 0.34802696108818054, -0.32508568849705627
-0.9531351381620139, 0.34802696108818054, -0.47437777443617907
-0.9914056308134316, 0.3480269610881806, -0.450118754759297
-1.0429440367864964, 0.3480269610881805, -0.3890250367116045
-0.9069185267574894, 0.34802696108818054, -0.34400377316457353
-0.974422754393935, 0.34802696108818054, -0.3930569328948462
-1.0655191530513866, 0.34802696108818054, -0.3284955987765535
-0.940968913211484, 0.34802696108818054, -0.5190948473796025
-1.0386532442285858, 0.34802696108818054, -0.7864412104466985
-0.9569962269279039, 0.3480269610881806, -0.6306891065103293
-0.9393605124781115, 0.34802696108818054, -0.6290647566250851
-1.0686421889457698, 0.34802696108818054, -0.6280867066375229
-0.9731788159797699, 0.34802696108818054, -0.715451879774701
-1.0466244625118954, 0.34802696108818054, -0.7311011624162906
-1.084521773266058, 0.34802696108818054, -0.8033524293865618
-1.0641159609705175, 0.34802696108818054, -0.6298844171363193
-0.8486874334076726, 0.34802696108818054, -0.8342407038126259
-0.8659850513838259, 0.34802696108818054, -0.8373589880921521
-0.8731479788116777, 0.34802696108818054, -0.7963705565734618
-0.8934197597165021, 0.34802696108818054, -0.8495041448455046
-0.8044089056395001, 0.34802696108818054, -0.8254756277584413
-0.895842980824516, 0.3480269610881806, -0.6205587965538479
-1.4926164903134012, 0.12829984724521637, -1.000615609546366
-1.4087313841334204, 0.12829984724521637, -0.9533056444732251
-1.4467124960759008, 0.12829984724521637, -0.9951069197610538
-1.3841562507872263, 0.12829984475088999, -1.1395618236626661
-1.3220670861578419, 0.12829983745823204, -1.1334302227590096
-0.7299997084403426, 0.12829981744289398, -1.1336831901084803
-1.0204406604184482, 0.12829982894607875, -1.1475202300955731
-0.8231083109021858, 0.12829983106112358, -1.1302878284631226
-0.7797487633935363, 0.12829982168141407, -1.14687484103762
-0.872145478749291, 0.1282998416689913, -1.1108586579509647
-1.1037080187481645, 0.34802697483521067, -0.6137183554080121
-1.1034053736437144, 0.34802697416956213, -0.7875050601065967
-0.9288868591534484, 0.34802696108818054, -0.778256682263669
-0.9517092420884596, 0.34802696108818054, -0.7921706890007785
-0.9946116432425804, 0.34802696108818054, -0.8871553635466067
-0.9344112865881951, 0.34802696108818054, -0.8801446715346306
-1.0029346982933662, 0.34802696108818054, -0.849714747969593
-0.9602508997037987, 0.34802696108818054, -0.7557271266415253
-0.9616768677189533, 0.3480269610881805, -0.758343793850246
-1.0287491431919278, 0.3480269610881806, -0.8559006026663317
-0.9096622754895481, 0.34802696108818054, -0.8908452301322798
-0.9462005614217317, 0.34802696108818054, -0.9835547368248383
-0.9310246021283946, 0.34802696108818054, -1.041252052748582
-0.9069073312652122, 0.34802696108818054, -1.0007320525174643
-0.9643626997165895, 0.34802696108818054, -1.007050290202558
-0.8612676879585905, 0.34802696108818054, -0.6218171005850642
-0.8403342442752464, 0.34802696108818054, -0.6160071651233626
-0.7854107714686805, 0.34802696108818054, -0.8541395592842296
-0.773138022024777, 0.34802696108818054, -0.8751870550026135
-0.8309950353333163, 0.3480269610881805, -0.7507716406177176
-0.7771208681242362, 0.34802696108818054, -0.9422341819401294
-0.7826598625439154, 0.34802696108818054, -0.9547346515916196
-0.775220937838711, 0.34802696108818054, -0.9518785129455902
-0.713849161354124, 0.34802696108818054, -1.0306565134081764
-0.8960029585012971, 0.34802696108818054, -0.9211652662732789
-0.7829087835693154, 0.34802696108818054, -1.0451389589015545
-0.8566035534440731, 0.34802696108818054, -0.9654129463681203
-1.0456829760572937, 0.34802696108818054, -0.9596590906781844
-0.9604177294356131, 0.3480269610881805, -0.9504734306625161
-0.9809788384021854, 0.34802696108818054, -0.9169333987273482
-1.0705676946301879, 0.3480269610881806, -1.0270148323682715
-1.4091379478789703, 0.3480269758984628, -1.0307752620245605
-1.4694134385753794, 0.3480270096771713, -0.9928519222873102
-1.2672427578012804, 0.3480270802974701, -0.7274028394990395
-1.269753708591301, 0.3480270802974701, -0.7310128236066178
-1.2418261950317253, 0.3480270802974701, -0.7751131028585949
-1.3262492252916287, 0.3480270802974701, -0.6654058436533608
-1.2084240012043426, 0.3480270802974701, -0.7100482807631199
-1.30306530135347, 0.3480270802974701, -0.7190883342330848
-1.2625698869661923, 0.3480270802974701, -0.7554865091889217
-1.1998837034009895, 0.3480270802974701, -0.831323403787803
-1.3672032564209884, 0.34802708029747015, -0.6187766513204346
-1.2328261892106804, 0.3480270802974701, -0.7554319317595419
-1.244319525678334, 0.34802708029747004, -0.7427610452625287
-1.1457243266503363, 0.3480270283530573, -0.9718776486782743
-1.3072218253749317, 0.34802705297790626, -0.9442334853490741
-1.376387762602394, 0.34802700212681303, -1.0013273181111346
-1.321799540882318, 0.3480270062116299, -0.9967386094104038
-1.399764600797532, 0.348027027343886, -0.9730173139182768
-1.3790500594084214, 0.34802702206470143, -0.9789432219438592
-1.330877859504891, 0.34802697659538645, -1.0299912607769883
-1.2314338630704942, 0.3480269883592073, -1.0167829122684064
-1.2427881847577402, 0.3480269762872847, -1.0303373233727824
-1.15371851230752, 0.34802703457941664, -0.9648866933310354
-0.7756702739599922, 0.7486170228012883, -1.1591876866122768
-0.8814537971876863, 0.7490547299385071, -1.1745862133894789
-1.1819929703936216, 0.7490547299385071, -1.1706279074852008
-1.3426065940130654, 0.7479568478453259, -1.1922854154573537
-1.1063581661879918, 0.36351486901347274, -1.2240766080792054
-1.1023355686388623, 0.3556712812331017, -1.2240766173922613
-1.1139272811096785, 0.5182166173500496, -1.224076590555307
-1.0866260818381233, 0.5055625616933854, -1.2240766286849976
-1.0635317315533066, 0.42641830022496063, -1.2240766286849976
-1.0420657113115077, 0.5153511372660043, -1.2240766286849976
-1.0228583297370597, 0.5893808032277966, -1.2240766286849976
-1.0301884636068286, 0.6731997222951829, -1.2240766286849976
-1.027952568628562, 0.524530548836311, -1.2240766286849976
-1.0793684383764859, 0.5334040194679406, -1.2240766286849976
-0.9672874841642847, 0.6189847366517576, -1.2240766286849978
-1.0578630337207926, 0.4291289512144213, -1.2240766286849976
-1.0557302894820288, 0.7042352209176677, -1.2240766286849976
-0.9430338629285311, 0.34107433096093004, -1.2240766286849978
-1.0151062843833438, 0.330699555335831, -1.2240766286849976
-1.0868964202259863, 0.12829984058317148, -1.0781380773483218
-1.031852009902271, 0.1282998272416888, -1.122187005438504
-0.9576856118140902, 0.12829983831909358, -1.1287707766163535
-1.2594129662959088, 0.12829984724521634, -0.7949802064570732
-1.3561578145782365, 0.12829984724521637, -0.778919777103042
-1.2854001605964536, 0.12829984724521637, -0.8435732630255812
-1.3382605225713515, 0.12829984724521637, -0.7931015336758453
-1.3520931956890028, 0.12829984724521637, -0.6923397366069304
-1.2240255776346085, 0.12829984724521637, -0.8326866066762053
-1.3453941265277518, 0.12829984724521637, -0.9130047806981046
-1.1833427750452603, 0.12829984724521637, -0.9089185636229811
-1.3342232416800073, 0.12829984724521637, -0.8051717048022118
-1.3653170250643565, 0.12829984724521637, -0.8431716212016811
-1.3847252586682366, 0.12829984724521637, -0.7488857042867794
-1.1871060201043544, 0.12829984724521637, -1.0408741908328887
-1.1642621666222204, 0.12829984724521637, -0.9366923860002526
-1.2191052970866512, 0.12829984724521637, -0.9886347391343684
-1.2861436070763657, 0.12829984724521637, -1.050886643441917
-1.1656945954571485, 0.12829984724521637, -1.016050962527201
-1.1329677966611533, 0.12829984724521637, -0.9214559612308625
-1.4064309561693655, 0.6001966533504529, -1.2231575399968448
-1.0005050947679561, 0.1394676183829122, 0.32877803607336314
-0.8434758802684539, 0.18608967975529916, 0.33539068139540684
-0.8612238071206538, 0.197441832877872, 0.33587223095966207
-1.0759395274734076, 0.17679147821473698, 0.33499628545858195
-1.0838675754227913, 0.1768885590467741, 0.33500040473658943
-1.0363515613445327, 0.14987411083622224, 0.33294204149395545
-1.2308225552038496, 0.16786293817207099, 0.3346175469026016
-1.3585491033319839, 0.17604173510908352, 0.3349644851493487
-1.0281141742758382, 0.16245228421952349, 0.33435055536075875
-1.0163733558097074, 0.14222604010064166, 0.33062118123713824
-1.2372025215590752, 0.13292482931799954, 0.3220943033653264
-1.3780893804210748, 0.12829984724521637, 0.2995678716394091
-1.5419732700597975, 0.12829982798834602, 0.29033994779449535
-1.316035414073074, 0.14811702300567106, 0.33259253705534386
-0.7340550613046352, 0.34802696108818054, 0.2876963043425387
-1.0825551244435743, 0.3505842200437003, 0.31870797826478625
-0.9893368721980855, 0.3297856308203943, 0.33299833531125506
-0.6974292472306745, 0.30645588895712117, 0.3346062906060251
-0.7779711657742779, 0.2815132185565099, 0.3360173922446725
-1.3553885843410072, 0.3485109404705359, 0.317219903923179
-1.3796653613256284, 0.34992816927750603, 0.3070155572155555
-1.5037889467858987, 0.34182985734392446, 0.32538146831349707
-1.3029085602274808, 0.3510144199299454, 0.293417964175097
-1.4340079788343947, 0.3485865692989193, 0.31194754161422
-0.7982003843145469, 0.7322861186382595, -1.2212392606736446
-1.0213007102212046, 0.7442048299705097, -1.209078856294917
-0.7805845052370617, 0.7490547299385071, -1.1752787871142498
-0.9866939700974998, 0.7490547299385071, -1.1704534822217834
-0.7687285661006898, 0.7487611115336111, -1.1841527300295207
-0.8080539110380227, 0.7454495533347839, -1.2054839334134668
-0.8963254105095145, 0.15680619399209228, -1.2234666886099044
-1.3586564222057622, 0.7406696284948908, -1.214369641848609
-1.1417598606190278, 0.16784818536582566, -1.2240765261177473
-1.4281947971009648, 0.7482871157482291, -1.156178667621815
-1.3532111713545618, 0.7438847231677814, -1.1347773048533383
-1.535131401491078, 0.7317897118845914, -1.1217867033990645
-1.4263701979167092, 0.6773444411544136, -1.1096975368844195
-1.5354090192598655, 0.5557493023121105, -1.0866963219104155
-1.5257136105705142, 0.6197361391463355, -1.0988003451561643
-1.4988146572789374, 0.5988041560128166, -1.0948406820022356
-1.4863619289581784, 0.6822643137171345, -1.110628362277994
-1.4457627427924873, 0.6748717411125376, -1.1092298408914387
-1.4317142946869654, 0.7077610619434318, -1.1154513011668419
-1.4156416281036177, 0.3666645388219439, -1.0509282777046398
-1.4509984836929954, 0.4066820969402106, -1.058498103535904
-1.4537182482882933, 0.46017496285698656, -1.0686169916783992
-1.422216866349532, 0.4404189506533486, -1.0648799047487005
-1.4461608400014698, 0.48078546071235884, -1.0725157492102522
-1.4188439116060088, 0.635281456513478, -1.1017407547035407
-1.467171677130248, 0.48704410904302986, -1.0736996383102502
-1.35886709900596, 0.7079910250768169, -1.1154947793376306
-1.155611497749625, 0.6398620042058694, -1.1026073805272754
-1.202175019326639, 0.4400790829418544, -1.0648159023237098
-1.3205845616504344, 0.6856622647103464, -1.1112710247125754
-1.2212292345711098, 0.629216188710108, -1.1005935687343336
-1.153767103744992, 0.37412487228385927, -1.0523398460203197
-1.2420428506067414, 0.6711504898753093, -1.1085259647210415
-1.1840278438453065, 0.524908367978028, -1.0808624389883998
-1.2138925799167732, 0.5860028447265294, -1.0924192212634265
-1.1646015301269284, 0.514269252080623, -1.0788499221429246
-1.1633712382982488, 0.5537962104933689, -1.0863269460030007
-1.1548928230358397, 0.44088131480413584, -1.0649676699773392
-1.3181638414929033, 0.6243654425586807, -1.0996759573311274
-1.2686996276787816, 0.5489924522260201, -1.0854182202241494
-1.132555096972677, 0.7490547299385071, -1.1799258648792372
-0.942409651208642, 0.746728241406319, -1.1437312084588211
-1.0080452656996304, 0.745088840424308, -1.137296500705804
-1.353053023922966, 0.3789316847056881, -1.0532488547719554
-1.348566310430288, 0.4104696430486032, -1.059214687383131
-1.3927695225962788, 0.5210169086068417, -1.0801261176919952
-1.3668601533677698, 0.6487572050789346, -1.1042899383828424
-1.346663620477901, 0.5032364086477967, -1.0767627634939665
-1.3347984590335409, 0.5086915835242772, -1.0777946994470944
-1.3155255901191185, 0.4645183298737151, -1.069438765361038
-1.3875957053340542, 0.4168394251790899, -1.0604195617874146
-1.332533534434723, 0.5327445704797249, -1.0823446465612006
-1.2490232698384007, 0.40929800851526754, -1.0589931973550564
-1.2472818344590382, 0.36170638003693156, -1.0499906072781098
-1.3052536773670913, 0.3598280100410577, -1.0496352067825632
-1.2558982519362845, 0.43963866139509766, -1.0647325276235522
-1.359171411095009, 0.367352385005039, -1.051058466866607
-1.1442481916608984, 0.4685463204709165, -1.070200804831162
-1.1304280665879523, 0.44176107306183354, -1.0651339409630398
-0.9592648379255169, 0.40790636855655704, -1.0587296486492672
-1.0433610672659166, 0.41966893994937093, -1.0609546366709233
-1.0010554299203196, 0.3683993644742741, -1.0512563744917016
-1.079527824929237, 0.5929761145681988, -1.093737855938766
-1.0722399662327158, 0.43182987855869626, -1.063255014326431
-1.0342642184990471, 0.4002117818349068, -1.0572740749541354
-1.0689200208703507, 0.3594646246840692, -1.0495662145001778
-1.0469849319112434, 0.607004746621641, -1.0963915686013626
-1.0593765169171576, 0.36254980741929327, -1.0501498215645118
-1.0134956118486853, 0.5667404622334616, -1.0887750909025777
-1.0561914669225563, 0.5055866982965178, -1.0772070581436837
-0.8903984842453156, 0.49729299228835605, -1.0756382947491283
-0.8411278287373379, 0.37086116682150466, -1.0517221179648117
-0.8764537678411923, 0.5894110665684654, -1.0930635920694738
-0.8420348698505062, 0.49754074524087505, -1.0756851603495372
-0.8662164870464415, 0.5159711544095046, -1.079171505043657
-0.8536935205669969, 0.4303730933620401, -1.062979550582455
-0.8579280585519715, 0.3789000900334946, -1.0532427818323433
-0.8464924275703154, 0.7393051979545224, -1.127457791469938
-0.7989851608379087, 0.12829984724521637, 0.038965774668362395
-0.8180153792401346, 0.12829984724521637, -0.07501806605664328
-0.7728855979874456, 0.12829984724521637, 0.11240170294442173
-0.7743732221419388, 0.12829984724521637, 0.14662802378819476
-0.8558886373166334, 0.12829984724521637, -0.060531436048966845
-0.7842370507163487, 0.12829984724521637, -0.027921288200981706
-0.8560705318536521, 0.12829984724521634, -0.07789118265514819
-0.8405868571914661, 0.12829984724521637, 0.2772893665906369
-0.8667218092628782, 0.12829984724521637, 0.2833032783433648
-1.009183780616174, 0.12829984724521637, 0.24919380718318593
-1.0521794546309664, 0.12829984724521637, 0.2534336583970409
-0.921367528190278, 0.12829984724521637, -0.11480591444321289
-0.9905256079703972, 0.12829984724521637, 0.1353179819033501
-0.9400009030445101, 0.12829984724521637, 0.11061839240031837
-0.901574357297541, 0.12829984724521637, 0.13243425205353326
-1.0573567717672572, 0.12829984724521637, 0.17163260189972487
-1.0581905946501564, 0.12829984724521637, 0.2175415549891389
