-0.8424346363013636, 0.007874869741499424, 0.596101913305549
-0.7701836373111619, 0.007874869741499424, 0.5863041781173131
-0.8531117939996994, 0.007874869741499424, 0.593959382377919
-0.6599173997906169, 0.007874869741499424, 0.41249185112301856
-0.7174173455211532, 0.007874869741499424, 0.39409007998361456
-0.6491679325561351, 0.007874869741499424, 0.49797461645381685
-0.6399799997968603, 0.007874869741499424, 0.42402556006583164
-0.7116847834824502, 0.007874869741499424, 0.39815093503893106
-0.6546553762538309, 0.007874869741499424, 0.3893682024577214
-0.7050333817153416, 0.007874869741499424, 0.4263628692573407
-0.646365704749612, 0.007874869741499424, 0.440750278890241
-0.6459731528422336, 0.007874869741499424, 0.40752122008435754
-0.6315781008271559, 0.007874869741499424, 0.40209331356617883
-0.6108463450320462, 0.007874869741499424, 0.4194461173712192
-0.6437999275900826, 0.007874869741499424, 0.5027186400022309
-0.6591258472275363, 0.007874869741499424, 0.4791824305196162
-0.6299849820573487, 0.007874869741499424, 0.4101348566176945
-0.6511945906053885, 0.007874869741499424, 0.5065116006889722
-0.6082611554514761, 0.007874869741499424, 0.4981774243407993
-0.65844778092999, 0.007874869741499424, 0.41462372020787486
-0.6692431638432565, 0.007874869741499424, 0.4350085270407152
-0.6150874822151077, 0.007874869741499424, 0.4408052838663657
-0.7802230927124563, 0.007874869741499424, 0.36533426933895463
-0.8662775963705891, 0.007874869741499424, 0.34406164155269814
-0.8224251031424508, 0.007874869741499424, 0.3042843217813019
-0.8022833302664097, 0.007874869741499424, 0.34214675102719627
-0.8766915333968108, 0.007874869741499424, 0.3529960301608971
-0.8264215205044934, 0.007874869741499424, 0.3632209902683906
-0.8748527570260498, 0.007874869741499424, 0.3377759424481558
-0.8923060853747887, 0.007874869741499424, 0.3243653609943099
-0.8144998092339456, 0.007874869741499424, 0.3458429176188431
-0.8519093177232928, 0.007874869741499424, 0.3496483647826185
-0.8994098467867842, 0.007874869741499424, 0.3414191336630253
-0.9070969949647774, 0.007874869741499424, 0.2520004958444351
-0.8979891251847587, 0.007874869741499424, 0.34748885231337495
-0.8667853295724789, 0.007874869741499424, 0.24106511675182957
-0.8693299293791822, 0.007874869741499424, 0.2709017652155188
-0.7957302673333095, 0.007874869741499424, 0.3376182161340306
-0.8768226784287931, 0.007874869741499424, 0.3635309689417581
-0.7770102715553782, 0.007874869741499424, 0.36213636001858807
-0.8828735831229251, 0.007874869741499424, 0.3512251749458335
-0.6751530939832289, 0.007874869741499424, 0.6089596473105126
-0.6682097649405077, 0.007874869741499424, 0.5737103948640192
-0.6919357417311437, 0.007874869741499424, 0.6001274582413216
-0.6569316146400521, 0.007874869741499424, 0.569260261332313
-0.7258887699770896, 0.007874869741499422, 0.5793803791270291
-0.6972174987881625, 0.007874869741499424, 0.5748462224767711
-0.7130735942404962, 0.007874869741499424, 0.5649553454898792
-0.7252741290341935, 0.007874869741499424, 0.5843387992288341
-0.6064104848457389, 0.007874869741499424, 0.564739225542333
-0.8279546191038838, 0.007874869741499424, 0.5401776977209274
-0.8487853727580508, 0.007874869741499424, 0.5400359219599635
-0.8849874493465797, 0.007874869741499424, 0.4212663226280716
-0.8831929069489605, 0.007874869741499424, 0.5432151095727435
-0.8929952622079798, 0.007874869741499424, 0.514910922142803
-0.8784584252671737, 0.007874869741499424, 0.5435079148375246
-0.8919268291195055, 0.007874869741499424, 0.422206327071381
-0.8379671001876458, 0.007874869741499424, 0.5366171644677551
-0.8734229596501886, 0.007874869741499424, 0.4344502060564813
-0.8821658573621567, 0.007874869741499424, 0.43630044480016905
-0.8766393892435645, 0.007874869741499424, 0.428588956240736
-0.8358464274256777, 0.007874869741499424, 0.48885758323337825
-0.8676602666672218, 0.007874869741499424, 0.5161969702034173
-0.8828069862113217, 0.007874869741499424, 0.5394678367472339
-0.8915828819237523, 0.007874869741499424, 0.4306333928109457
-0.8283306842332574, 0.007874869741499424, 0.5078547386389168
-0.8536616303912026, 0.007874869741499424, 0.5394194117978981
-0.8020899691878831, 0.007874869741499424, 0.5580383147037788
-0.8743282180929763, 0.007874869741499424, 0.4994563131169532
-0.9012202713744524, 0.007874869741499424, 0.5190718034123208
-0.8447843583833283, 0.007874869741499424, 0.39701225001460455
-0.7833825704060016, 0.007874869741499424, 0.423481288894175
-0.8224480845542215, 0.007874869741499424, 0.41284484652990355
-0.7964897282774644, 0.007874869741499424, 0.5095965874713578
-0.8046064025128388, 0.007874869741499424, 0.38515802895113727
-0.8356261729590289, 0.007874869741499424, 0.4230727657396106
-0.8353968404669488, 0.007874869741499424, 0.4096783390582748
-0.799705213909377, 0.007874869741499424, 0.41448625951472473
-0.8782352783483051, 0.007874869741499424, 0.4061245564935285
-0.757529264477558, 0.007874869741499424, 0.38212126420628567
-0.7897537024160943, 0.007874869741499424, 0.5111205486274124
-0.7591902359154689, 0.007874869741499424, 0.4181033410527515
-0.7862615174451237, 0.007874869741499424, 0.40436194756361454
-0.7998192029616692, 0.007874869741499424, 0.510146657699712
-0.7968710187926695, 0.007874869741499424, 0.3853656827696059
-0.7659374425576249, 0.007874869741499424, 0.46520899160020857
-0.7677303026300304, 0.007874869741499424, 0.5178424511195947
-0.7704937660918229, 0.007874869741499424, 0.394671572409119
-0.8848633248180209, 0.007874869741499424, 0.37910406243313083
-0.31156220745949936, 0.007874869741499424, 0.7003004885590564
-0.3433795144685023, 0.007874869741499424, 0.6820203878375355
-0.3209194843483788, 0.007874869741499424, 0.6717640953152677
-0.3990244721429039, 0.007874869741499424, 0.6918691066782348
-0.3398199632115902, 0.007874869741499424, 0.6915771976400674
-0.283458025973904, 0.007874869741499424, 0.6138091355052196
-0.2115844765362283, 0.007874869741499424, 0.5713805533461822
-0.296622239101548, 0.007874869741499424, 0.6439672526165766
-0.277206551980579, 0.007874869741499424, 0.5697042761778031
-0.2646089194233302, 0.007874869741499424, 0.6187909471712489
-0.211007813049696, 0.007874869741499422, 0.571520623457596
-0.20811816431737212, 0.007874869741499424, 0.5876689630165236
-0.19084673509898395, 0.007874869741499424, 0.5840597652819621
-0.29711589056159726, 0.007874869741499424, 0.6406331120730981
-0.03694598970068018, 0.007874869741499424, 0.5824553904793317
-0.1240879201454638, 0.007874869741499424, 0.6166450237624911
-0.04692356947262452, 0.007874869741499424, 0.5706467282492298
-0.12061399699325195, 0.007874869741499424, 0.5940063340498563
-0.13331609531916444, 0.007874869741499424, 0.5698378038108803
-0.14959782895062326, 0.007874869741499424, 0.6103857957067931
-0.13222159048351134, 0.007874869741499424, 0.5690097864290143
-0.11305016215599534, 0.007874869741499424, 0.5629806514888998
-0.08567803945680372, 0.007874869741499424, 0.611323761009303
-0.11502847158165713, 0.007874869741499424, 0.6324422159417536
-0.24645841605165095, 0.007874869741499424, 0.6998466790431535
-0.17595609020012518, 0.007874869741499424, 0.6678686635054363
-0.15188660562177891, 0.007874869741499424, 0.6738857178598672
-0.22844438027400557, 0.007874869741499424, 0.7003206100515886
-0.24395869378358398, 0.007874869741499424, 0.6990851935525694
-0.3561195455996996, 0.007874869741499424, 0.7212012646148789
-0.3710021420785662, 0.007874869741499424, 0.7173279044218628
-0.28719658662273606, 0.007874869741499424, 0.6874829502914909
-0.2693516771438965, 0.007874869741499424, 0.6569782152621221
-0.2736730880546916, 0.007874869741499424, 0.6632048386242797
-0.18834013683500328, 0.007874869741499424, 0.6568797437811361
-0.2924360750313521, 0.007874869741499424, 0.6828142728286593
-0.19479714508280926, 0.007874869741499424, 0.7209088327371943
-0.18381388900109058, 0.007874869741499424, 0.7225267689940814
-0.051505491634743564, 0.007874869741499424, 0.6590299485810928
-0.11944401787259225, 0.007874869741499424, 0.6576637250584296
-0.0845658307336339, 0.007874869741499424, 0.6642196356508661
-0.12716370187120582, 0.007874869741499424, 0.6732682119643596
-0.05231822435950988, 0.007874869741499424, 0.6608963148680469
-0.33816525638643896, 0.007874869741499424, 0.7439971869735282
-0.3926115097985458, 0.007874869741499424, 0.7508784670810982
-0.2943775019777116, 0.007874869741499424, 0.7177698048608839
-0.29824933993191616, 0.007874869741499424, 0.7108676436532076
-0.21541002769074735, 0.007874869741499424, 0.7091539876031703
-0.07678133489347201, 0.007874869741499424, 0.7077353058783555
-0.0409857595057635, 0.007874869741499424, 0.7045245804290414
-0.1945363306270143, 0.007874869741499424, 0.741761468505441
-0.2612562824224298, 0.007874869741499424, 0.7456656459805215
-0.2573339343701284, 0.007874869741499424, 0.7452877240254808
-0.29370751893616115, 0.007874869741499424, 0.7465429023619834
-0.22459268899618215, 0.007874869741499424, 0.7349913813824231
-0.1347951315139746, 0.007874869741499424, 0.7294333351996225
-0.11123626757153612, 0.007874869741499424, 0.737485295912102
-0.07001263524626528, 0.007874869741499424, 0.7378780814972452
-0.2834429599038869, 0.007499487282452572, 0.7528128253307687
-0.05628121960366717, 0.005512590118120268, 0.7560806956822954
-0.2484145088041379, 0.005031073434831572, 0.7564133814520566
-0.2021123122579737, 0.001587112066905455, 0.7576502816851489
-0.25945396251252995, 0.000526061474393164, 0.7572632408606691
-0.09252849110528025, 1.199999957179898e-07, 0.7483381829476673
-0.026801395244657904, 1.199999957179898e-07, 0.7367257593386256
-0.0062754792088923666, 1.199999957179898e-07, 0.7522915119736522
-0.17406789131615624, 1.199999957179898e-07, 0.7415484360199354
-0.22365857220357688, 1.199999957179898e-07, 0.7432810047690057
-0.017011476814423627, 1.199999957179898e-07, 0.7224496053508618
-0.016627404952147304, 1.199999957179898e-07, 0.7299980838956649
-0.08849146366674562, 1.199999957179898e-07, 0.7261523568925669
-0.24809908357742777, 1.199999957179898e-07, 0.7440134305078249
-0.1938986317315865, 1.199999957179898e-07, 0.7313201614421428
-0.44704009890017404, 1.199999957179898e-07, 0.7377687293315556
-0.33343329257715054, 1.199999957179898e-07, 0.7328589121859045
-0.3489930018133654, 1.199999957179898e-07, 0.734904742059415
-0.1899772042334456, 1.199999957179898e-07, 0.7208000083733868
-0.21510060528771185, 1.199999957179898e-07, 0.7261128299085675
-0.07491014348133701, 1.199999957179898e-07, 0.6963824342696855
-0.09532593619877335, 1.199999957179898e-07, 0.7025168850153107
-0.08852260302611369, 1.199999957179898e-07, 0.6900953907242248
-0.09110551054603012, 1.199999957179898e-07, 0.6943803248588134
-0.009298166178633311, 1.199999957179898e-07, 0.7031521312474344
-0.27411188821401206, 1.199999957179898e-07, 0.7188709140102577
-0.3007696547356071, 1.199999957179898e-07, 0.7280620103086111
-0.428630308903492, 1.199999957179898e-07, 0.725353263192238
-0.4335439793228767, 1.199999957179898e-07, 0.7150589015541586
-0.3915338815129825, 1.199999957179898e-07, 0.7127606106222903
-0.207486456264861, 1.199999957179898e-07, 0.7014810809202278
-0.15314244310589725, 1.199999957179898e-07, 0.6748444850511592
-0.2073667496325452, 1.199999957179898e-07, 0.698904253482693
-0.17087076982119606, 1.199999957179898e-07, 0.7059766982058681
-0.19782220258638872, 1.199999957179898e-07, 0.7011467137245038
-0.2874910159433802, 1.199999957179898e-07, 0.6635645934044583
-0.2755246761156125, 1.199999957179898e-07, 0.6967894696261203
-0.29882520931453094, 1.199999957179898e-07, 0.6850816046935881
-0.29680544876152726, 1.199999957179898e-07, 0.6801530513724353
-0.28559583805995614, 1.199999957179898e-07, 0.6859184974201393
-0.041832897919364745, 1.199999957179898e-07, 0.6347342291871655
-0.008059080182656738, 1.199999957179898e-07, 0.6369551748353355
-0.02279344364826963, 1.199999957179898e-07, 0.6096887344740538
-0.028296811786032987, 1.199999957179898e-07, 0.5926463465704779
-0.0749342285103088, 1.199999957179898e-07, 0.6341565672850475
-0.05142570584014955, 1.199999957179898e-07, 0.6137401025541084
-0.014304562610274124, 1.199999957179898e-07, 0.626354547942654
-0.048019151851350854, 1.199999957179898e-07, 0.6309563946711756
-0.04942866772267157, 1.199999957179898e-07, 0.6344088777206549
-0.4152861957192451, 1.199999957179898e-07, 0.6682482709300519
-0.37622972095946894, 1.199999957179898e-07, 0.6661920047511057
-0.4438101461035001, 1.199999957179898e-07, 0.6592886819311861
-0.44846754399310484, 1.199999957179898e-07, 0.698655564151225
-0.3194602211725824, 1.199999957179898e-07, 0.6613190162672326
-0.16697731437478733, 1.199999957179898e-07, 0.5833381417975696
-0.2589220299071661, 1.199999957179898e-07, 0.643798687881375
-0.16451453553132955, 1.199999957179898e-07, 0.6528947122322286
-0.18176296807782222, 1.199999957179898e-07, 0.6328166955097871
-0.24589073315311527, 1.199999957179898e-07, 0.6510374332045592
-0.22239031404770815, 1.199999957179898e-07, 0.6529859654668582
-0.15296485241604837, 1.199999957179898e-07, 0.6267398173176657
-0.15632664863687035, 1.199999957179898e-07, 0.5859067958977396
-0.19742955602347528, 1.199999957179898e-07, 0.639653330176575
-0.16649494324070563, 1.199999957179898e-07, 0.5861251362179738
-0.05395237369040494, 1.199999957179898e-07, 0.5336617678387001
-0.026650323714487525, 1.199999957179898e-07, 0.5199259741068831
-0.007861771945534552, 1.199999957179898e-07, 0.4857784620056062
-0.001898238616510472, 1.199999957179898e-07, 0.4396559912869549
-0.053406437959748886, 1.199999957179898e-07, 0.5081285025496913
-0.0002481197143127913, 1.199999957179898e-07, 0.38873343168148927
-0.015385213361026514, 1.199999957179898e-07, 0.5631847494770585
-0.001049420405901588, 1.199999957179898e-07, 0.48661516808447836
-0.01814409150789239, 1.199999957179898e-07, 0.5077048931901484
-0.01435505139729772, 1.199999957179898e-07, 0.5026930589550969
-0.046323258778934985, 1.199999957179898e-07, 0.5062084163760491
-0.09724707324693604, 1.199999957179898e-07, 0.5589649398380696
-0.10475211790654562, 1.199999957179898e-07, 0.5209091259252996
-0.12732480487512424, 1.199999957179898e-07, 0.5545207215556781
-0.017590649499709378, 1.199999957179898e-07, 0.5369416995868266
-0.00043963539516677226, 1.199999957179898e-07, 0.4930056292123052
-0.11580338171522125, 1.199999957179898e-07, 0.532306428302389
-0.007514482367024545, 1.199999957179898e-07, 0.5185957446274445
-0.015601798505781209, 1.199999957179898e-07, 0.4163375866635717
-0.23045740833188805, 1.199999957179898e-07, 0.5934519187234766
-0.2560314537831489, 1.199999957179898e-07, 0.5860157753003566
-0.24668991593847966, 1.199999957179898e-07, 0.5850536986185028
-0.3012579332814894, 1.199999957179898e-07, 0.6195782228882146
-0.2952864108911214, 1.199999957179898e-07, 0.6455165844323995
-0.28449746274677495, 1.199999957179898e-07, 0.6101300449614241
-0.2753837547678975, 1.199999957179898e-07, 0.6080352145990139
-0.297030824606568, 1.199999957179898e-07, 0.5821171909765123
-0.2139854312822064, 1.199999957179898e-07, 0.5976979830791301
-0.2922015286790941, 1.199999957179898e-07, 0.629002815753444
-0.40478747133858045, 1.199999957179898e-07, 0.5744351371704022
-0.4117731069674324, 1.199999957179898e-07, 0.5878916476403906
-0.45430683808630173, 1.199999957179898e-07, 0.5947682115855981
-0.39587085527182375, 1.199999957179898e-07, 0.5848930660451823
-0.3685074832738656, 1.199999957179898e-07, 0.5892238916209982
-0.41497747733380563, 1.199999957179898e-07, 0.6314250638790477
-0.402113421200432, 1.199999957179898e-07, 0.5738538744906155
-0.4202615301615603, 1.199999957179898e-07, 0.6204481423039994
-0.3726407087074515, 1.199999957179898e-07, 0.583161876753842
-0.18166191473211393, 1.199999957179898e-07, 0.4247681863082877
-0.22231795241718003, 1.199999957179898e-07, 0.5325677000448708
-0.1824180934278393, 1.199999957179898e-07, 0.4736217599125649
-0.17332152061762146, 1.1999999571798978e-07, 0.44566000768056135
-0.18978951548435238, 1.199999957179898e-07, 0.47783826050745387
-0.2757551942478123, 1.199999957179898e-07, 0.5454146047469687
-0.2125742652702249, 1.199999957179898e-07, 0.4698537715617719
-0.1692854178418493, 1.199999957179898e-07, 0.503527279917362
-0.2223239111978841, 1.199999957179898e-07, 0.5006897293479526
-0.2142060799915625, 1.199999957179898e-07, 0.5266575182294588
-0.1548944795760846, 1.199999957179898e-07, 0.5324225067910915
-0.2459434460075277, 1.199999957179898e-07, 0.5370125110488452
-0.15649458738229138, 1.199999957179898e-07, 0.43013966927459646
-0.20636454920701258, 1.199999957179898e-07, 0.5561795085804015
-0.16330330649776278, 1.199999957179898e-07, 0.3945810988425939
-0.15516702447027633, 1.199999957179898e-07, 0.3875476611060547
-0.1864433934410032, 1.199999957179898e-07, 0.5475623456293549
-0.16849028220562268, 1.199999957179898e-07, 0.517556054954899
-0.1698514796320088, 1.199999957179898e-07, 0.46386004559992333
-0.16858690081513467, 1.199999957179898e-07, 0.47483419115520664
-0.05529738024312719, 1.199999957179898e-07, 0.3269036503025041
-0.07207086601257626, 1.199999957179898e-07, 0.35979546366975185
-0.03265212832403831, 1.199999957179898e-07, 0.35519044033227054
-0.025823022256178885, 1.199999957179898e-07, 0.367012259688925
-0.060199116905324895, 1.199999957179898e-07, 0.3373821939982222
-0.12007988138819942, 1.199999957179898e-07, 0.34539395369356163
-0.12057144504583843, 1.199999957179898e-07, 0.3570330120686182
-0.10121238101665479, 1.199999957179898e-07, 0.35559503586046637
-0.04663841459967132, 1.199999957179898e-07, 0.2919270495597384
-0.016614902077743538, 1.199999957179898e-07, 0.28960094262739916
-0.05182980317379708, 1.199999957179898e-07, 0.35494917912333324
-0.03858283946384165, 1.199999957179898e-07, 0.291822903699478
-0.06887685771024958, 1.199999957179898e-07, 0.3151338097351931
-0.0394398262751017, 1.199999957179898e-07, 0.2577582440961412
-0.014422970842879627, 1.199999957179898e-07, 0.24789198172678284
-0.022068053420258207, 1.199999957179898e-07, 0.26561858965803603
-0.06861625467868625, 1.199999957179898e-07, 0.3518557038952387
-0.06733001539776085, 1.199999957179898e-07, 0.36332311850861243
-0.0799868721925198, 1.199999957179898e-07, 0.29226826731019656
-0.25920720596236313, 1.199999957179898e-07, 0.40921690394220334
-0.23589441862354932, 1.199999957179898e-07, 0.4173700898557338
-0.29102972241571723, 1.199999957179898e-07, 0.4845900013717438
-0.2990740617853138, 1.199999957179898e-07, 0.3782271155250784
-0.22704286372617302, 1.199999957179898e-07, 0.42837939653480994
-0.22049343342324562, 1.199999957179898e-07, 0.4074574942618824
-0.2996675109218152, 1.199999957179898e-07, 0.4061579866795447
-0.17503319840992346, 1.199999957179898e-07, 0.37728954151572747
-0.24397723054573328, 1.199999957179898e-07, 0.4393859173207685
-0.2360986409325802, 1.199999957179898e-07, 0.4324149063960348
-0.23346666373747368, 1.199999957179898e-07, 0.47043599590870494
-0.2178915198594296, 1.199999957179898e-07, 0.39423094248136653
-0.2686576403989298, 1.199999957179898e-07, 0.5062867077497275
-0.26859954219655774, 1.199999957179898e-07, 0.40995045667928964
-0.2993403010396013, 1.199999957179898e-07, 0.5454265793685898
-0.24444151717250492, 1.199999957179898e-07, 0.41231235206559197
-0.2639781288784997, 1.199999957179898e-07, 0.42852403760476787
-0.2073167299997275, 1.1999999571798983e-07, 0.4448788411357941
-0.27183772296993186, 1.199999957179898e-07, 0.3975322068047465
-0.3357261447135872, 1.1999999571798983e-07, 0.41340568437521164
-0.44881441274297296, 1.199999957179898e-07, 0.3823837722184165
-0.3548922516225578, 1.199999957179898e-07, 0.42780642629605503
-0.418975820350113, 1.199999957179898e-07, 0.47496954983379797
-0.43603961021768717, 1.199999957179898e-07, 0.400402069798402
-0.40416149872062573, 1.199999957179898e-07, 0.46177590933874546
-0.4325808316925748, 1.199999957179898e-07, 0.48880866207512286
-0.43789764572662865, 1.199999957179898e-07, 0.3889605499744019
-0.3563617792119699, 1.199999957179898e-07, 0.395467901013554
-0.43913964531990646, 1.199999957179898e-07, 0.41317170782489643
-0.37668346410485654, 1.199999957179898e-07, 0.45048056867512
-0.32300263558697073, 1.199999957179898e-07, 0.3918044452443743
-0.39607296816969295, 1.199999957179898e-07, 0.47853696790439476
-0.40774984665611574, 1.199999957179898e-07, 0.4400547185836017
-0.4334001244859341, 1.199999957179898e-07, 0.4924046303516696
-0.32262553535460503, 1.199999957179898e-07, 0.39119970623518835
-0.43297760975558064, 1.1999999571798983e-07, 0.49187207990128884
-0.4166970013405782, 1.199999957179898e-07, 0.4616301875335846
-0.4391873351255176, 1.199999957179898e-07, 0.3824829324274167
-0.18465444181348523, 1.199999957179898e-07, 0.3543511212266202
-0.233718974543869, 1.199999957179898e-07, 0.36597577470415027
-0.27498730617981537, 1.199999957179898e-07, 0.36199943750591523
-0.22407233681565092, 1.199999957179898e-07, 0.33778414764166953
-0.16625626219720835, 1.199999957179898e-07, 0.23391317534140485
-0.17039210478068378, 1.199999957179898e-07, 0.2700401483337881
-0.2301957209918516, 1.199999957179898e-07, 0.34203608687017906
-0.15589706638152473, 1.199999957179898e-07, 0.31654074484480516
-0.19194632476073725, 1.199999957179898e-07, 0.23975352066548644
-0.16212257384703216, 1.199999957179898e-07, 0.26529997185165727
-0.17537649183232626, 1.199999957179898e-07, 0.28476560467847334
-0.21964223234318092, 1.199999957179898e-07, 0.35801780201323863
-0.1573067177752865, 1.199999957179898e-07, 0.3463448498415158
-0.18529964562594517, 1.199999957179898e-07, 0.25579681126871906
-0.1729616374511012, 1.199999957179898e-07, 0.3346305700412756
-0.20781691852167816, 1.199999957179898e-07, 0.33381299160595324
-0.16300194906641152, 1.199999957179898e-07, 0.2934680132607862
-0.16928819078758933, 1.199999957179898e-07, 0.2745304049875217
-0.16549343447769674, 1.199999957179898e-07, 0.28380355861936435
-0.0063685749275705274, 1.199999957179898e-07, 0.17323274231477492
-0.005290330626003335, 1.199999957179898e-07, 0.10846348540614434
-0.0564578211197434, 1.199999957179898e-07, 0.10090557766814398
-0.09170377515637222, 1.199999957179898e-07, 0.1518751220655919
-0.052961885812831136, 1.199999957179898e-07, 0.1662150033130813
-0.0019935854180527924, 1.199999957179898e-07, 0.0433084169385964
-0.007050308071066712, 1.199999957179898e-07, 0.10872752986375486
-0.08078537598399976, 1.199999957179898e-07, 0.18533212557230547
-0.006425748344326555, 1.199999957179898e-07, 0.1751942705407577
-0.08618011745272804, 1.199999957179898e-07, 0.1445761845635892
-0.03226648884409752, 1.199999957179898e-07, 0.17651886155474883
-0.10128681862241283, 1.199999957179898e-07, 0.1541106599549653
-0.05162885155823408, 1.199999957179898e-07, 0.14153394689021373
-0.037367797153718546, 1.199999957179898e-07, 0.05472703210249978
-0.04341699543278525, 1.199999957179898e-07, 0.07291105031634573
-0.06803892365364443, 1.199999957179898e-07, 0.13157308445136778
-0.03409946696301644, 1.199999957179898e-07, 0.1456248234837535
-0.12672275566756502, 1.199999957179898e-07, 0.1744841018632446
-0.012342085644312368, 1.199999957179898e-07, 0.055772854848591485
-0.005231767300764206, 1.199999957179898e-07, 0.13658907092977868
-0.24677891044919503, 1.199999957179898e-07, 0.25813141454557775
-0.30255780181037367, 1.199999957179898e-07, 0.2503580120632265
-0.17047205796139792, 1.199999957179898e-07, 0.19759156132505906
-0.23924849388490527, 1.199999957179898e-07, 0.22836103324195273
-0.2182681283716496, 1.1999999571798978e-07, 0.26874807646070026
-0.22369321902198236, 1.199999957179898e-07, 0.19317881207761062
-0.24014405517956455, 1.199999957179898e-07, 0.26460750340312644
-0.22329335745239853, 1.199999957179898e-07, 0.2138475640527383
-0.24620551764822332, 1.199999957179898e-07, 0.29015697245488503
-0.2095407170527243, 1.199999957179898e-07, 0.2465159875883854
-0.25752958286733196, 1.199999957179898e-07, 0.27725905001557527
-0.23812025611937845, 1.199999957179898e-07, 0.2192112760770549
-0.23664935120796277, 1.199999957179898e-07, 0.2257838781950326
-0.25634197969516337, 1.199999957179898e-07, 0.2192975361596359
-0.25548889400781466, 1.199999957179898e-07, 0.29061993143705217
-0.26041288043545496, 1.199999957179898e-07, 0.23793381064533756
-0.24659050853738804, 1.199999957179898e-07, 0.28929443155448104
-0.3025065679871396, 1.199999957179898e-07, 0.21109422452545523
-0.24384866534573352, 1.199999957179898e-07, 0.2522904479514289
-0.1524905935297567, 1.199999957179898e-07, 0.13370942885370743
-0.22026069585289465, 1.199999957179898e-07, 0.10192032751198046
-0.24286251691637775, 1.199999957179898e-07, 0.11756064723472817
-0.17338007643179457, 1.199999957179898e-07, 0.04841605662609198
-0.17529386499868926, 1.199999957179898e-07, 0.04305486029363042
-0.18627826418831817, 1.199999957179898e-07, 0.13953065387223493
-0.21197821350605256, 1.199999957179898e-07, 0.16689276562852995
-0.2465420769038448, 1.199999957179898e-07, 0.1259708147841431
-0.15417138577878525, 1.199999957179898e-07, 0.049856841328820053
-0.187619318493989, 1.199999957179898e-07, 0.17452755716387583
-0.15142851642492983, 1.199999957179898e-07, 0.09614728877361559
-0.2523520360160682, 1.199999957179898e-07, 0.17710058098262943
-0.21413171183285912, 1.199999957179898e-07, 0.09826428576053328
-0.18288857793978242, 1.199999957179898e-07, 0.10710594958622391
-0.1877883782810533, 1.199999957179898e-07, 0.049882697094121305
-0.1834102333775502, 1.199999957179898e-07, 0.1319154175934339
-0.22017291563667754, 1.199999957179898e-07, 0.09877279554912168
-0.17763304068095442, 1.199999957179898e-07, 0.1508979001032738
-0.20221674201979886, 1.199999957179898e-07, 0.07198899730067164
-0.3412652037116787, 1.199999957179898e-07, 0.19591392797304522
-0.4185355278121282, 1.199999957179898e-07, 0.3173831082240585
-0.41060519407979224, 1.199999957179898e-07, 0.23863267693986323
-0.3944388000225116, 1.199999957179898e-07, 0.27564349258186466
-0.397235648308899, 1.199999957179898e-07, 0.24436638491374274
-0.4133545316879101, 1.199999957179898e-07, 0.20588013656988208
-0.38521105294535185, 1.199999957179898e-07, 0.2266381557255262
-0.43839850717660367, 1.199999957179898e-07, 0.26960923632605593
-0.33955049552179617, 1.199999957179898e-07, 0.20364678776937514
-0.40734354519502475, 1.199999957179898e-07, 0.22944922941488918
-0.39382399435167437, 1.199999957179898e-07, 0.2733079233872696
-0.42823516519284277, 1.199999957179898e-07, 0.30059284678229026
-0.42211853310216146, 1.199999957179898e-07, 0.32546312477090994
-0.37751133022122507, 1.199999957179898e-07, 0.19648860992878278
-0.4335142651985117, 1.199999957179898e-07, 0.2775746565995284
-0.3928253251898934, 1.199999957179898e-07, 0.2513210254811848
-0.381858262017311, 1.199999957179898e-07, 0.23317716341653905
-0.42035023313153896, 1.199999957179898e-07, 0.26570654299837054
-0.42260627148061713, 1.199999957179898e-07, 0.2171318902422512
-0.019914520131099265, 1.199999957179898e-07, -0.050754366799831925
-0.0673973331470811, 1.199999957179898e-07, -0.03221320297153683
-0.09316552555450175, 1.199999957179898e-07, -0.002254448732311646
-0.14283342139979885, 1.199999957179898e-07, -0.0014229463079246025
-0.04908225561281612, 1.1999999571798983e-07, -0.0987577539485184
-0.05212050259981218, 1.199999957179898e-07, -0.09019719595534074
-0.12255705320571575, 1.199999957179898e-07, -0.013071404224161273
-0.09031325499617238, 1.199999957179898e-07, -0.012878683919059247
-0.06376070808019993, 1.199999957179898e-07, -0.006263140641842781
-0.002832658389982346, 1.199999957179898e-07, -0.07532255398070216
-0.11718304895033392, 1.199999957179898e-07, -0.012196181459869147
-0.07703793167844199, 1.199999957179898e-07, -0.01430366584186483
-0.03414907501628182, 1.199999957179898e-07, -0.10794801517024609
-0.11770834489681793, 1.199999957179898e-07, -0.023591994026785225
-0.07873190149142668, 1.199999957179898e-07, -0.022815093110701467
-0.06386991202965181, 1.199999957179898e-07, -0.006756090810353113
-0.05589838402566192, 1.199999957179898e-07, -0.1098485511627361
-0.07394409452661829, 1.199999957179898e-07, -0.005024369328245056
-0.0667436641332264, 1.199999957179898e-07, -0.024055436275967783
-0.2429505136514043, 1.199999957179898e-07, 0.03394482106171921
-0.18797859259670036, 1.199999957179898e-07, 0.010017780895189085
-0.25495655760357727, 1.1999999571798983e-07, 0.11972864519867575
-0.2465206742050296, 1.199999957179898e-07, 0.07990683867132403
-0.27957219156924884, 1.199999957179898e-07, 0.025172590815711385
-0.2931836369059977, 1.199999957179898e-07, 0.1558262292652651
-0.20027164395848726, 1.1999999571798978e-07, 0.00827041531117073
-0.2560741157161293, 1.199999957179898e-07, 0.04914906047320172
-0.2998652084583646, 1.199999957179898e-07, 0.05203452454743214
-0.17247847263036353, 1.199999957179898e-07, 0.013300970560618611
-0.28324504322796923, 1.199999957179898e-07, 0.06839513546515441
-0.27018564916675825, 1.199999957179898e-07, 0.09993267337868568
-0.21101829878818484, 1.199999957179898e-07, 0.06134803546486845
-0.23523019993102356, 1.199999957179898e-07, 0.010950063516630857
-0.2751132812173605, 1.199999957179898e-07, 0.11765020840502001
-0.2798163053804675, 1.199999957179898e-07, 0.09733190264218682
-0.2129841690093281, 1.199999957179898e-07, 0.05878231031953519
-0.24973359094585162, 1.199999957179898e-07, 0.04511179246446625
-0.18457119980871586, 1.199999957179898e-07, 0.025688248365286836
-0.19748235518900603, 1.199999957179898e-07, 0.01889053776853813
-0.1944774177156644, 1.1999999571798983e-07, -0.10120163852279088
-0.1845727247775796, 1.199999957179898e-07, -0.14307657012178696
-0.21593260663835873, 1.199999957179898e-07, -0.013307123256619112
-0.1596345532214548, 1.199999957179898e-07, -0.07333113851113661
-0.1940320823323229, 1.199999957179898e-07, -0.1043126879345981
-0.27119285119820713, 1.199999957179898e-07, -0.024367350762002936
-0.259084883240915, 1.199999957179898e-07, -0.02260779251153904
-0.17449705834661253, 1.199999957179898e-07, -0.006189061345541285
-0.2402345064505076, 1.199999957179898e-07, -0.041652649660710035
-0.2439141103922082, 1.199999957179898e-07, -0.06265132611896411
-0.16517602829311517, 1.199999957179898e-07, -0.15800231404705675
-0.24538909239318418, 1.199999957179898e-07, -0.06638402538833309
-0.26277210483459507, 1.199999957179898e-07, -0.02136718784821954
-0.25472351455442066, 1.199999957179898e-07, -0.005595860994282719
-0.2627088268855764, 1.199999957179898e-07, -0.010347849656179482
-0.20690465601444907, 1.199999957179898e-07, -0.06609048215216916
-0.20122914840874892, 1.199999957179898e-07, -0.12237275478458216
-0.22265731289279353, 1.199999957179898e-07, -0.07314175088846034
-0.2170677802437745, 1.199999957179898e-07, -0.007982211705101223
-0.35972554715881755, 1.199999957179898e-07, 0.006898388291301531
-0.3718809126952197, 1.199999957179898e-07, 0.006724686512387657
-0.39701253266927433, 1.199999957179898e-07, 0.0765995996277877
-0.44305943478178816, 1.199999957179898e-07, 0.04846699488280354
-0.41747653457215095, 1.199999957179898e-07, 0.034062877799503184
-0.42603922655416465, 1.199999957179898e-07, 0.12905014681807708
-0.36160814280938625, 1.199999957179898e-07, 0.04493756816113346
-0.4214222911760846, 1.199999957179898e-07, 0.09566718481602751
-0.4269470274861187, 1.199999957179898e-07, 0.08752548953003766
-0.44919390583408864, 1.199999957179898e-07, 0.07747355968913004
-0.44307836084532876, 1.199999957179898e-07, 0.05508471113237606
-0.3820654340916877, 1.199999957179898e-07, 0.055786752112012214
-0.41120900572776053, 1.199999957179898e-07, 0.09450210815788035
-0.41732500669111283, 1.199999957179898e-07, 0.05829275201574721
-0.32367976597429016, 1.199999957179898e-07, 0.0011373409642148953
-0.37624816042741255, 1.199999957179898e-07, 0.034541908949672066
-0.32640379621177584, 1.199999957179898e-07, 0.023356761587707928
-0.42153566974321965, 1.199999957179898e-07, 0.12627228336277374
-0.4443681863647305, 1.199999957179898e-07, 0.03571783863277056
-0.06960247588540724, 1.199999957179898e-07, -0.2508966812242586
-0.029044164793405363, 1.199999957179898e-07, -0.21085100092107303
-0.030673550044475712, 1.199999957179898e-07, -0.28943021154200016
-0.05649346659053264, 1.199999957179898e-07, -0.2327302215444652
-0.061528299997393794, 1.199999957179898e-07, -0.23300043944868634
-0.024338776657445736, 1.199999957179898e-07, -0.20323328471440127
-0.10270607134181228, 1.199999957179898e-07, -0.22795140239073203
-0.03941441241941616, 1.199999957179898e-07, -0.19336502228648073
-0.020047259775805695, 1.199999957179898e-07, -0.2787333780505543
-0.003280182452239195, 1.199999957179898e-07, -0.31324538460645607
-0.05958042043173316, 1.199999957179898e-07, -0.21372235244437596
-0.021353795165586952, 1.199999957179898e-07, -0.30491648639227703
-0.010376885260059948, 1.199999957179898e-07, -0.30091181151926205
-0.009658181410527693, 1.199999957179898e-07, -0.23779112048964668
-0.09576440777833169, 1.199999957179898e-07, -0.18851011576599486
-0.028723207407000566, 1.199999957179898e-07, -0.24190155377195222
-0.13290544383519423, 1.199999957179898e-07, -0.19002435239348875
-0.001927986650677073, 1.199999957179898e-07, -0.24158321224425972
-0.027113839318765, 1.199999957179898e-07, -0.333124067083158
-0.26191096707254, 1.199999957179898e-07, -0.090332939867379
-0.22608536699479162, 1.199999957179898e-07, -0.1395400788761078
-0.26096683809705623, 1.199999957179898e-07, -0.13823894943345866
-0.26072693028579824, 1.199999957179898e-07, -0.18213803135997306
-0.2191234424453003, 1.199999957179898e-07, -0.10721418161381166
-0.2626756198998773, 1.199999957179898e-07, -0.10503023443229173
-0.3023197878237498, 1.199999957179898e-07, -0.06904615481507644
-0.17065613465763937, 1.199999957179898e-07, -0.173160268720185
-0.16771925710259716, 1.199999957179898e-07, -0.17721152604905985
-0.2912125711078747, 1.199999957179898e-07, -0.07401163257801995
-0.2953700504527795, 1.199999957179898e-07, -0.06529598155130337
-0.25861678062673, 1.199999957179898e-07, -0.07986316653339927
-0.21737812826402614, 1.199999957179898e-07, -0.15139473945913745
-0.17247954614968053, 1.199999957179898e-07, -0.1625009097478316
-0.2602871453324586, 1.199999957179898e-07, -0.0768481309689073
-0.18464070824438367, 1.199999957179898e-07, -0.15301824272851364
-0.2114957514217901, 1.199999957179898e-07, -0.18005266372506654
-0.2084097504448698, 1.199999957179898e-07, -0.17002174026841915
-0.2965539046258072, 1.1999999571798983e-07, -0.035947924058898365
-0.22298472719541376, 1.199999957179898e-07, -0.2603076188388722
-0.19666272641452656, 1.199999957179898e-07, -0.2646508009900807
-0.17376358501625772, 1.199999957179898e-07, -0.24884869473169988
-0.1511632829404443, 1.199999957179898e-07, -0.2592233076121511
-0.18163543089965437, 1.199999957179898e-07, -0.27217083880780174
-0.20299589629774364, 1.199999957179898e-07, -0.24955681899055554
-0.1652190448337493, 1.199999957179898e-07, -0.20686115890577278
-0.24362771358190172, 1.199999957179898e-07, -0.2595479252262556
-0.16806019386726986, 1.199999957179898e-07, -0.21355002137283868
-0.15479313552037063, 1.199999957179898e-07, -0.21320526231135697
-0.22770062319787973, 1.199999957179898e-07, -0.24071900017523362
-0.25587478983580897, 1.199999957179898e-07, -0.20848153657093216
-0.16971001483557693, 1.199999957179898e-07, -0.20264131081576203
-0.19893181261260384, 1.199999957179898e-07, -0.20322859254302908
-0.17469667871734892, 1.199999957179898e-07, -0.2300530577342947
-0.2027305619750988, 1.199999957179898e-07, -0.2765357944171582
-0.26196530190805634, 1.199999957179898e-07, -0.2356173196939115
-0.23837148658449087, 1.199999957179898e-07, -0.23978623804903562
-0.23164826273412478, 1.199999957179898e-07, -0.22720431358093068
-0.44013172348889984, 1.199999957179898e-07, -0.09594454358726871
-0.42089290706774496, 1.199999957179898e-07, -0.04593972703212517
-0.3930841851763108, 1.199999957179898e-07, -0.09758576276824751
-0.40122773411004975, 1.199999957179898e-07, -0.1386455723849831
-0.4107830684012516, 1.199999957179898e-07, -0.13327403553164696
-0.3695510442363047, 1.199999957179898e-07, -0.14557771229874672
-0.4545214737484473, 1.199999957179898e-07, -0.1264670524723036
-0.4242232936323973, 1.1999999571798983e-07, -0.06002327398425136
-0.39794737543407116, 1.199999957179898e-07, -0.09305660026158029
-0.3898475652332942, 1.199999957179898e-07, -0.10042797155619146
-0.40185218941071243, 1.199999957179898e-07, -0.10778777130870841
-0.41221234567094295, 1.199999957179898e-07, -0.13638578253579114
-0.3688596351699446, 1.1999999571798983e-07, -0.12494216786853865
-0.4228694979732539, 1.199999957179898e-07, -0.1278891118912911
-0.39714815102045764, 1.199999957179898e-07, -0.15363570956357583
-0.4343620041675712, 1.199999957179898e-07, -0.07372837028996387
-0.3942547437327586, 1.199999957179898e-07, -0.13234576081541433
-0.4323232472184992, 1.199999957179898e-07, -0.14245564260747748
-0.414556393099217, 1.199999957179898e-07, -0.06592803012652923
-0.43988750423232775, 1.199999957179898e-07, -0.0934998446437294
-0.05744746857415964, 1.199999957179898e-07, -0.3886459035403127
-0.12007148636327256, 1.199999957179898e-07, -0.38508886821991795
-0.0640789195450555, 1.199999957179898e-07, -0.46889809164825863
-0.09851455680416903, 1.199999957179898e-07, -0.4204353290602166
-0.0057614133345943635, 1.199999957179898e-07, -0.5352314210173628
-0.08432629573470822, 1.199999957179898e-07, -0.3793798128358419
-0.024804533869178445, 1.199999957179898e-07, -0.38391769231957784
-0.05867104014713512, 1.199999957179898e-07, -0.4183732853633292
-0.006297394724668108, 1.199999957179898e-07, -0.4074426759369907
-0.09081196169593216, 1.199999957179898e-07, -0.39429721759779707
-0.030322554828651933, 1.199999957179898e-07, -0.5179877824872046
-0.03853535291829307, 1.199999957179898e-07, -0.39778635007847263
-0.07684716438912974, 1.199999957179898e-07, -0.43122761384166636
-0.03202403064926376, 1.199999957179898e-07, -0.48229563779313994
-0.058230975443854076, 1.199999957179898e-07, -0.4729854701882329
-0.04355298033867358, 1.199999957179898e-07, -0.4385544269864319
-0.04861075463966673, 1.199999957179898e-07, -0.44121923458495915
-0.0655798953845668, 1.199999957179898e-07, -0.43008462552981264
-0.09566151993756068, 1.199999957179898e-07, -0.44066012413633804
-0.2970459781232313, 1.199999957179898e-07, -0.28232602252876504
-0.20337859638797673, 1.199999957179898e-07, -0.3447800280912013
-0.22274691739635433, 1.199999957179898e-07, -0.3528840946454378
-0.2784226892697608, 1.199999957179898e-07, -0.2574745361035149
-0.2037978969615265, 1.199999957179898e-07, -0.36370470198831023
-0.21292640914889188, 1.199999957179898e-07, -0.32811129656040006
-0.24469973804038603, 1.199999957179898e-07, -0.2843067896128205
-0.23343661299176266, 1.199999957179898e-07, -0.2732804630156904
-0.2476894199628917, 1.199999957179898e-07, -0.28888398086123196
-0.21575950756709558, 1.199999957179898e-07, -0.3475574018713328
-0.2852658333906889, 1.199999957179898e-07, -0.24178924867839646
-0.27515647891345346, 1.199999957179898e-07, -0.3148347384784289
-0.24230034302265535, 1.199999957179898e-07, -0.28321829786201036
-0.29984788991109246, 1.199999957179898e-07, -0.31062222320655186
-0.23633344748149962, 1.199999957179898e-07, -0.32051634125641393
-0.21784003157485998, 1.199999957179898e-07, -0.31578789195305285
-0.29497192306636, 1.199999957179898e-07, -0.2786130642904109
-0.27359293309569827, 1.199999957179898e-07, -0.31375179898653804
-0.21572010831202104, 1.199999957179898e-07, -0.36199647058222234
-0.3471417029212934, 1.199999957179898e-07, -0.3729003092666039
-0.4396231191944774, 1.199999957179898e-07, -0.2537744827192394
-0.39718368410571514, 1.199999957179898e-07, -0.3117245727385927
-0.331887027197662, 1.199999957179898e-07, -0.364289112280782
-0.39978703869957966, 1.199999957179898e-07, -0.3242748821383249
-0.4289715425688664, 1.199999957179898e-07, -0.37472136163431097
-0.439217216812291, 1.199999957179898e-07, -0.3314726292976957
-0.39888253849188376, 1.199999957179898e-07, -0.30708148648382505
-0.454581169929105, 1.199999957179898e-07, -0.26151324944822285
-0.3556102258878572, 1.199999957179898e-07, -0.36753781423177884
-0.37416902211372, 1.199999957179898e-07, -0.30111409833334457
-0.36372744007187946, 1.199999957179898e-07, -0.3222476327522298
-0.44377044346865213, 1.199999957179898e-07, -0.20447461780148857
-0.3835391797061045, 1.199999957179898e-07, -0.3067100308920262
-0.3739116276823846, 1.199999957179898e-07, -0.3487471443942255
-0.4443617245743797, 1.199999957179898e-07, -0.2855928833638715
-0.41744216203367673, 1.199999957179898e-07, -0.295129723872378
-0.400435162675473, 1.199999957179898e-07, -0.26751594203341456
-0.3392283927517297, 1.199999957179898e-07, -0.36873966758355814
-0.35977396022077573, 1.199999957179898e-07, -0.3663157006261426
-0.16748420186779586, 1.199999957179898e-07, -0.39051573996931277
-0.2158621450494059, 1.199999957179898e-07, -0.38796973777643623
-0.18871067883763748, 1.199999957179898e-07, -0.4635354489012815
-0.20727028390772378, 1.199999957179898e-07, -0.3840458789775792
-0.17677007302236472, 1.199999957179898e-07, -0.3890334829495621
-0.19800211827057435, 1.199999957179898e-07, -0.43511382948405153
-0.24307671671650113, 1.199999957179898e-07, -0.433633862917689
-0.24883058839237857, 1.199999957179898e-07, -0.385620178845862
-0.17897317056933443, 1.199999957179898e-07, -0.47825431559263815
-0.16777965132617084, 1.199999957179898e-07, -0.3747411124274566
-0.2029080425022065, 1.199999957179898e-07, -0.398624084864514
-0.20256828729494575, 1.199999957179898e-07, -0.3994776393777847
-0.17921068912844101, 1.199999957179898e-07, -0.4831840992072139
-0.20672996540008243, 1.199999957179898e-07, -0.43939674185502736
-0.15134688826871925, 1.199999957179898e-07, -0.5222969010820622
-0.1863735352623926, 1.199999957179898e-07, -0.38277653947496537
-0.19649608629388188, 1.199999957179898e-07, -0.4956480422070929
-0.25600280479016324, 1.199999957179898e-07, -0.42696932518018443
-0.15966357715682006, 1.199999957179898e-07, -0.45386994098304567
-0.0012080825324753141, 1.199999957179898e-07, -0.6014869989270991
-0.026219843053906337, 1.199999957179898e-07, -0.6042609494839833
-0.051104413659867655, 1.199999957179898e-07, -0.6228574580442522
-0.03659041960064203, 1.199999957179898e-07, -0.6192959377611472
-0.0910591793639375, 1.199999957179898e-07, -0.5877544557680887
-0.0376497639129583, 1.199999957179898e-07, -0.6026058638786544
-0.046145031816381216, 1.199999957179898e-07, -0.5825239801043718
-0.07693850105017426, 1.199999957179898e-07, -0.6078857043990478
-0.0746394447928395, 1.199999957179898e-07, -0.5644861976349089
-0.10480809266445061, 1.199999957179898e-07, -0.5692983784510445
-0.28170686487995417, 1.199999957179898e-07, -0.4051946816544337
-0.2768101144712608, 1.199999957179898e-07, -0.5035083637125577
-0.287151661822624, 1.199999957179898e-07, -0.5249763151360471
-0.29018999070445034, 1.199999957179898e-07, -0.45365865707836145
-0.30016497067203085, 1.199999957179898e-07, -0.5533561009156187
-0.2718922029149558, 1.199999957179898e-07, -0.43703807700781755
-0.20309778935476344, 1.199999957179898e-07, -0.5416141718136889
-0.17974132717023955, 1.199999957179898e-07, -0.5627506168321569
-0.269351066422367, 1.199999957179898e-07, -0.4463026961816256
-0.1861518635921978, 1.199999957179898e-07, -0.5210180956744291
-0.2223902035416567, 1.199999957179898e-07, -0.5133219253332474
-0.18917248823557423, 1.199999957179898e-07, -0.5378007606672197
-0.28425336559874653, 1.199999957179898e-07, -0.4359857770505873
-0.2796691857106466, 1.199999957179898e-07, -0.42933868153282123
-0.2410068998914618, 1.199999957179898e-07, -0.4973885528615539
-0.2790746938321727, 1.199999957179898e-07, -0.5386637361630447
-0.27237802171407605, 1.199999957179898e-07, -0.5168868125637855
-0.22137283716501924, 1.199999957179898e-07, -0.5079366111260467
-0.22615525071729495, 1.199999957179898e-07, -0.5554154848890311
-0.42440053377699394, 1.199999957179898e-07, -0.548352333948278
-0.4395568861292976, 1.199999957179898e-07, -0.5558681204490534
-0.4373278940924785, 1.199999957179898e-07, -0.4195791800616562
-0.37253805473441054, 1.199999957179898e-07, -0.4803435688682474
-0.45341349490498606, 1.199999957179898e-07, -0.4319294722267766
-0.3668945308427197, 1.199999957179898e-07, -0.48681415614960744
-0.42757466767029173, 1.199999957179898e-07, -0.5052811970798039
-0.4276026901130744, 1.199999957179898e-07, -0.4595683607512018
-0.42763683634566785, 1.199999957179898e-07, -0.47983227791349414
-0.44056097368531594, 1.199999957179898e-07, -0.5483069430042541
-0.3979046192347925, 1.199999957179898e-07, -0.5194106196318539
-0.43159371400851027, 1.199999957179898e-07, -0.48527573888152553
-0.40858875377074577, 1.199999957179898e-07, -0.5573983318961964
-0.3866799770555079, 1.199999957179898e-07, -0.5591357553690842
-0.4402349452379346, 1.199999957179898e-07, -0.48371191873773006
-0.45122694008321296, 1.199999957179898e-07, -0.5090931501243844
-0.40919689061804554, 1.199999957179898e-07, -0.4518716998753486
-0.42621608627780055, 1.199999957179898e-07, -0.5595682746771236
-0.40387970434327264, 1.199999957179898e-07, -0.46613992985728947
-0.1863713686130773, 1.199999957179898e-07, -0.5841857957424481
-0.21772537421794075, 1.199999957179898e-07, -0.592253506734636
-0.23082182261683995, 1.199999957179898e-07, -0.5806863544869743
-0.2417167442343556, 1.199999957179898e-07, -0.5675343560720956
-0.16358723603635414, 1.199999957179898e-07, -0.5645954264800213
-0.18302378862322294, 1.199999957179898e-07, -0.6054453940636965
-0.2649882098947448, 1.199999957179898e-07, -0.5677664393813795
-0.2238505897267676, 1.199999957179898e-07, -0.5648147049173768
-0.1737612577754189, 1.199999957179898e-07, -0.5789350582886335
-0.16050325568514473, 1.199999957179898e-07, -0.6264526019673556
-0.004666062592509797, 1.199999957179898e-07, -0.6891070429245139
-0.02975632532651438, 1.199999957179898e-07, -0.6889135045955823
-0.024923103956821614, 1.199999957179898e-07, -0.6778547561000933
-0.0342475400871379, 1.199999957179898e-07, -0.6814237023457799
-0.0036448546838861316, 1.199999957179898e-07, -0.6873450416787318
-0.2831801522531595, 1.199999957179898e-07, -0.6062926135997243
-0.18557907535858326, 1.199999957179898e-07, -0.6422672515612643
-0.2011981336651351, 1.199999957179898e-07, -0.6360657061361025
-0.2743600870524763, 1.1999999571798978e-07, -0.6009312573026799
-0.25798606325295453, 1.199999957179898e-07, -0.6013246906104206
-0.21028970072677722, 1.199999957179898e-07, -0.6414368522062456
-0.20341263305357601, 1.199999957179898e-07, -0.6384566859138542
-0.30291945806180054, 1.199999957179898e-07, -0.6275205006305953
-0.20793953796030842, 1.199999957179898e-07, -0.6256849673917168
-0.2971095596288197, 1.199999957179898e-07, -0.6600863843602215
-0.18668434374631496, 1.199999957179898e-07, -0.6849796779824531
-0.2697644234555735, 1.199999957179898e-07, -0.6649685596744704
-0.2459642661989775, 1.199999957179898e-07, -0.6693800387645628
-0.1555285400637585, 1.1999999571798983e-07, -0.6870211841255174
-0.32911743368923524, 1.199999957179898e-07, -0.6459661764707101
-0.3727985230524543, 1.199999957179898e-07, -0.6429808377482433
-0.39609750156482915, 1.199999957179898e-07, -0.6438700970233495
-0.340872611088045, 1.1999999571798978e-07, -0.6501091865213795
-0.40222686211554476, 1.199999957179898e-07, -0.6140005802654726
-0.41044784104117016, 1.199999957179898e-07, -0.6048608215437097
-0.4390732451147096, 1.199999957179898e-07, -0.6410452416472623
-0.39873323953455986, 1.199999957179898e-07, -0.6170293299361596
-0.40915329727663197, 1.199999957179898e-07, -0.6018568510017791
-0.38129023436056786, 1.199999957179898e-07, -0.6377910250534358
-0.05814427518561083, 1.199999957179898e-07, -0.7179109340783263
-0.04608077842058167, 1.199999957179898e-07, -0.7126939776246715
-0.2726268043742437, 1.199999957179898e-07, -0.6688234867887259
-0.26391718393320085, 1.199999957179898e-07, -0.6844440970737662
-0.26126337471968436, 1.199999957179898e-07, -0.7033328932995475
-0.26235082834600104, 1.199999957179898e-07, -0.7025300981061899
-0.278776404250937, 1.199999957179898e-07, -0.6667014688436452
