0.6257056744226597, 0.7413255314818981, -0.3532199618375128
0.4074643047952743, 0.7373968712418278, -0.3532199835637039
-0.30261479986688355, 0.7458998780608983, -0.3532199365405611
0.36495626572162, 0.7398487866671034, -0.35321997000417465
0.5645774684311822, 0.7340687742498048, -0.35322000196867326
0.2281070707827559, 0.7440527943591595, -0.35321994675526314
0.5963213884987728, 0.7411362041145757, -0.35321996288452684
0.3485619226999095, 0.7466047900982824, -0.3532199326422719
0.5889189857366228, 0.7469025946953259, -0.3532199309953594
0.5719695963261082, 0.7451227104469834, -0.3532199408384365
-0.34047589224886443, 0.7311373305042809, -0.3530390861294583
-0.382890144870586, 0.7304990291595459, -0.06255125868410238
-0.23192604594509533, 0.7304990291595459, 0.09303366133057323
-0.42217479917897693, 0.7304990291595459, -4.5692573827846306e-05
-0.4872872298547497, 0.7304990291595459, -0.0811451028098239
-0.4465048984186686, 0.7304990291595459, -0.05095751756804485
-0.4312265904475332, 0.7304990291595459, -0.051206392424359495
-0.36722114057438343, 0.7304990291595459, 0.25713146004790494
-0.44437270535488427, 0.7304990291595459, -0.1349537931599627
-0.32837403089025585, 0.7304990291595459, 0.1955139114969686
-0.2642737693277848, 0.7304990291595459, 0.03895545829856329
-0.20616134926172286, 0.7304990291595459, -0.0281641967018458
-0.005637923893989066, 0.730499029159546, 0.05982448834818591
0.16327485097307112, 0.7304990291595459, 0.05399120022283335
-0.3833365719637102, 0.7304990291595459, 0.1568549990799265
0.5917523727934222, 0.730499029159546, -0.1463363333977283
-0.31785139097781195, 0.7304990291595459, 0.10017920170576215
-0.14299417227823222, 0.7304990291595459, 0.15557008895419613
-0.38789663083280024, 0.7304990291595459, -0.11946713383391518
0.29010704008028765, 0.7304990291595459, -0.016202916965404032
-0.5102968314337415, 0.7304990291595458, 0.2827618632647225
-0.4618953845464686, 0.7304990291595459, 0.2783145751744366
-0.5059134376737479, 0.7304990291595459, -0.05743782520458676
-0.41792145728801083, 0.730499029159546, 0.1500339239047113
-0.3702090013484487, 0.7304990291595459, 0.004849686184045715
-0.4054749817216978, 0.7304990291595459, 0.20858074685579467
-0.31475754952148205, 0.7304990291595459, 0.06536391416004647
0.025017796012267224, 0.7304990291595459, -0.09469758244048675
-0.46252054044645363, 0.7304990291595459, 0.15088952238973102
-0.4616957493710285, 0.7304990291595459, 0.2602804253759127
-0.05520306553831694, 0.7304990291595459, 0.054542448267654635
-0.09890250533000797, 0.7304990291595459, -0.08851280371829512
-0.26157217221459733, 0.7304990291595459, -0.06345448366687521
-0.1546165925926148, 0.7304990291595459, 0.013707987299984369
-0.12504654941318727, 0.7304990291595459, -0.13827650855557483
0.010158928790226174, 0.7304990291595459, -0.1272511918612645
-0.49706680527439606, 0.7304990291595458, -0.09237989372811685
0.07747062782069851, 0.7304990291595459, -0.019718913636755743
-0.05091062502299329, 0.7304990291595458, -0.004978474463473215
-0.21411409430665318, 0.7304990291595459, -0.041426258660589466
-0.4306910296668144, 0.7304990291595459, 0.029278623316299296
0.14734058224137478, 0.7304990291595459, 0.02877945979881183
-0.05378320913508702, 0.7304990291595459, 0.015893353501189436
-0.1024395294281028, 0.7304990291595459, -0.024415681471575246
-0.15658834402946845, 0.7304990291595459, 0.13680344123018418
-0.3047958700334165, 0.7304990291595459, -0.02089724922022193
-0.2704492517298354, 0.7304990291595459, -0.11070362818018481
-0.49326017262251715, 0.7304990291595459, 0.02382628786130024
0.07149978417485721, 0.7304990291595459, 0.021639353022587748
-0.5106781222398664, 0.7304990291595459, 0.025479104355378465
-0.43773397432985406, 0.7304990291595459, 0.11238430661242879
0.25449516035865893, 0.7304990291595459, -0.08710051618692018
-0.34688409970522704, 0.730499029159546, 0.1566274057537744
-0.3454586859569612, 0.7304990291595459, -0.10533348006618992
-0.3161374700619153, 0.7304990291595459, -0.13195650345030868
-0.5029229933742289, 0.7304990291595459, 0.23600373085483595
0.43581927016888483, 0.7304990291595459, -0.14107220047465724
-0.16872518014055143, 0.7304990291595459, -0.059402606365765546
-0.29711610344215456, 0.7304990291595459, 0.039640460940920816
0.211662475177425, 0.7304990291595459, 0.017940877247934812
-0.40601615874347347, 0.7304990291595459, 0.18368432158177053
-0.38459798471669815, 0.7304990291595459, 0.25368547522412876
-0.1888969746461243, 0.7304990291595458, 0.1539266001663601
0.28681499423204326, 0.7304990291595459, -0.1367052587452131
-0.22125736211558852, 0.730499029159546, 0.1622321689841494
-0.3709535792184034, 0.7304990291595459, -0.11057762186850423
-0.24099436868880802, 0.7304990291595459, -0.022007349930659732
-0.0632605786617752, 0.7304990291595459, -0.09918796768289292
-0.5248419196486817, 0.7304990291595459, 0.3474564760993897
0.19103444928103114, 0.7304990291595459, -0.10270391029445783
0.01676251091392507, 0.7304990291595459, 0.05849221279842112
-0.06535595339154865, 0.7304990291595459, -0.08686801757571976
0.10269299412887639, 0.7304990291595459, -0.10294054494999136
0.1188868090795317, 0.7304990291595459, -0.11463670760843747
-0.40443898404544476, 0.7304990291595459, 0.12065690914834382
-0.31277008095211467, 0.7304990291595459, 0.1787019845786279
-0.12210509930345201, 0.7304990291595459, 0.10054165150348038
0.376562137393818, 0.7304990291595458, -0.03793857627379272
0.4028024130587321, 0.7304990291595459, -0.135844772048488
-0.3717313033588084, 0.7304990291595458, 0.1692440175151316
-0.3779974902819248, 0.7304990291595459, 0.2535934741792878
0.07141894006622213, 0.730499029159546, 0.024826761746344666
-0.48402065248967, 0.7304990291595459, 0.25735075385624523
-0.2572038126799753, 0.7304990291595459, 0.11920884368705956
-0.49557604332038485, 0.7304990291595459, -0.10687355120697867
0.07864360449799959, 0.7304990291595459, -0.1366602601297734
-0.21200903096197282, 0.7304990291595459, -0.11979219631398343
-0.5098578074948266, 0.7304990291595459, 0.198940867584367
-0.34829683478548024, 0.7304990291595459, 0.24202337251272757
-0.06909219436139355, 0.7304990291595459, 0.10893556836201594
-0.49140335846109523, 0.7304990291595459, 0.12289769389868012
-0.33613278447290657, 0.7304990291595459, 0.2350831881764371
-0.19733578304432137, 0.7304990291595459, -0.10532348294792018
-0.44866825441135594, 0.7304990291595459, -0.10751104369474329
0.3618728589082043, 0.7304990291595459, -0.14290612285080856
0.24820331961203812, 0.7304990291595458, -0.11127385127822914
-0.2047675007451728, 0.7304990291595459, 0.1690838977762868
-0.1955791073830486, 0.7304990291595459, -0.1452896648957326
0.5842983624041087, 0.7304990291595459, -0.12712821566045907
-0.36283258104324384, 0.730499029159546, 0.2471422107000429
-0.3129533301358121, 0.7304990291595459, 0.2507345998071038
-0.15107045949303732, 0.7304990291595459, -0.10971772163592021
-0.4152327201911466, 0.7304990291595459, 0.14178971856671302
-0.48144604049190687, 0.7304990291595459, 0.12794435319909414
-0.5051884331914305, 0.7304990291595458, 0.2014484675290593
0.12408183500019687, 0.7304990291595459, -0.15451169627740907
-0.2971658460632163, 0.7304990291595459, 0.0011780682245390722
-0.4240320490518038, 0.7304990291595459, 0.20648583468353307
-0.4669418713168231, 0.7304990291595459, -0.11780981012222183
-0.37293355510029136, 0.730499029159546, 0.26530989059923793
0.33417769420081656, 0.7304990291595459, -0.10536649006315954
0.14289750629422737, 0.7304990291595459, -0.1362630300957379
-0.3247417457858218, 0.730499029159546, 0.24692336500607168
-0.28479792858686537, 0.7304990291595459, 0.08014253024657142
-0.45781637202065295, 0.730499029159546, -0.07010147459892857
-0.37666061650049776, 0.7304990291595459, 0.1109157089683375
-0.2853945622021151, 0.7304990291595459, 0.01880597459447167
-0.11606716633057416, 0.7304990291595459, -0.05054657145258036
-0.16786408576166395, 0.7304990291595459, 0.1869270217432533
-0.267998429436252, 0.7304990291595459, -0.11363000244687571
-0.20170201614726552, 0.7304990291595459, -0.14551951022312848
0.12071475794832898, 0.7304990291595459, -0.15337220394953646
-0.15556729964728433, 0.7304990291595459, -0.11942858404762625
-0.12812821425666807, 0.7304990291595459, -0.14615234343868727
-0.2377990156539144, 0.7304990291595459, 0.02904823918887023
-0.2349552379801524, 0.7304990291595459, -0.14663094513274266
-0.21192736228072495, 0.7304990291595459, 0.09409128997959794
-0.4158876345080122, 0.7304990291595459, -0.09472545309410392
0.45960929499447445, 0.7304990291595459, -0.10975191842946769
-0.02430347236176661, 0.7304990291595459, 0.013076162692696833
-0.5415854279610129, 0.7304990291595459, 0.3498380917748426
-0.3383114175132245, 0.7304990291595459, 0.0713319502005445
-0.268147608369199, 0.7304990291595458, 0.20116341963554077
0.06840273097515627, 0.7304990291595459, 0.007870838121311369
-0.5310802172285377, 0.7304990291595459, 0.0825899348634251
-0.06527773475180806, 0.7304990291595458, 0.11619449284515658
-0.3058311106587218, 0.7304990291595459, 0.24913640058022388
-0.061926981256233735, 0.7304990291595459, 0.12635110497935548
-0.2813213433854175, 0.7304990291595459, 0.012829905998413577
-0.010693426512134417, 0.730499029159546, 0.10566028168351581
0.20749049218706958, 0.7304990291595459, -0.14567364290118975
-0.028628665171472674, 0.7304990291595459, 0.08896233015797458
-0.3754550981551912, 0.7304990291595459, 0.004241126857696384
-0.057914027318091504, 0.7304990291595459, 0.09150077761678699
-0.44791924685042117, 0.7304990291595458, 0.1473242150097047
-0.4766006488253125, 0.7304990291595459, -0.042735699128936294
0.056117477399076965, 0.7304990291595458, -0.04828491214699643
-0.4545546946310833, 0.7304990291595459, -0.01101223705477472
-0.1461843060075083, 0.7304990291595459, -0.07913429455358996
-0.2901149675483663, 0.7304990291595459, 0.041615809287866956
0.2855461406812737, 0.7304990291595459, -0.07722034220751084
-0.5231515567769564, 0.7304990291595459, 0.12840343659022352
0.19437650500361894, 0.7304990291595459, -0.0015623238526433526
-0.5389731695061646, 0.7304990291595459, 0.2511279454748231
-0.20313568455314612, 0.7304990291595459, -0.11545665884879902
-0.3780740979474954, 0.7304990291595459, 0.14396036676360827
-0.01886715216046214, 0.7304990291595459, -0.08223176965386389
-0.5148233806598419, 0.7304990291595459, -0.08180172820358356
-0.27897791068500744, 0.7304990291595459, 0.0074524772769810205
-0.2510941388468025, 0.7304990291595459, 0.03506204693172858
0.283574030376874, 0.7304990291595458, -0.011097999071057173
-0.2772272324975406, 0.7304990291595459, 0.08215151257101005
-0.2107591402941117, 0.7304990291595459, 0.11626340557048156
-0.4240389970509686, 0.730499029159546, 0.1039972308024093
-0.21713893733518994, 0.7304990291595459, 0.021208073077189596
-0.24529232194639405, 0.7304990291595458, 0.115263779529469
-0.33597929730249776, 0.730499029159546, 0.25027598872516277
0.16272984717440706, 0.7304990291595459, 0.003807730315869229
-0.29257511467006403, 0.7304990291595459, -0.10895952152310716
0.17735316402533585, 0.7304990291595459, -0.039487467983034874
-0.41406529317842866, 0.7304990291595459, -0.14040196270903224
0.07066828420557991, 0.7304990291595459, 0.004793750680353457
-0.13138857810281332, 0.7304990291595458, 0.030077564790665534
0.17262357054280383, 0.7304990291595459, -0.13760801372890327
0.1077274048518466, 0.7304990291595459, 0.061923688851414894
0.1022730837616655, 0.7304990291595459, -0.03016007328149905
0.2771254917426883, 0.7304990291595459, -0.13749343192688496
-0.23276304661666605, 0.7304990291595458, 0.18405917088322366
0.4019317268175518, 0.730499029159546, -0.07772412172894458
0.17788294629681062, 0.7304990291595459, -0.1439992994980408
0.3079313593488967, 0.7304990291595459, -0.03105011392251713
0.038807392614675106, 0.7304990291595459, 0.06633332298054803
-0.5392650492390118, 0.730499029159546, 0.2051079776423874
0.032580536832386875, 0.7304990291595459, -0.10437579645501988
0.3536061063558136, 0.7304990291595459, -0.04980347488771941
0.20364852417731216, 0.7304990291595459, -0.1405084524792376
-0.27469565571660326, 0.7304990291595459, -0.09513111994914963
-0.26236210899425016, 0.7304990291595459, 0.029586778457218438
0.30758281046380076, 0.7304990291595459, -0.04681647023846481
0.12404657658283005, 0.7304990291595459, -0.12375130136450596
-0.2177457312131655, 0.7304990291595459, 0.01628955471126837
0.004169831804090474, 0.7304990291595459, -0.015063699085492988
-0.5266711733836238, 0.7304990291595459, -0.06141864142901857
-0.38677042427483765, 0.7304990291595459, 0.10664439286451513
-0.3581567976332359, 0.730499029159546, 0.24772764012660184
-0.26557447199151285, 0.7304990291595459, 0.12181417535542316
-0.2930786395693004, 0.7304990291595459, -0.02611867936576895
-0.32009347662576193, 0.7304990291595459, -0.06241615531022349
-0.5407692653282974, 0.7304990291595459, 0.1659454926459108
0.12248568922547576, 0.7304990291595459, -0.1268205870011666
-0.450038076136381, 0.730499029159546, 0.15898667555831905
-0.43316376725337025, 0.7304990291595459, 0.2287457997288501
0.4996153565921758, 0.7304990291595459, -0.14448946743059982
-0.4321736756627543, 0.7304990291595459, -0.1443986132861831
-0.4397212794040169, 0.730499029159546, -0.07926538231055479
-0.531882184268268, 0.730499029159546, 0.27538744561561157
-0.3846732372030892, 0.7304990291595459, 0.07800729948367306
-0.1920916744401011, 0.7304990291595459, -0.025690651515725117
-0.29504259412617495, 0.7304990291595459, -0.1252908629961075
-0.20111458194977744, 0.7304990291595459, -0.03265536907298629
0.016096462884846632, 0.7304990291595459, 0.03918600394959677
-0.5298212220455732, 0.7304990291595459, 0.3039988985935952
-0.45346023859685824, 0.7304990291595459, 0.10917625132614538
-0.3159512620838185, 0.7304990291595459, 0.06153784608094105
-0.4963371535681854, 0.7304990291595459, 0.120502486596937
-0.5317516700953744, 0.7304990291595459, 0.13216074776020384
-0.2619881351133678, 0.7304990291595459, -0.07198010432138865
-0.10731303080231824, 0.7304990291595459, -0.08286114257697458
-0.26646865507766704, 0.7304990291595459, 0.00447808513070011
-0.4118596085156082, 0.7304990291595459, -0.04548893381242733
-0.2861605456106767, 0.7304990291595459, 0.14221303596431936
-0.4893599688248073, 0.7304990291595459, -0.03772787149602494
-0.1401768572532161, 0.7304990291595459, -0.0805961280711059
-0.43144126345939926, 0.7304990291595459, 0.29019185422474936
0.1167131796293148, 0.7304990291595459, -0.1182385468387521
-0.16615361097385092, 0.7304990291595458, 0.16438239589601256
0.008414397943347918, 0.7304990291595459, -0.06938678568142975
0.15590995489482187, 0.7304990291595459, -0.057494855275581104
-0.4897869109916134, 0.7304990291595459, 0.23223171994401293
0.2016343165135701, 0.7304990291595458, -0.09496102216797725
-0.10574608493437693, 0.7304990291595459, -0.14129664868944844
0.15823795873740462, 0.7304990291595459, 0.013195060493692682
-0.20226889144029214, 0.7304990291595459, 9.48937907234576e-05
0.44079760121877326, 0.7304990291595459, -0.07148463792747228
-0.5311311369399848, 0.7304990291595459, 0.23845122242201341
-0.21477866253033845, 0.7304990291595459, 0.08383216782262959
-0.5080731028514729, 0.7304990291595459, 0.12085385426164527
0.06640901481927294, 0.7304990291595459, -0.051577582743198506
-0.07425439644353529, 0.7304990291595459, 0.017658373873309353
-0.3198788515277263, 0.7304990291595459, -0.1058190012106191
-0.08013085107416312, 0.7304990291595459, -0.029395439879955063
-0.3767785389649956, 0.7304990291595459, 0.10247344677525433
-0.11738870600867479, 0.7304990291595459, -0.13767314266270236
-0.13482402967014107, 0.7304990291595459, -0.01178428128402613
-0.0959986154940482, 0.7304990291595459, 0.024373323787553504
-0.1250632161964786, 0.7304990291595459, 0.05755065814061248
0.14399155244666162, 0.7304990291595459, -0.12321739261727438
-0.29166913843389414, 0.7304990291595459, 0.1747717375084352
-0.13291604363019033, 0.7304990291595459, 0.13334972013204732
-0.48740059823355236, 0.7304990291595459, 0.2336604753327251
-0.15038698981250226, 0.7304990291595459, -0.015941893388942363
-0.2599466583670492, 0.7304990291595459, 0.003996437890556967
-0.3477708936555051, 0.730499029159546, -0.08213195846625093
-0.02308069391428197, 0.7304990291595459, -0.1476593704444414
-0.4409241108172027, 0.7304990291595459, 0.12432571128674436
-0.12261566528151428, 0.7304990291595459, 0.06294034732995546
-0.22095990091704776, 0.7304990291595459, 0.1138811981632269
0.518946005873067, 0.7304990291595459, -0.1295291947469065
0.2090087004731097, 0.7304990291595459, 0.00712835279783967
-0.20000037874287918, 0.7304990291595459, -0.0953820205017232
-0.5265069504400528, 0.7304990291595459, 0.27039882494903955
-0.2791251348486662, 0.7304990291595459, 0.2098060771049177
-0.5036055806297408, 0.7304990291595458, 0.25244137066708255
0.26077553487920624, 0.7304990291595459, -0.10061030208917913
-0.4929343986956367, 0.7304990291595459, 0.007765593676735738
-0.008651052051917824, 0.7304990291595459, -0.07445785871925147
-0.4761303995949542, 0.7304990291595459, 0.3149638267328172
-0.3522932216048312, 0.7304990291595459, 0.010426313573041926
-0.48903106598364754, 0.7304990291595459, -0.022344789031646523
-0.26934077225236536, 0.7304990291595459, 0.13810423033375765
-0.4455603519485047, 0.7304990291595458, -0.10258741190557366
-0.2801050801666194, 0.7304990291595459, -0.04132027141440402
0.23667144274032142, 0.7304990291595459, -0.017060849735248032
-0.4040062215116852, 0.730499029159546, 0.1895461974771666
-0.49637075272720943, 0.7304990291595459, 0.1296557640315184
0.039625810008386636, 0.730499029159546, 0.057097204173622476
-0.08773617332371886, 0.7304990291595459, -0.017123147187009108
0.06780161257935408, 0.7304990291595459, -0.021077138497290246
-0.29531518320526684, 0.7304990291595459, -0.02044253260682584
-0.10328508581704113, 0.7304990291595459, 0.08489801539099551
-0.004368840096272725, 0.7304990291595459, -0.030077460373128993
-0.003414237388573743, 0.7304990291595459, 0.04805621898229416
-0.21694373414704177, 0.7304990291595459, 0.20342627018786721
-0.5249712354797258, 0.7304990291595459, 0.011004988861842507
-0.5290406179286967, 0.7304990291595459, 0.23683431612612107
-0.36214555000477433, 0.7304990291595459, 0.061482291008421786
0.40445211185148267, 0.7304990291595459, -0.07639060309508214
-0.040947835741707156, 0.7304990291595459, 0.00910977097847205
-0.19778598275771858, 0.7304990291595458, -0.1506823710919305
0.11912568009734481, 0.7304990291595459, -0.0625015035180729
-0.47400210120499353, 0.7304990291595459, 0.08290101049544847
-0.06362865608836016, 0.7304990291595459, -0.1312718198592596
-0.4418812346018264, 0.7304990291595459, 0.25236769402609444
-0.24845842169783844, 0.7304990291595459, 0.21674885411618874
-0.41016891238033304, 0.730499029159546, 0.1585188107044655
-0.43650649127239183, 0.7304990291595459, -0.04950578768396308
-0.2613737804372118, 0.7304990291595459, 0.15527754346244202
-0.3410242321498494, 0.7304990291595459, 0.015166881114088579
-0.5074995371573423, 0.7304990291595459, -0.02800750939602642
-0.1191701790384975, 0.7304990291595459, -0.024622211648334877
-0.40096000036941537, 0.7304990291595459, -0.12229980754072804
-0.5407410803430203, 0.7304990291595459, 0.3163982595594238
-0.48868141667560605, 0.7304990291595459, 0.06614583245875202
-0.42804532631389386, 0.7304990291595459, -0.06982749122693412
-0.20811712604004265, 0.7304990291595459, 0.07236597762136368
-0.33431144644595273, 0.7304990291595459, 0.0081815104512072
-0.042273551505402907, 0.7304990291595459, -0.038186612440835176
-0.2774255817389807, 0.7304990291595459, -0.11150154722077162
0.20408123388360425, 0.7304990291595459, 0.015352894605649894
-0.48295517969379886, 0.7304990291595459, 0.07490627341075977
-0.10660454720500345, 0.7304990291595459, 0.0912499869219277
-0.2890200214803157, 0.7304990291595459, -0.08917774417375926
-0.4065750057535194, 0.7304990291595459, -0.11698851073101511
0.06005203516452576, 0.7304990291595459, -0.11600909607312623
-0.0606556297651373, 0.7304990291595459, -0.051547674112545676
-0.015208697619024297, 0.7304990291595459, -0.06550911489639238
-0.41175650198945957, 0.7304990291595459, 0.13729178372683037
0.21397484691405502, 0.730499029159546, -0.10446854329179037
-0.3666404896237364, 0.7304990291595458, 0.16426780282939427
-0.4163864226931268, 0.7304990291595459, 0.20055962525212426
0.03297963286659632, 0.7304990291595459, 0.009444889988688341
0.1017392270366849, 0.7304990291595459, -0.012273704991803826
0.18794484023152522, 0.7304990291595459, 0.03305404217824328
-0.03508339659628018, 0.7304990291595458, 0.00772753897111992
0.015223472047912523, 0.7304990291595459, -0.1434197796197268
-0.03496171404860801, 0.7304990291595459, -0.05225080561065336
-0.530323900562746, 0.7304990291595459, 0.28887305523705376
-0.14148149613738575, 0.7304990291595459, 0.014449388395253109
-0.364024936224967, 0.7304990291595459, 0.06143820800432295
-0.1067415058508221, 0.7304990291595459, 0.009198769704372979
-0.416012686985762, 0.7304990291595459, -0.07155978426415434
0.4053980045307231, 0.7304990291595459, -0.11390145602376324
0.11205160137526851, 0.730499029159546, -0.052401706669916545
-0.513260750340234, 0.7304990291595459, 0.2647985012126366
-0.014933372127518663, 0.7304990291595459, -0.12027852366637169
-0.010559504196548282, 0.7304990291595459, 0.07569432163270631
-0.4564110971900453, 0.7304990291595459, 0.008174090354536936
-0.24081109358206956, 0.7304990291595459, -0.014028133961477528
0.1139763990867482, 0.7304990291595459, -0.1048481263932485
-0.3028177707823968, 0.7304990291595459, 0.1822405533979238
-0.22066246903887343, 0.730499029159546, 0.2054657506584789
-0.439018866738206, 0.7304990291595459, -0.10787980113392441
-0.4338786183228325, 0.7304990291595459, -0.06396159359690956
-0.2706505965114952, 0.7304990291595459, 0.23322778124723348
0.47497081605764113, 0.7304990291595459, -0.13311736392324114
-0.1695572218417161, 0.7304990291595459, 0.12497467604240158
-0.347909404777589, 0.7304990291595459, 0.043874822038085584
-0.45395594995834754, 0.7304990291595459, 0.22115087255782961
-0.3467198564370593, 0.7304990291595459, -0.0021018450538391603
-0.06742673150288328, 0.7304990291595459, -0.03523729042123883
0.17685650472642145, 0.7304990291595459, -0.04460358495496025
0.2372020344118374, 0.7304990291595459, 0.018784934826155585
-0.5038212758038575, 0.7304990291595459, 0.07790490977620819
-0.05601026889146776, 0.7304990291595459, -0.002268877179975287
-0.2540394900789739, 0.7304990291595459, 0.21050008274379578
0.17503940025191211, 0.7304990291595459, -0.011196982111117606
0.535429366369474, 0.7304990291595458, -0.15158651079007246
-0.12911755980295148, 0.7304990291595459, -0.00545111011061087
-0.25692371991298, 0.7304990291595459, -0.029702905822474583
0.020438276451241577, 0.7304990291595459, -0.1275565453689516
0.053171425656953195, 0.730499029159546, 0.008532220383695284
0.3879997228789147, 0.7304990291595459, -0.09240013544413823
-0.22930978973948532, 0.7304990291595459, 0.0695137895872654
-0.02398610403651176, 0.7304990291595459, 0.038455724077132034
0.19427543223105148, 0.7304990291595458, -0.03158655514747695
-0.05317658425574576, 0.7304990291595459, -0.014307598493468097
0.2426290242734295, 0.7304990291595459, -0.14806237755526222
-0.32747371221334387, 0.7304990291595459, -0.13608757448738545
0.2526972098870051, 0.7304990291595459, -0.10592104107071028
-0.5365605598864005, 0.7304990291595459, 0.05384605347671628
-0.016690897299020485, 0.7304990291595459, -0.0981290595277913
-0.016793177494754122, 0.7304990291595459, 0.11395322318148003
0.04716582276380936, 0.730499029159546, 0.02999961872891481
-0.19848754483673173, 0.7304990291595459, -0.036399084843668855
-0.14685754640272308, 0.7304990291595459, -0.0945914030280397
-0.07663200088600343, 0.7304990291595459, 0.07213341787992311
-0.5126103055370708, 0.7304990291595458, -0.028337808684764085
-0.20917555264433643, 0.7304990291595459, 0.05817503077614842
-0.4606616182767882, 0.7304990291595459, -0.1269837763974365
-0.15659594526283185, 0.7304990291595459, 0.03607339767041091
-0.4302192796125329, 0.7304990291595459, 0.1103863032520325
-0.5127591113504509, 0.7304990291595459, 0.30299293870690613
0.02822595158079729, 0.7304990291595459, 0.05542309257837209
-0.37143621634743923, 0.730499029159546, -0.15149320304455433
-0.4249364367660873, 0.7304990291595459, 0.14491253771146645
-0.26423577960769773, 0.7304990291595459, 0.13714934719325175
-0.038635982844729744, 0.7304990291595458, 0.007535085544068967
-0.24364488327142747, 0.7304990291595459, 0.0034866595035513703
-0.5094658194373999, 0.7304990291595459, 0.22041458246161272
0.18296673360546198, 0.7304990291595459, -0.019811373562328153
-0.2116665537116845, 0.7304990291595459, -0.02602446311136311
-0.3604842390615991, 0.7304990291595459, 0.09907873990856608
-0.2095847831743525, 0.7304990291595459, -0.006288747734839423
-0.03976889225019534, 0.7304990291595459, -0.06495932077947061
-0.10199397252714465, 0.7304990291595459, -0.04938444907242031
-0.1567421581753292, 0.7304990291595459, -0.10757786427885901
-0.4948255005289869, 0.7304990291595459, 0.10361170969373064
0.13785131434013856, 0.7304990291595459, -0.034017641695913675
-0.3444424185264986, 0.7304990291595458, 0.18442361250513487
-0.24788582246121352, 0.7304990291595459, -0.1301654243029745
0.5530848057258793, 0.7304990291595459, -0.13719272356023693
-0.054195785869564805, 0.7304990291595459, 0.030345160663485277
-0.045965213567067786, 0.7304990291595459, -0.1453630036369944
-0.15427698001902412, 0.7304990291595459, -0.003346654118342139
0.05939948811148059, 0.7304990291595459, 0.028928625473606945
-0.2354860938259561, 0.7304990291595459, 0.051672438371006366
-0.43266881480866903, 0.7304990291595459, 0.07995002803220098
-0.3029818466978805, 0.7304990291595459, 0.026354599876213025
-0.4730308979415535, 0.7304990291595459, 0.030486577183784475
-0.5270350453992053, 0.7304990291595459, 0.26858183283952786
-0.4548570374362776, 0.730499029159546, 0.2146075091337862
-0.362831440329796, 0.7304990291595459, 0.27679659871569234
0.10734815404458076, 0.7304990291595458, 0.026990278287951273
0.18160123592142335, 0.7304990291595459, -0.12285286597589273
-0.5060227354535023, 0.7304990291595459, -0.020464773038237086
-0.3000759276224262, 0.7304990291595459, 0.03579361337105255
0.03335825083703403, 0.7304990291595459, -0.1307947684246143
-0.06136819616188449, 0.7304990291595459, -0.146034097139291
-0.06755114122267655, 0.7304990291595459, -0.0686441486527285
0.033668463312334196, 0.7304990291595459, -0.13230281797673524
-0.5123227906851509, 0.7304990291595459, 0.16520866196989129
0.5497196258698596, 0.7304990291595459, -0.14658908895838532
-0.1382258403539901, 0.7304990291595459, 0.14218717825294921
0.11353794444639967, 0.7304990291595459, -0.11483129714126891
-0.2987218180674326, 0.7304990291595459, 0.08160022096825605
-0.14693882122773558, 0.7304990291595459, 0.08279024013200464
-0.19574570405306893, 0.7304990291595459, 0.004898941574656153
-0.3304055249836204, 0.7304990291595459, -0.06720522597798315
-0.5051306325660415, 0.7304990291595459, 0.21789094663917088
-0.1754162623195305, 0.7304990291595459, -0.047090814047326755
-0.4460401464045089, 0.7304990291595459, -0.12829867182959712
-0.01097628790815286, 0.7304990291595459, -0.14018246486638983
-0.038683011884921514, 0.7304990291595459, -0.08091233057787915
-0.5251696362428997, 0.7304990291595459, 0.09730170613567006
-0.5022440367736662, 0.730499029159546, 0.23711066479855133
-0.20569915018239876, 0.7304990291595459, -0.12377300207040583
-0.4524652880694783, 0.7304990291595459, -0.051865834395609475
-0.07893851067594333, 0.7304990291595459, 0.13475930093598545
0.08033392147107006, 0.7304990291595459, -0.0012007158150683511
-0.16964645566549003, 0.7304990291595459, 0.1816335861550382
-0.4125368997454194, 0.7304990291595459, -0.15078727731360309
-0.3205835402026227, 0.730499029159546, 0.2042167386145351
-0.4641660245384105, 0.7304990291595459, 0.06315638153722011
0.04571603615949879, 0.730499029159546, -0.020229665900496234
-0.27106497623911335, 0.7304990291595459, 0.07566932696734827
-0.4742301614957727, 0.7304990291595459, 0.21580743395685406
-0.4613252674113853, 0.7304990291595459, 0.024436940014679262
-0.1822315240343098, 0.7304990291595459, 0.06986877802636116
-0.3618997982022276, 0.7304990291595458, 0.18847557384415892
-0.10167177527559981, 0.7304990291595459, 0.08371074283632443
-0.09638598638582328, 0.7304990291595459, -0.03872627077631762
-0.510217530009735, 0.7304990291595459, 0.22287698222638275
-0.32549951169818225, 0.7304990291595459, 0.23720460766428067
0.4103420592263796, 0.7304990291595459, -0.071372312723517
-0.21683967589751468, 0.7304990291595459, -0.048092311203462926
-0.33889111800916116, 0.7304990291595459, 0.024038468442704436
-0.47755097611875713, 0.7304990291595459, 0.007188380176880921
-0.0919949500720908, 0.7304990291595459, -0.07277545439478292
-0.05279177523355605, 0.7304990291595459, -0.10915465404886221
-0.4873317077363656, 0.7304990291595459, 0.022057170080387475
-0.41569454505064163, 0.7304990291595459, -0.06687297938871098
-0.17979861378974196, 0.7304990291595459, -0.10525870206659493
-0.22473273654034612, 0.7304990291595459, -0.12631102253343515
-0.24489675763868246, 0.7304990291595459, -0.011909531252354853
-0.36296046522436876, 0.7304990291595459, 0.02904912437722082
-0.2780499935436163, 0.730499029159546, -0.13816494375654348
0.31628841684045605, 0.7304990291595459, -0.15105069945263527
-0.08529257136710638, 0.7304990291595459, -0.07317946685950519
-0.4457051608996005, 0.7304990291595459, -0.11257272988487131
-0.3113802147917185, 0.7304990291595459, 0.08461996357410487
0.14448173260683556, 0.7304990291595459, -0.04370361866181807
-0.5279097221730492, 0.7304990291595458, 0.1901608723909059
-0.1427884555571594, 0.7304990291595459, 0.13525860573145787
0.19424551157846157, 0.7304990291595459, 0.03672388920827103
-0.2956493587695067, 0.7304990291595459, -0.03821127316199964
-0.013634131908077912, 0.7304990291595459, 0.007452403717926409
-0.39931510636670375, 0.7304990291595459, 0.11740846295365928
-0.4858194246343151, 0.7304990291595459, -0.0963473073972741
-0.32764360631685696, 0.7304990291595459, 0.08638345130660213
0.08098259562588173, 0.7304990291595459, -0.11610468701647153
0.13467119824783436, 0.7304990291595459, -0.020759719825083272
0.10877922700249545, 0.7304990291595459, 0.0012102714451125707
0.01703802152138202, 0.7304990291595458, 0.013115263637877461
0.14345043612033453, 0.7304990291595459, 0.050840913325022725
-0.3337858551888066, 0.7304990291595459, -0.09015945347480277
-0.010835724636028249, 0.7304990291595459, -0.06569129146350464
-0.4749318456539009, 0.7304990291595459, 0.18756607706576167
-0.4411955892732966, 0.7304990291595459, 0.03552370144618901
-0.16528789621864454, 0.7304990291595459, -0.018345657477986402
0.03910319893189826, 0.7304990291595459, -0.056557894515822806
0.25421976679124914, 0.7304990291595459, -0.11535997861036976
-0.16012591611172816, 0.7304990291595459, 0.004466012915454259
-0.2787096746715282, 0.7304990291595459, 0.2345722208079063
0.38036770256709285, 0.730499029159546, -0.045125477160189324
-0.27821155253939656, 0.7304990291595459, -0.06698764779809638
-0.4799331460562705, 0.730499029159546, 0.21030794079662135
-0.1558013166707063, 0.7304990291595459, -0.03250400809179945
-0.4182920594698292, 0.7304990291595459, -0.07992559646270991
0.2559498503115598, 0.7304990291595459, -0.011184915728072852
-0.4208063737884926, 0.7304990291595459, 0.046678231179493365
-0.5026896988022115, 0.7304990291595459, 0.15506205789630198
0.2539345579803637, 0.730499029159546, -0.14400283250840148
-0.4572892476691154, 0.7304990291595459, -0.05506416656890509
0.02394409455136462, 0.7304990291595459, -0.05121531240652126
-0.5385053505377642, 0.730499029159546, 0.2914140786494674
-0.47828166155070173, 0.7304990291595459, 0.03284110066449164
-0.3211096395385233, 0.7304990291595459, 0.17955153509435257
0.5712915501200434, 0.7304990291595459, -0.14173602859226836
-0.3992029571429204, 0.7304990291595459, -0.11131141086234622
0.19083998749379583, 0.7304990291595459, -0.02568162380500424
0.16323359396776616, 0.7304990291595459, 0.015567750655364308
-0.350869221317734, 0.7304990291595459, 0.0017913797087138195
-0.20457457141139768, 0.7304990291595459, -0.10132168296961128
-0.4272703500454419, 0.7304990291595459, 0.18599126764893967
-0.26823831216761285, 0.7304990291595459, 0.07686359071286006
-0.12537186318923418, 0.7304990291595459, 0.17042376039804089
0.06259936261826232, 0.7304990291595459, -0.09076503534610161
-0.14713657315107745, 0.7304990291595459, -0.1080382280124364
-0.51988684552264, 0.7304990291595459, 0.1029894316474665
-0.4545595169981006, 0.7304990291595459, -0.013385619655824701
-0.4782743632316022, 0.7304990291595459, -0.016371757232863243
-0.1317010244325283, 0.7304990291595459, 0.1671866867670223
-0.42696574003316534, 0.7304990291595459, -0.07977305048527646
-0.013396103440620921, 0.7304990291595459, -0.15312741560324084
-0.10033201080386242, 0.730499029159546, 0.139625775667204
0.4379439107416225, 0.730499029159546, -0.14624922650146865
-0.01061500531867205, 0.7304990291595459, 0.09461306072873917
-0.43172300045051204, 0.730499029159546, 0.2712868752425584
-0.2668514914026951, 0.7304990291595459, -0.043012506412357085
0.520374744392788, 0.7304990291595459, -0.10088408794566765
-0.5407508666261618, 0.7304990291595459, -0.15077299427929303
-0.08130094569442614, 0.7304990291595459, 0.15214638758608276
-0.493110616450199, 0.7304990291595459, -0.035151059891103065
0.058089688193176656, 0.7304990291595459, 0.044181637014418906
0.246805160991311, 0.7304990291595459, -0.06180010040459407
-0.30136265019833025, 0.7304990291595459, 0.13851489930072713
-0.2811548208775779, 0.7304990291595458, 0.23025184830700565
-0.06918463836823524, 0.7304990291595459, -0.1312519484471225
0.04384570887615344, 0.7304990291595459, -0.10462517809717554
0.07581924093041778, 0.7304990291595459, -0.10561431203785529
-0.22072872838424637, 0.7304990291595459, -0.1512516486321394
-0.27512164426502345, 0.7304990291595459, 0.01967931412939053
-0.10221903952259545, 0.7304990291595459, 0.07776372310287416
-0.1465987248766757, 0.7304990291595458, 0.10404005412627748
-0.11633730949020962, 0.7304990291595459, 0.10453563578324662
0.4714485021262836, 0.730499029159546, -0.0915714549456591
0.21308208608043921, 0.7304990291595459, 0.0059029647342176365
0.3187858092337641, 0.7304990291595459, -0.17760817815933794
0.2203046289119739, 0.7304990291595458, -0.19115635404688608
0.4578525525547652, 0.7304990291595459, -0.16385093165807738
0.45939789857864166, 0.7304990291595459, -0.1719507944802598
0.3813648683504175, 0.730499029159546, -0.16680303871573463
0.35030221173889337, 0.7304990291595459, -0.19274972904394871
-0.23296852214850247, 0.7304990291595459, -0.19116376890969222
0.07393832031817935, 0.7304990291595459, -0.193693448343212
0.03496316644196762, 0.7304990291595459, -0.1933759026401391
-0.033666036813932904, 0.7304990291595459, -0.19284150801407934
-0.2790150521520869, 0.7304990291595459, -0.1931059743570308
0.6029035083360541, 0.7304990291595459, -0.1912053322134744
0.5585851246374625, 0.7304990291595459, -0.18673844821771263
0.18283478572395942, 0.7304990291595459, -0.19113131224630808
0.5788964770052798, 0.7304990291595459, -0.1822542976203172
0.6056680425859342, 0.730499029159546, -0.18516292474014281
0.264436545815078, 0.7304990291595459, -0.1944906530990606
0.2820921826607406, 0.7304990291595459, -0.17545507316516415
0.5804206360188812, 0.7304990291595459, -0.17745849122479257
0.45193725727612827, 0.7304990291595459, -0.16552294244811042
0.3731426955630906, 0.7304990291595459, -0.16565166270362897
0.3205861648362559, 0.7304990291595459, -0.17627268982911226
0.2355830641598544, 0.7304990291595459, -0.19332736611942253
-0.31164209746193217, 0.7304990291595459, -0.1876539143801078
-0.0923550808398654, 0.7304990291595458, -0.1926306869786991
0.5687687091994764, 0.7304990291595459, -0.18142763816529245
0.47421806087071944, 0.7304990291595459, -0.1809093427065486
-0.04929503784919273, 0.7304990291595459, -0.18496538119420008
0.5072238995444485, 0.7304990291595458, -0.16652757312987576
0.2741323969679593, 0.7304990291595459, -0.19449419892782566
0.5173863523608545, 0.7304990291595459, -0.17941082147641177
-0.012828982133291172, 0.7304990291595459, -0.18697540699725043
-0.05291959137491026, 0.7304990291595459, -0.18765820646316858
0.3521911624434996, 0.7304990291595459, -0.1751267992801286
0.06509470321756457, 0.730499029159546, -0.17777292063539354
-0.1391004321681474, 0.7304990291595459, -0.18254996615743738
0.0017341693670068214, 0.730499029159546, -0.1897137041861983
0.5514412821306173, 0.7304990291595459, -0.18359651074021466
0.010079806547792794, 0.7304990291595459, -0.18352947120777718
0.10206835180346216, 0.7304990291595459, -0.17961904149054816
0.44746142518386345, 0.7304990291595459, -0.1670094702729856
0.35948129795934114, 0.7304990291595459, -0.1790366716491792
0.6527938520902195, 0.7304993254347169, 0.26699565636441425
0.6525648646066609, 0.7304990700168554, -0.1498208726251365
-0.3492389382586115, 0.7308393001667612, 0.35715196839260865
-0.3553708533669029, 0.7372269774978245, 0.35745643130417926
-0.4656513165369837, 0.7396771465919794, 0.35745643659178206
-0.49846177706375505, 0.7322910112984233, 0.35745639329725487
-0.3199529154804125, 0.7375662230264671, 0.3574564358323691
0.0714684112220559, 0.7373028445176735, 0.35745646369062867
-0.38597022299689904, 0.7323396258039159, 0.35745640199079476
-0.40178385997075544, 0.7393658220193886, 0.3574564396536793
0.40555203480557245, 0.7320832574923498, 0.35745645985230445
-0.45469248329430423, 0.7419880333384938, 0.3574564501891988
-0.27551520573050736, 0.7436564694155231, 0.3574564728328352
-0.377140404438365, 0.7443945351285257, 0.3574564693025859
-0.040379988962542024, 0.732320471155768, 0.3574564277669487
-0.1427658001764843, 0.732589282097599, 0.3574564215852681
-0.48070797264290166, 0.7465628815572685, 0.35745647353476095
0.13005014313894844, 0.7334478986218491, 0.35745644676430327
0.3206263956953348, 0.7352540261989022, 0.3574564710229194
-0.4603835871579518, 0.7431307443140214, 0.3574564560809245
0.6525778200988082, 0.7483505358537358, -0.020880226824768207
0.6544915787921629, 0.7486300260765377, -0.10163910912091045
0.652817672062135, 0.7304992611291221, 0.14254378185337344
0.6545897256457468, 0.7304990291595459, 0.24337261108823866
0.6529184928224869, 0.7481405326281051, -0.13474313316071176
-0.008639335190598785, 0.7308507696949404, -0.35292040327017793
-0.5838229912936042, 0.7304990291595459, -0.21160577001733194
-0.6286323748503106, 0.7304990291595459, -0.24040978235873894
-0.6318000433229591, 0.7304990291595459, -0.280825730774111
-0.5810536316338012, 0.7304990291595459, -0.21910093804681843
-0.6171482416934645, 0.7304990291595459, -0.24824123917519686
-0.5902290530341778, 0.7304990291595459, -0.1975588082271738
-0.5968816062534239, 0.7304990291595459, -0.22529111118732575
-0.6382050399822394, 0.7304990291595459, -0.2164831967806226
-0.645568946058741, 0.7304990291595459, -0.21861704670506846
-0.5933438223487383, 0.730499029159546, -0.23936561958088215
-0.6027007552148558, 0.7304990291595459, -0.20924606532447584
-0.5948606190215959, 0.7304990291595459, -0.23477621658867298
-0.5823709931568947, 0.7304990291595459, -0.2540766782104638
-0.6437659329896877, 0.7304990291595459, -0.27966621681761034
-0.6306715963666039, 0.730499029159546, -0.3243472933646527
-0.654843251163364, 0.7304990291595459, -0.2630067651987298
0.17824055335703534, 0.7305056322854199, -0.3521606937009627
-0.3025263008842139, 0.7304990291595459, -0.3085058467686715
0.358571833493627, 0.7304990291595459, -0.22816546500547197
-0.46839508574620525, 0.7304990291595459, -0.19824158916617063
-0.11855418535679992, 0.730499029159546, -0.2687424890792577
-0.38481660253780176, 0.7304990291595459, -0.2082503620422676
-0.501343289289846, 0.7304990291595459, -0.33887027760897576
0.4159168274515627, 0.7304990291595459, -0.20538739565388073
-0.34143031661661205, 0.7304990291595459, -0.26483393371873143
-0.30184778082887764, 0.7304990291595459, -0.2667187299943415
-0.4187802830995584, 0.7304990291595459, -0.3109985740893706
-0.2208217243345909, 0.7304990291595459, -0.24281034773852567
0.002263341025027038, 0.7304990291595459, -0.22711798735742156
0.2688578755818143, 0.7304990291595459, -0.20642088381584076
-0.313030586605593, 0.7304990291595459, -0.206743648195777
-0.12903263593159553, 0.730499029159546, -0.28204007675874143
0.16109400775200744, 0.7304990291595459, -0.22324690525073754
-0.1358156259986558, 0.7304990291595459, -0.23356666885596825
-0.49886173904994346, 0.7304990291595459, -0.19760447744793144
-0.5130769065182983, 0.7304990291595459, -0.31267900701220275
-0.3886655817098198, 0.7304990291595459, -0.2844421242504037
0.27513397831397085, 0.7304990291595459, -0.2168004007047947
0.080551915680623, 0.7304990291595458, -0.23517060348742785
-0.5307505507631366, 0.7304990291595459, -0.3239490970942045
-0.18354981527848435, 0.7304990291595459, -0.2947486450129412
-0.39138098188417375, 0.7304990291595459, -0.22859616462008223
-0.2088735713310938, 0.730499029159546, -0.3049828166886519
0.0881948061525625, 0.7304990291595459, -0.21454265397334832
0.27556024647661803, 0.7304990291595459, -0.23170323250579594
0.020644907784447566, 0.7304990291595459, -0.26555033065163747
0.17767014908889883, 0.7304990291595459, -0.19558883461029608
0.5087665583810381, 0.7304990291595459, -0.19534688637541445
-0.20745453751016626, 0.7304990291595459, -0.20094805419307615
0.11749871638803655, 0.7304990291595458, -0.22337425355425472
0.17102010732191836, 0.7304990291595459, -0.20250168941440239
0.4322091963411615, 0.7304990291595459, -0.19728100208939686
0.1503174232371553, 0.7304990291595459, -0.21719250480974953
0.3943168650215786, 0.7304990291595459, -0.1973283298303203
-0.24665504710055108, 0.7304990291595459, -0.226066005209414
-0.012995118410228289, 0.7304990291595459, -0.28092215385666885
0.3565913249081215, 0.7304990291595459, -0.20518389307814933
-0.3169363792710312, 0.7304990291595459, -0.24072769974444178
-0.5400628827050169, 0.7304990291595459, -0.27348339811758404
-0.41454932413012735, 0.7304990291595459, -0.2342254401777972
-0.3361254308167455, 0.7304990291595459, -0.23820808123845105
-0.07426673338589446, 0.7304990291595459, -0.21560443636241294
0.0788136739755503, 0.7304990291595459, -0.2440819124651217
-0.2917901616751417, 0.7304990291595459, -0.2511256206158518
0.049265350804172325, 0.7304990291595459, -0.22446380808659938
0.10039774590243779, 0.730499029159546, -0.25522544332104535
-0.17553499105550915, 0.7304990291595459, -0.2709126471192862
0.383869830522081, 0.7304990291595459, -0.19857677476336857
-0.30746524295453204, 0.7304990291595459, -0.285692819716963
-0.3716250904994438, 0.7304990291595459, -0.2678673127892051
-0.4266493244040191, 0.7304990291595459, -0.2752025928718815
-0.47000728027019945, 0.7304990291595459, -0.3224126939056627
-0.14350447423185403, 0.7304990291595459, -0.284503125016918
0.595467349239229, 0.7304990291595458, -0.19780689295562662
0.33712497285957993, 0.7304990291595459, -0.22686019210987704
-0.15842668748624808, 0.7304990291595459, -0.27706810865074466
-0.3869356773690625, 0.7304990291595459, -0.2260845019490629
-0.22915616926508917, 0.7304990291595459, -0.19812397862085274
0.169902872811558, 0.7304990291595458, -0.241918376729771
-0.011289087448610818, 0.730499029159546, -0.27986956423821463
-0.5246377955256266, 0.7304990291595459, -0.3118647686986304
-0.5319927387586149, 0.7304990291595459, -0.24294229136952578
0.25520619442652254, 0.7304990291595459, -0.20613224869369667
-0.26916876757435215, 0.7304990291595459, -0.25303251345973565
-0.2230873893841216, 0.7304990291595459, -0.20381762000855855
0.05752071377089028, 0.7304990291595459, -0.23863551440071007
-0.33065982664610183, 0.7304990291595459, -0.2629188705442527
0.10415641520662192, 0.7304990291595459, -0.22164765237062756
0.5355387661280226, 0.7304990291595459, -0.1983889262146486
0.05519357462504475, 0.730499029159546, -0.2713382946675487
-0.27492663637075043, 0.7304990291595459, -0.20710956324587537
0.002153518442872815, 0.7304990291595459, -0.2190271196652967
-0.3251642547656462, 0.7304990291595459, -0.23906889170408946
-0.16979452232094638, 0.7304990291595459, -0.2687445816601209
-0.027755213173811646, 0.7304990291595459, -0.25573756789735125
0.3271021746147237, 0.7304990291595459, -0.2090504942976874
-0.46011614708246285, 0.7304990291595459, -0.22353898886532209
0.4599276149568028, 0.7304990291595459, -0.21895106928044508
0.04650458254555406, 0.7304990291595459, -0.20039602187459157
0.46005037670455984, 0.7304990291595459, -0.20876609685018252
-0.09666960676547301, 0.7304990291595459, -0.2785440525860384
-0.44377606844327083, 0.7304990291595459, -0.31082932673
-0.3025350363832997, 0.7304990291595459, -0.2368037766909087
-0.06357607958781095, 0.7304990291595459, -0.23152603943609829
-0.39100304125253826, 0.7304990291595459, -0.3111837114294776
-0.45531312381955436, 0.7304990291595459, -0.32309930297356315
-0.20709998140510755, 0.7304990291595459, -0.2028381731521466
0.1076763763137838, 0.7304990291595459, -0.21049183888551937
0.5992490431448446, 0.7304990291595459, -0.20112976467745736
0.2778711066808418, 0.7304990291595459, -0.21105706146696523
-0.33182077160525447, 0.7304990291595459, -0.2876440137685993
0.2610183647970005, 0.7304990291595459, -0.2433547624030652
-0.44901080612634425, 0.7304990291595459, -0.2723973767307501
0.5300998555430168, 0.7304990291595458, -0.19986205981937452
-0.5070562045937259, 0.7304990291595459, -0.2657663454134846
0.053010569197110446, 0.7304990291595459, -0.23066772819088777
0.1750076644787212, 0.7304990291595459, -0.2574163258836699
-0.2605421879421432, 0.7304990291595459, -0.29420744845610936
0.2099447382450283, 0.7304990291595459, -0.1984932267232593
0.3212171831390661, 0.7304990291595459, -0.22396686003468327
0.12425355673811507, 0.7304990291595458, -0.23471179480435694
0.24782716765062918, 0.7304990291595459, -0.22535122544057973
-0.032157756538737814, 0.7304990291595459, -0.21890197417904056
-0.39026750865154375, 0.7304990291595459, -0.24411338815867595
0.43109989982899644, 0.7304990291595459, -0.2072397854281617
-0.28561855974224903, 0.7304990291595459, -0.20553419175478493
-0.3532062370811291, 0.7304990291595459, -0.19762943016328233
-0.05452759278597316, 0.7304990291595459, -0.26894343342689886
-0.3330297359106193, 0.7304990291595459, -0.3153734208789225
-0.0012527993667296733, 0.7304990291595459, -0.2334314216286278
-0.4773190325803489, 0.7304990291595459, -0.2953182593419842
-0.38154710099193617, 0.7304990291595459, -0.22996121960692156
-0.4478056376196531, 0.7304990291595459, -0.20277820070282052
-0.4977911371574437, 0.7304990291595459, -0.3062340602733621
-0.3793802024340574, 0.7304990291595459, -0.3145815604368253
-0.239867796868568, 0.7304990291595459, -0.24322860064790106
-0.3543709692469994, 0.7304990291595459, -0.22911042275604432
-0.29763694432647053, 0.7304990291595459, -0.23064262324853713
-0.46424442083236467, 0.7304990291595459, -0.20141714693456714
0.10781291371721269, 0.7304990291595459, -0.21954690451175707
-0.15702240358822417, 0.7304990291595458, -0.2842996076290829
-0.0015523331597724344, 0.7304990291595458, -0.24227005776941085
-0.4102571327576912, 0.7304990291595459, -0.2311991891610699
-0.4034002706063398, 0.7304990291595459, -0.25910517416777235
-0.3548391146148329, 0.7304990291595459, -0.279146482017416
-0.2122092984994177, 0.7304990291595459, -0.19887400509626252
-0.14593819619754328, 0.7304990291595459, -0.2533185218295378
-0.26863022933955755, 0.7304990291595459, -0.2385477645645627
0.1880394827376725, 0.7304990291595459, -0.21431719152200374
-0.15617971018902022, 0.7304990291595459, -0.20723130807183854
-0.44436684359318246, 0.7304990291595459, -0.3133623516341581
-0.35850035762202603, 0.7304990291595459, -0.2830730392618034
0.033166159752690494, 0.7304990291595459, -0.22788196847913095
