0.05989070053363829, 0.45859241120393157, -0.025289911987929802
0.07814553585319801, 0.4585996186535062, -0.03076717839894821
0.06482803928970768, 0.45859481145186787, -0.027458897876394255
0.054497660341333194, 0.45859072390390815, -0.038350867539444985
0.04931380028928023, 0.4585907481134563, -0.0368377065559955
0.045019166224370286, 0.45859076195875276, -0.03779697507033758
0.04869809218174209, 0.45859077377355995, -0.02854076600546181
0.044536155593847694, 0.4585907673799029, -0.036528283275540384
0.06426154586845872, 0.4585929549998836, -0.012963667983927202
0.060799400712945734, 0.458591331077954, -0.013761386887575312
0.0770563487474088, 0.4585975056537881, -0.014812814890143551
0.07896963384420656, 0.4585984010312724, -0.01437875161025972
0.06718712321823035, 0.45859256520744385, -0.018116103522687974
0.07375057119392878, 0.45859659280857823, -0.013465716753642566
0.07101521370774971, 0.4585953446268991, -0.02275532244097418
0.08666864746275978, 0.45860603534089006, -0.025795881442446083
0.0810924916909565, 0.458603114647602, -0.025451910937529923
0.05215294901820812, 0.458590752064671, -0.019426755336749757
0.029730902571583534, 0.4585908098658318, -0.014357321833789813
0.04826261076368871, 0.4585907651032163, -0.019622400606461886
0.051699184211376585, 0.45859075235518826, -0.019010062747463613
0.05338760212769047, 0.45859074590790966, -0.01864346026927209
0.05453184763519732, 0.4585907508931143, -0.021736872520759155
0.03068579719882791, 0.45859080760688864, -0.01464561196911229
0.059426034562959265, 0.45859073248166604, -0.020773223532791277
0.039133254794567925, 0.4585907825097303, -0.015369209550485104
0.04823226249267606, 0.4585907691366867, -0.021028525911620778
0.04507911404311523, 0.4585907833500083, -0.022489426696944422
0.1176145129898607, 0.45870064145503686, -0.03314717652058259
0.11123861345853803, 0.4586708469188927, -0.03132989736106541
0.125144454593362, 0.458736944457608, -0.024257977614183544
0.12853658885836292, 0.45876104131529666, -0.022381935242460068
0.10803879502582074, 0.4586389099572865, -0.01809125681288227
0.1110119547429731, 0.45865332316430785, -0.02040793226986987
0.11768063377163722, 0.4586785820401232, -0.019952879170374974
0.10084969112146606, 0.4586325446496047, -0.029649247335971282
0.10297915708395518, 0.4586338990905406, -0.026758694055729677
0.09349579447327375, 0.4586270762157369, -0.04119216560039621
0.08740611060816694, 0.4586180651427776, -0.044086829802147315
0.09477230556601604, 0.45863026129600404, -0.04738223482939065
0.10372156366974351, 0.45864668815184045, -0.035347022243404094
0.11438283095380991, 0.4586967173557934, -0.0382373740919972
0.10210909507998153, 0.4586787925401865, -0.0599028818261148
0.10204562218064883, 0.4586801593784543, -0.06047375228111018
0.10575046724355493, 0.45869209579602443, -0.06035247649219182
0.12154086734818675, 0.4587764168418329, -0.050693384729219755
0.11910486384121859, 0.45875847594507146, -0.05143191779516323
0.10593676010773792, 0.45866691919797853, -0.04557211792712049
0.11027171533577805, 0.4586860602349579, -0.046725417148935064
0.09199381317758192, 0.45862716730790015, -0.04955172275732319
0.09302327399821655, 0.4586356940055416, -0.05471040260067506
0.08192599998401665, 0.4586127986219407, -0.04969877827399052
0.11079720866702955, 0.45869051038611663, -0.04877243423592627
0.10768709690509135, 0.4586834089111689, -0.05415763685429323
0.10127548525283246, 0.4586550845834987, -0.051521555948273234
0.11765347833727478, 0.45871956848108414, -0.03993525617284859
0.11756129037716583, 0.45872640658687025, -0.043604054872927483
0.06904621192500249, 0.4585930657009637, -0.00373880296439013
0.06590699719375415, 0.4585928352112106, -0.005511398571951381
0.06361189572709086, 0.4585918407118896, -0.00533878927228629
0.08068970053531743, 0.45859897762816476, -0.00615533232200234
0.049555627682344165, 0.4585907600379705, -0.000919495878137001
0.05240410266006289, 0.45859075469582955, -0.0011635956575614572
0.02099437684274295, 0.4585908300956953, -0.0029851317159400315
0.050732926499383234, 0.4585907636760972, -0.002620136618784871
0.006297326923791713, 0.4585908542467164, -0.0007918823253602152
0.04383227999606455, 0.4585907849828168, -0.004317823775655585
0.056166663677946066, 0.45859074791785287, -0.0015622318781501096
0.02308126808930955, 0.45859082561378295, -0.0030085165222668232
0.05433945263062591, 0.45859075299250435, -0.0018565698488743295
0.03507161246873555, 0.45859080030543464, -0.0032640226414179458
0.049756130024740414, 0.4585907684978323, -0.003354578566401532
0.05371985722449388, 0.4585907546455769, -0.0019378497407975886
0.0751184189422527, 0.45859485823559143, 0.0012239087251753188
0.08740281890691418, 0.45860099637320667, 0.004886909731335512
0.08319229564803685, 0.45860098587536635, 0.0015445238782532636
0.08681590039763087, 0.4586029132226625, 0.013076195922509708
0.09183784621949535, 0.45860947056266455, 0.009963645661313539
0.10024478677127242, 0.45862426243043114, 0.009451277199032023
0.1070387119473083, 0.45863640299310654, 0.005019722748892731
0.11959190011142858, 0.4586871246036975, 0.010380963854414517
0.11082865227886847, 0.45864966473663094, 0.011142754717947727
0.11287043211012213, 0.45865838155254524, 0.010627641109884005
0.11617561002569825, 0.4586760837102033, 0.0012165579374718337
0.11264751908610171, 0.45866068821390604, 0.0003252087661599222
0.11662286418342378, 0.4586789240928652, -0.00033711323859507636
0.12086237931437245, 0.4586980073277331, -0.0006370126216465805
0.11194254577010514, 0.45865703366728805, -0.0029699891349495035
0.10523931498673521, 0.45863281446752, -0.009743722085455597
0.09964614683494372, 0.4586229061229754, -0.013775449652489023
0.10167949593287816, 0.458625927850943, -0.014219479272050736
0.11928773996283865, 0.4586966906591473, -0.027427186832442416
0.1154848359919663, 0.458673114819245, -0.02222116159174795
0.11622999600889486, 0.45868147850215957, -0.025575734394456366
0.12383179755436169, 0.45871197723021145, -0.010217626054753681
0.11175070133396373, 0.4586538336219477, -0.012945042287678503
0.10877142092272007, 0.45864100008280867, -0.010699937787530985
0.10835483391229797, 0.45863944504397636, -0.01603200871075353
0.10550337141311551, 0.45863434094130107, -0.021427728309534218
0.10417703290321426, 0.4586289425678885, -0.017882650793402326
0.08921497611517375, 0.4586061660224778, -0.022731813806813245
0.11429299527934536, 0.4586640369544041, -0.01600959791801358
0.11891725433907258, 0.4586837059008889, -0.013887182469910943
0.12441517147562894, 0.4587188074851787, -0.005683608473848269
0.12665639528202355, 0.4587387496695819, -0.0037620744110459783
0.08116938482282372, 0.4585991563984356, 0.020848060738614275
0.08095858548430362, 0.4585988805465033, 0.015916739831809204
0.08016845563020941, 0.45859864613044926, 0.021175931968609677
0.08178357111909962, 0.45859950512849956, 0.021704672431825285
0.06350168888618997, 0.45859344610651437, 0.009104930789933439
0.08082197701798718, 0.4585994343430242, 0.010063090967873957
0.08721780774407094, 0.45860158192909306, 0.009145410150039363
0.0818548315793621, 0.4585997968030509, 0.010227366452975922
0.08242915945490953, 0.4586000614610077, 0.011578829316559217
0.011262859910552828, 0.4585908468474388, 0.0022348729317195177
0.011539029778378023, 0.4585908454286445, 0.004257331017029122
0.0512056597461611, 0.4585907813801913, 0.011400126574446232
0.03934168983484253, 0.4585907990926294, 0.012191702798693941
0.025545547763177186, 0.45859082295431913, 0.0064924545436066475
0.044435742807871485, 0.45859079121699114, 0.012400160201436305
0.04628973172224107, 0.4585907830150934, 0.023295114978567164
0.054015599122719506, 0.45859077630700334, 0.012993118713100568
0.038893322474549755, 0.4585907979510858, 0.015893725594083224
0.04301338511204958, 0.45859078885699345, 0.02158646521535408
0.04999365927885748, 0.4585907834566217, 0.010939664307166082
0.042194160062357475, 0.45859079101732875, 0.01974059842574962
0.01919458303660019, 0.45859083361761055, 0.004520320023026885
0.05456726326468021, 0.45859077650384883, 0.010887089627117237
0.02985838862732116, 0.45859081607189667, 0.0071040425848088685
0.048088182865567534, 0.45859078731790104, 0.009005648506810364
0.04666371211402409, 0.4585907847591903, 0.01860142958553847
0.023367256591137232, 0.45859082756506436, 0.0038828219632096855
0.08637450771009919, 0.45861447698711594, 0.03928651654316053
0.09565524771732838, 0.4586299342304308, 0.040652914813180764
0.09147736678757741, 0.4586229920941918, 0.04004997816244559
0.11346695730956033, 0.45869321940679025, 0.039058429078599514
0.1091584440417455, 0.458675760624483, 0.04053593263848283
0.11529453559787516, 0.4587026113574936, 0.04107997457023596
0.12001229481612846, 0.4587484308477768, 0.04460355574541767
0.11707149365506889, 0.45873069069631045, 0.04742033948848324
0.09978301438784794, 0.45864134497209746, 0.04522862727567005
0.11154801060859498, 0.4586915048215785, 0.047015275371029286
0.12714535258657866, 0.458753935358315, 0.02410683253823078
0.12941915426067702, 0.45877650726537167, 0.025684495422996414
0.1110765557370599, 0.45866267576534614, 0.026567987727145248
0.10924175834100966, 0.4586549186228709, 0.026311705411947696
0.09612577053140522, 0.4586163499079692, 0.01896640371477847
0.09735488801685657, 0.45861858968244273, 0.01629103624817774
0.09386063408924086, 0.4586129306295716, 0.018717820660286485
0.09552648167751639, 0.4586153766320826, 0.019402419059027416
0.12010344143801098, 0.4586876376079735, 0.01607729314577526
0.11633464055747918, 0.45867299018094254, 0.013197265821512105
0.09691867496918034, 0.45862149205511415, 0.02509118077143781
0.0937348001849002, 0.45861627336782484, 0.02751107286994737
0.09303603018578836, 0.45861531522851107, 0.028626396992283337
0.11484533207351103, 0.45867533633623203, 0.025034949368333167
0.10719331515977613, 0.45864537277755757, 0.02547279684724627
0.10992512986797245, 0.4586471494911442, 0.01867348283200608
0.10886531037586059, 0.45864586102558025, 0.020943226511971082
0.11875268806485302, 0.45868194395163175, 0.019136733374167464
0.1269360033193735, 0.45873958050139607, 0.016068427414086456
0.1325819683573662, 0.45878872160391965, 0.013050579210939797
0.07397057536564712, 0.45860051387671286, 0.043862558370872606
0.0632743083575868, 0.45859514149325986, 0.04290145245024716
0.0700677313667129, 0.45859808506479377, 0.04108384185346122
0.05188114749476247, 0.45859241891279645, 0.043370174211964624
0.050535988453074936, 0.45859118342683786, 0.0408767829590512
0.05328200274723104, 0.4585972803444428, 0.05310419095063801
0.05702876980192509, 0.45859836818669797, 0.05535034959115633
0.05293754534709565, 0.4585925184992148, 0.04358992372272217
0.0541639063717422, 0.4585972739564973, 0.053108898292286884
0.054848068591882175, 0.4585923732370306, 0.0268241222029327
0.0785777482777566, 0.4586012625926341, 0.03669620377525835
0.07541313482543052, 0.4586000943815809, 0.035492157635853144
0.07234531761382143, 0.4585987722480604, 0.033090315721437856
0.07304713352037102, 0.45859953314204027, 0.036624112014299784
0.025007619010349806, 0.4585908184398093, 0.015114455900038399
0.03162323281523647, 0.4585907980502835, 0.02765746518990354
0.030487283106056463, 0.4585908085282797, 0.018085727939672978
0.03681099404695416, 0.4585907929769705, 0.025887760485357715
0.03069510596905255, 0.45859080819771547, 0.01815020821530823
0.013476907456869441, 0.45859084052173626, 0.00755926787278858
0.04386622865412169, 0.45859078067248915, 0.029227564939570367
0.012122424467438714, 0.458590839567265, 0.01044446698246569
0.04978543154438137, 0.4585907759069382, 0.026120602984216104
0.04087957553844344, 0.45859078284904037, 0.03103766190858391
0.03456130031442688, 0.45859079261632396, 0.029377783664816855
0.035354484451284675, 0.4585907970322086, 0.02358745098854822
0.016174397451335944, 0.45859083609929774, 0.008536333356823451
0.046594929379783226, 0.4585907801841153, 0.025978776915406614
0.01937261876349818, 0.4585908276488534, 0.013104578674096978
0.04340456713591725, 0.45859078008580256, 0.030488842253746647
0.019422327617207694, 0.45859082526910605, 0.01556611837004196
0.018705504193806972, 0.4585908249536045, 0.016891418224753266
0.03187370242373532, 0.45859079453698315, 0.03104698657201412
0.05552221835365765, 0.45859076364008483, 0.017753640903456443
0.05958862130876279, 0.45859074751905937, 0.016172330355673434
0.055708028954138, 0.45859077318648, 0.010664647900210834
0.05646586039622685, 0.4585907694063729, 0.010899274085062539
0.0720359502681559, 0.4586158999932308, 0.06371872353309174
0.0635490987976989, 0.45860478482286987, 0.06212288676002997
0.06835846107525977, 0.45860476762370617, 0.05935546917173724
0.09524613273515728, 0.45869611998475235, 0.07475827793454598
0.08873811807575617, 0.45866753043372843, 0.07308338611962037
0.10410702338330029, 0.45877264949240687, 0.07893606102528694
0.09584408094425755, 0.4587185327896754, 0.08003287464856114
0.0829301568345849, 0.4586453692388289, 0.07271475632692144
0.08395537720148305, 0.45865047398587905, 0.07333529303535402
0.08430769155111213, 0.45864900427784977, 0.07227969032604921
0.09319274993502441, 0.4586547576136134, 0.061806281152562224
0.09277749056089513, 0.458651686867775, 0.0611926090439347
0.11403867151768861, 0.4587895869257047, 0.0688792701716996
0.11012894537127793, 0.4587514822711789, 0.06681590809156186
0.1093551182549867, 0.45868989090889056, 0.054295190848759195
0.10418115443834826, 0.4586632215638246, 0.048281194830492064
0.10313153161629673, 0.45866262598864427, 0.05195601664522628
0.07926427075588274, 0.4586049773706435, 0.041942449319441424
0.07859844313700834, 0.4586039618099177, 0.04187787146577437
0.0855584382979223, 0.4586159074421521, 0.046452424442913386
0.0798780494118833, 0.4586138645584301, 0.05387774741287053
0.08745476870928076, 0.4586284500502357, 0.05587378089502841
0.10703021562345197, 0.4586919197728236, 0.0586405029253159
0.09664221186061261, 0.4586523255167857, 0.056781069900637415
0.0982306869561851, 0.45865627426512223, 0.05630000357551905
0.11862070522498831, 0.4587694429333721, 0.05637695641583032
0.11433939741441121, 0.45873377804266435, 0.05642105715228174
0.10148709719297082, 0.45866448573059165, 0.05524906802017547
0.09684876121864405, 0.4586346846091809, 0.04916274714857787
0.03193916384521296, 0.4585943424129042, 0.05995585773492354
0.033259241809291476, 0.4585953012676184, 0.06243985454172385
0.03677825946288501, 0.4585949101801058, 0.06283443882498933
0.03737004773861177, 0.4585934828984316, 0.06002401100729182
0.03631643233852558, 0.45859421960134883, 0.0612150616063053
0.035021589298365095, 0.45859449204367964, 0.06134146704322095
0.05476200343877133, 0.45859988782980776, 0.06514592914015097
0.0500822616675546, 0.4585972504438086, 0.06287170269155722
0.05627067879037892, 0.4586000611675369, 0.06384863130082981
0.04924598668092052, 0.4585961075808904, 0.06045088603550937
0.045730214256528706, 0.45859075843875896, 0.03809634785656248
0.04461215253669918, 0.458590774627484, 0.033848169397733927
0.04887368895426225, 0.4585907641463271, 0.03171346893552965
0.04856173550091811, 0.4585907461832168, 0.03857119043487536
0.01990218478956229, 0.45859080601762964, 0.03111331700268102
0.03612509024297778, 0.4585907810455282, 0.03855881598781131
0.024445474010948084, 0.4585907879563388, 0.04173933648349725
0.021307921702559487, 0.4585908111774774, 0.026106840843190295
0.013325083459416857, 0.45859082006687013, 0.025065847264361556
0.030912941780264446, 0.45859078332175346, 0.04060152324030508
0.0194865891598732, 0.45859082116473343, 0.019727381814097476
0.026477458307663924, 0.45859077887369976, 0.047267162786010564
0.031814123226612825, 0.45859079274540016, 0.0326724965142786
0.024743853970622957, 0.45859078242335305, 0.04579159184214994
0.0364686922663282, 0.45859077946949406, 0.03952456716886851
0.031186480151962966, 0.4585907883297533, 0.036537510712304225
0.012628733429816255, 0.45859082485633323, 0.021877449973765013
0.006324967028690411, 0.4585908435100965, 0.012077475302953947
0.026254204181491207, 0.45859077885713784, 0.047442678290181624
0.010253137065512116, 0.4585908386918131, 0.012932369191772649
0.016021773399862705, 0.4585908254520936, 0.018944447138753286
0.025523772287112133, 0.458590783810825, 0.044152393994376676
0.05810585401217128, 0.45863410775910063, 0.08894829160307266
0.05882585335908941, 0.45862601643692913, 0.08343588035180179
0.061136708715780474, 0.45866342079744965, 0.0962731257177701
0.061525370393497245, 0.4586707158100866, 0.09821955249940875
0.06359779151436255, 0.45867720447685595, 0.09827596422644863
0.04673976213178081, 0.4586149123079969, 0.08278717370813121
0.0476692537295611, 0.45860733917029717, 0.07869031916256475
0.047817164512934676, 0.4586095657489526, 0.07980663312083387
0.06709560774391227, 0.4587221652418516, 0.10573861833000665
0.0692031453557827, 0.45874196327794625, 0.10698260692447252
0.054783066215844195, 0.45864542133606523, 0.09595438846820095
0.056196872286639166, 0.4586499096462432, 0.09623348093252845
0.06867159661607287, 0.4586554535578744, 0.08831145240067884
0.07897954033176961, 0.4586934736739256, 0.09224172254208386
0.07247251577230449, 0.4586587750504084, 0.08683048561167525
0.08629696345905183, 0.45875365454205946, 0.0961241908078656
0.08340279907103501, 0.4587337513664388, 0.09550254301681223
0.0854201100312816, 0.4586739086502442, 0.08099525896283599
0.08312399484801462, 0.4586687482726395, 0.08232908623958013
0.06071321050128335, 0.4586027694858833, 0.0644339284156909
0.06403514255436782, 0.45860789095856097, 0.0653979845335144
0.06583333022230706, 0.45861521865360233, 0.07171962969905893
0.067146236265234, 0.4586158528023285, 0.07033097096412427
0.07851809862560097, 0.4586836673877883, 0.08984182742402147
0.08510890888401969, 0.45869290674267094, 0.08820488044289819
0.060644525959785436, 0.4586151045239951, 0.07553732690067905
0.06138005405915925, 0.4586196065946153, 0.07811472897234999
0.09898899189428378, 0.45877393541909856, 0.08659491473390553
0.09477988572395685, 0.458766900644445, 0.09058398426727898
0.09704085106956963, 0.4587686798733066, 0.08808390887573528
0.08033827383687461, 0.45865586644144907, 0.0806282264642815
0.07764988999730843, 0.45864984753815696, 0.08076493528669666
0.03079355221290466, 0.4585993922277379, 0.07848786080218789
0.029247944712340563, 0.4585954686058429, 0.07057091969785412
0.02523677479641632, 0.4585940636522473, 0.06992197584276198
0.028867508356099643, 0.45859578291177977, 0.07152389306210286
0.014554887437924807, 0.4585920913775775, 0.06330402592854356
0.02018643725409818, 0.45859142812865417, 0.06590768872572705
0.012741260717980473, 0.4585969724952252, 0.07415271063848398
0.012198290051266396, 0.4585975835765451, 0.07527166576625223
0.011851568504660893, 0.4585915150485016, 0.05981388917822009
0.012185996086691377, 0.45859539165477337, 0.06977391673205746
0.03984569417913637, 0.4585907657861661, 0.04253189396799231
0.03947048760538472, 0.45859075109618896, 0.046620146143951935
0.034964541685017496, 0.45859076316910086, 0.04676948249408139
0.033950826836931305, 0.45859075705767205, 0.049095443146402254
0.010598720929040215, 0.4585907920045091, 0.044513868839981874
0.012506180473317004, 0.4585908191833903, 0.026060686016713002
0.011126957412062452, 0.45859079935135694, 0.03952158148280574
0.005880336885245719, 0.4585908253149449, 0.024202479826395337
0.0015469682111057658, 0.4585908562406775, 0.005329763002461384
0.017197506823709963, 0.45859079575984796, 0.03989482624766842
0.018148424449789372, 0.4585908010503216, 0.03611351475769273
0.00845827482048757, 0.45859082444799526, 0.02392916422406221
0.011122918127395395, 0.45859081163489895, 0.03146454351307045
0.01600978905360922, 0.45859079072999537, 0.0435825114117017
0.0007992246447617882, 0.4585908608795449, 0.0025307758950241575
0.00754243453284136, 0.45859083400745515, 0.017957033921694805
0.007942325357455794, 0.4585908354589544, 0.016874188012339107
0.0073310095007525135, 0.45859080178957334, 0.039161952457793234
0.01860725930307727, 0.45859078856741897, 0.04415278433010273
0.015498932523902852, 0.45859080065739755, 0.03723671622374379
0.008003434297410798, 0.45859082173504306, 0.025857508486238284
0.010380169684950627, 0.45859079311938444, 0.04385386624399595
0.028435781135440607, 0.4586277131129182, 0.09921817054149652
0.03147168990437128, 0.45863509357270343, 0.10109853817213915
0.03449150071810487, 0.45869429961554525, 0.11532581128891517
0.032937797372051894, 0.4586961332548697, 0.11655475900580167
0.02645503330718693, 0.45864675885521033, 0.10716200906626465
0.033204297492208976, 0.45878950286899933, 0.12877558355936872
0.032753510815446175, 0.45873975988251525, 0.1228635202821288
0.021087596776342716, 0.45865202057463617, 0.11023628665422355
0.02818379287414395, 0.4586942482995698, 0.11834491574929971
0.036721416301316666, 0.45864360701396467, 0.1027050889156228
0.0390873522439084, 0.4586633781579045, 0.10683560856140606
0.05225867686532727, 0.4587771458182146, 0.1210322627913777
0.05052645564938822, 0.45872773082639445, 0.11558403787817306
0.05494488935989394, 0.45867762089054953, 0.1056748219606086
0.0583530259158443, 0.45868520662453965, 0.10519800416843733
0.06057734627088735, 0.4586846324332564, 0.10313478162393208
0.03776852343949731, 0.4586056473467893, 0.08259187485947153
0.03930194912201733, 0.45861365489905065, 0.08819802228988428
0.039852795330169014, 0.4586045471382947, 0.07981770425479226
0.04039606709481573, 0.45863458509241917, 0.09896158540618982
0.03752217562810737, 0.45862821135277404, 0.09666029777343532
0.039818631735884756, 0.45863288599609925, 0.09825469707512997
0.05161039608642413, 0.4586760597721235, 0.1066852896159563
0.04497146767225457, 0.45866093375460293, 0.10476147375211012
0.06654131457269072, 0.45878213701665616, 0.1145959680834976
0.06321383827982713, 0.4587481150006814, 0.1122285438463277
0.05212589780394998, 0.4586699641994498, 0.10494503640915638
0.054882104107459515, 0.45868669250022404, 0.10836395849810822
0.050324363060052515, 0.45864355869215057, 0.09870871443066812
-0.009683976504091224, 0.4585938492378285, 0.06515160564304928
-0.008704156935540629, 0.4585947751878227, 0.06979131985654446
-0.0063106523402272725, 0.45859248478803505, 0.06522871312196021
-0.009493799718360361, 0.45859314079025715, 0.06295069233635929
-0.011399128003577149, 0.458597622377342, 0.07586552266127408
-0.010441983086341063, 0.4585983976542932, 0.07994654726331615
0.0039803027749399375, 0.45859730041668745, 0.08029416624851823
0.011936511483032588, 0.4586002281892781, 0.08405515031199323
0.007353475630438835, 0.45860181484491114, 0.0883606897304423
0.020388201343144993, 0.45859077218921257, 0.05277521830684389
0.019249188295375017, 0.4585907370063222, 0.060914331199785426
0.018001109998669346, 0.4585907672138024, 0.054653323801616464
0.021055899989206893, 0.45859072915949517, 0.06205647122007946
-0.0011254096196760559, 0.45859078053709595, 0.05275756299762422
-0.0026590981826355394, 0.4585907853911495, 0.049732934931789055
0.002762391206872413, 0.4585908169495161, 0.03004454774947166
0.0007694036650938882, 0.4585907977511142, 0.04201986755824047
-0.0010246108925458454, 0.4585907849155714, 0.050026966646219126
0.00309473012640362, 0.45859081412824354, 0.03180339100587152
0.005876949782940428, 0.45859077684056115, 0.05505185390933305
0.0071202097746596036, 0.4585907899878159, 0.04685122590926212
0.0031733304048053622, 0.458590790401813, 0.04659919167308329
-0.002625971536312258, 0.45859080331425356, 0.038555944558703086
-0.004076739820547496, 0.45859081429018256, 0.03171355491474716
0.005021078720126191, 0.4585908028675569, 0.03882261752594475
-0.005955248222697408, 0.4585907773871678, 0.05472938348582347
0.00283753128681702, 0.45859080492747617, 0.037541436229452024
0.003932473609549378, 0.4585907947685481, 0.043874893188707
0.0014175292774615844, 0.45859078337220255, 0.05098562241467744
-0.003611534014977224, 0.4585908082011384, 0.03550999057778892
-0.0003627563030686372, 0.4585908232689282, 0.02610858906833447
-0.0028410190127154712, 0.4585908243370669, 0.025446345454650077
-0.01993389031901399, 0.4587600963444754, 0.1290373714123624
-0.017282889759194852, 0.4587082230691715, 0.12329588779334726
-0.006886674451396668, 0.458687185183047, 0.11940580584616112
-0.00625004360630711, 0.45869996906632376, 0.12214750621938494
-0.01476696359965567, 0.4586368284124567, 0.10783258984764331
-0.016653737106850808, 0.4586510941983103, 0.11133435362929832
-0.01244996119745703, 0.45865849878852133, 0.11316099486981088
-0.004544758113969405, 0.458627001187296, 0.10300269954192863
-0.005721654422306619, 0.4586375511280898, 0.10763778091958665
0.014786745156661481, 0.45875503937032264, 0.12857752163569006
0.01186292593181793, 0.4587476699890376, 0.12786996459346373
0.006945152730565575, 0.45867358842205475, 0.11624441993404122
0.007360579332769398, 0.4586641151237949, 0.11407089654174929
0.022082955221377196, 0.45868244952668163, 0.11773036327436996
0.025594318731376322, 0.4586863626416217, 0.11731933731460661
0.022371212269750924, 0.4586731882734051, 0.11519027603518203
0.016014499978631237, 0.45862690601601647, 0.10292400744319279
0.011544599487799527, 0.4586131822587515, 0.09508365605106944
0.014921061862012693, 0.45861725588943536, 0.09653552358118747
0.02085269018624588, 0.45861816111731707, 0.09677562146789263
0.02489057793449628, 0.45863327848372915, 0.10327491725691973
0.023163664121232413, 0.45863084785646124, 0.10273955158258194
0.007079742214589046, 0.4586194087594337, 0.09868053407968017
0.005122479942868902, 0.45860826922688935, 0.09307209609081751
0.014719894003688838, 0.45867797874819916, 0.117769023472761
0.012399928441050034, 0.45867794829460107, 0.11761372366667032
0.010315059983343358, 0.4586623637060063, 0.11385814693353552
0.015867096448181357, 0.4586466338268859, 0.11019009333253749
0.01733984206827122, 0.45864387144258545, 0.10950556240938088
0.02670955824376456, 0.4587592055563256, 0.1272088628459581
0.0207853304612116, 0.458717862511018, 0.12403286919345624
-0.036534611278805376, 0.45859923845995165, 0.07232858354593968
-0.02788640809943333, 0.45859333839659955, 0.060259938098223775
-0.02457020789240414, 0.45859157084604774, 0.05903697070430581
-0.02780638436800136, 0.4585939641906365, 0.06482958403294349
-0.02771857745221546, 0.4585934738440669, 0.061745451661633206
-0.034904596966829175, 0.4585986100070775, 0.07338116988395676
-0.017521965145144366, 0.4585985492938999, 0.08021878245376504
-0.01980140684509775, 0.4585984811558162, 0.07994057497949364
-0.021348031415725922, 0.45860106848364124, 0.08480832529088198
-0.017143042933054138, 0.4585998372129365, 0.08271612648085917
-0.022775245080350098, 0.45859078400721515, 0.045807554025216315
-0.009992651539360268, 0.45859081639169685, 0.028715208032351117
-0.0072569750243219825, 0.45859081996008755, 0.027260778236178777
-0.017369290396049605, 0.4585907826017426, 0.048475859911405
-0.010457934363239536, 0.4585907809295914, 0.05180548416409762
-0.0042329501826575185, 0.4585908269710818, 0.023643377674066525
-0.013312116142437002, 0.45859079352289933, 0.04262978630408418
-0.006153803493543311, 0.4585908194021581, 0.02798297168948205
-0.007657167116236579, 0.4585908004633219, 0.03990895188048478
-0.01383662265074814, 0.45859078226642097, 0.049837378025474846
-0.004020614584652072, 0.45859083949905527, 0.015501597610458667
-0.013301245256229348, 0.4585908078552552, 0.03324036206493282
-0.021846786904715775, 0.4585907873805114, 0.043896888710619454
-0.006433434686052832, 0.4585908271933711, 0.022786499229084968
-0.010059016668873991, 0.4585907905898886, 0.04560338481635456
-0.011220711556516152, 0.45859078936543307, 0.046030390943922035
-0.014483058885374345, 0.45859080411000863, 0.03531290638929384
-0.01330835352103361, 0.4585908153622539, 0.02831823355285671
-0.00320974570101165, 0.45859076513043756, 0.05798360108863147
0.0005789010833574756, 0.4585907337941644, 0.06455367381270342
-0.0032858529696821897, 0.45859077234124435, 0.0564705209877403
-0.0005022202199105036, 0.45859073904268954, 0.06345394395588715
-0.04323950306152132, 0.4586998735325067, 0.11429783435777208
-0.03850414323680394, 0.45866397475371457, 0.10715510780916467
-0.035110548676481036, 0.4586584228658917, 0.10653064805223192
-0.05165066122619634, 0.45871052962417164, 0.11317135568219339
-0.05266068718565095, 0.4587043123382645, 0.11209770162852353
-0.03225761913688335, 0.4586326845501455, 0.09953605461853088
-0.035403643561095516, 0.45863396444834204, 0.0995959517335821
-0.04348588756096776, 0.4586376656359423, 0.09947643004119185
-0.044861678226011975, 0.45863636707606015, 0.0986910804662442
-0.02762090553027958, 0.4587343940275477, 0.12392263060504279
-0.022796552270004246, 0.4586952074370477, 0.12068775862285482
-0.01690480072930287, 0.4586899093761548, 0.12075932117858369
-0.009920741947245014, 0.4586968073039179, 0.12189466208055802
-0.013123547995636357, 0.45866326881658614, 0.11431574766159887
-0.025639425562881353, 0.4586272646070574, 0.09989153371091451
-0.024900596425055252, 0.45862885066390957, 0.10085974802516373
-0.035319397489450115, 0.45867410596527564, 0.1100328220852714
-0.030186841514372127, 0.4586423651418665, 0.1045235941647868
-0.0340572225932242, 0.4587208907794219, 0.11994168476008388
-0.03209477132118542, 0.4587177740091039, 0.1203287943612467
-0.019175906929660303, 0.4586560933350782, 0.11194243279184862
-0.022091565613435112, 0.45868375343990925, 0.11798733755370382
-0.02142215209666096, 0.4586896574494993, 0.11980065823201244
-0.016742833060635495, 0.4586201828330165, 0.09844043244542963
-0.015357841563660733, 0.45860481191110464, 0.08823380422322356
-0.021177978392968314, 0.458602986743213, 0.08755879790845128
-0.02011176285319221, 0.45863580399419873, 0.10652432352514757
-0.025545327795097134, 0.4586773470930906, 0.11500168445911964
-0.010093968282415608, 0.4586152682871193, 0.09701903714744256
-0.013237646296916263, 0.45863348871745224, 0.10665928047139325
-0.007649694394765918, 0.45861524656519304, 0.09669453203965515
-0.05484364689701766, 0.45859813190784726, 0.05526405435369934
-0.04821589997801436, 0.4585948436991728, 0.05210507834088593
-0.058461896194338316, 0.45859989355906505, 0.06036318842929902
-0.053710797608003284, 0.4585975675612959, 0.05495692696582297
-0.050394507311295564, 0.4585959482911652, 0.05075091841857232
-0.051360118621987014, 0.4585964167022547, 0.05228571906622746
-0.04015169949507138, 0.45859586429435323, 0.06585908449653795
-0.03968321394506953, 0.458595734211833, 0.06577726137032239
-0.04391905320552761, 0.45859934858874196, 0.07154509307393297
-0.04291575356120328, 0.4585994504175014, 0.07215433154798921
-0.01870699479321166, 0.45859074579515896, 0.05914960243479682
-0.01953318503118648, 0.45859074556030766, 0.05893437134334182
-0.019058652752831952, 0.45859073623705027, 0.061143885950379374
-0.011213460209901292, 0.45859077119452346, 0.05596995565330502
-0.025616105622559657, 0.45859078875288284, 0.04026005642444453
-0.014458503078885526, 0.4585908213668739, 0.0232289578557955
-0.019339926403754655, 0.45859082034610743, 0.02047992072712921
-0.01758211852470731, 0.4585908090538847, 0.030447297836076574
-0.010025546384885712, 0.45859083102543474, 0.01900257452205651
-0.01590725397717596, 0.4585908170796107, 0.025480788565866337
-0.02615584976371076, 0.4585907888992523, 0.03975649361644272
-0.003627610852671611, 0.4585908539606539, 0.0059768273501396045
-0.013747592604544707, 0.45859082525721306, 0.020748417073437456
-0.030396808822540946, 0.4585907857924586, 0.03907739379983849
-0.03032417680990731, 0.4585907811679029, 0.04269066037386782
-0.03640079244168413, 0.4585907758168125, 0.042410227651858624
-0.02362040359040118, 0.45859080539174923, 0.02889421496395179
-0.03875859696778092, 0.45859077711346025, 0.03970442745053566
-0.018648118106756144, 0.45859080394784313, 0.03360672211821408
-0.013579264450294644, 0.45859082090931913, 0.024217968565633546
-0.023847123797543602, 0.45859078334267567, 0.04570667763498673
-0.016253345074306168, 0.4585908141369302, 0.02749587195486549
-0.016531359031506022, 0.4585908082468366, 0.031829610338441956
-0.07309184518071693, 0.45869935998195804, 0.09701324820205985
-0.06671839933177481, 0.4586629357458455, 0.09137155480742237
-0.08538858350500327, 0.45872871076126603, 0.09323139150660353
-0.08387807700197575, 0.45869948565700325, 0.09029858177499518
-0.06256703201893393, 0.4586301118548284, 0.08293414623173162
-0.06906569228463877, 0.45863659509384924, 0.08268724765605169
-0.07330092587464271, 0.4586373225626268, 0.08018785788342159
-0.07276977098406938, 0.4586456408725669, 0.08310466592035569
-0.046682372961892, 0.4586963696378711, 0.1128645573960206
-0.049051722317456685, 0.45867246121737953, 0.10654918431913325
-0.05171269027778855, 0.458690861310745, 0.11027727644165723
-0.060965781832014246, 0.4587300196659581, 0.11124514482646544
-0.06424298978511422, 0.4587421952720371, 0.11064955314463105
-0.06508237156745561, 0.4586554768118692, 0.090472252514032
-0.06412528919713012, 0.4586629011894142, 0.09338634595282089
-0.055198215300718424, 0.4586274059821288, 0.08719161944838141
-0.05142678098542775, 0.4586117061444491, 0.07988661422364121
-0.04612299469538556, 0.45861623626256387, 0.08392231909673539
-0.047830242688218456, 0.45861963628626495, 0.08524262439560236
-0.05032183717608116, 0.45862988010579464, 0.09207215111721623
-0.05142335621169783, 0.4586275785915992, 0.0887514513168068
-0.060619575683983434, 0.45869543290874076, 0.10643335994611328
-0.057135801243359936, 0.45867420101697753, 0.10264593357519694
-0.07419355436693235, 0.45875070132212936, 0.1041973887232803
-0.07381557259766253, 0.45873501551149576, 0.10209233079034245
-0.036130284330192594, 0.4586083308810379, 0.0862527497968882
-0.04259286676109972, 0.45862314348285466, 0.09261262199431372
-0.03932179813134393, 0.45862825023072784, 0.09584344645302711
-0.061288058803421676, 0.45868624612860176, 0.10299780620541779
-0.05569454656828694, 0.45864784190898356, 0.09595451130213924
-0.06472997279400938, 0.4586005918636593, 0.056860570237569866
-0.060255172166809916, 0.45859843238624737, 0.055197873735042244
-0.061010072186778785, 0.4586000692761567, 0.05864745459364217
-0.060901615944829325, 0.45859796425157223, 0.05349541230189554
-0.07051631048403759, 0.4585986332670454, 0.03624576828135237
-0.06194244156452704, 0.45859487716241953, 0.03440840720325233
-0.06686142472209292, 0.45859682242050365, 0.0367395320095848
-0.058718313443624194, 0.4585938667519383, 0.03126905299711139
-0.06717002144827951, 0.4585969467279204, 0.03687195316499011
-0.07087584080529663, 0.4585986173233725, 0.03737912561254184
-0.03979822058506006, 0.45859072925703176, 0.05205870562790403
-0.03154735746424935, 0.4585907741565297, 0.04640036410067321
-0.028717761029618254, 0.4585907633922237, 0.0512384771506374
-0.030621915281459276, 0.45859077055434333, 0.04800385886685368
-0.024121982785475032, 0.45859081711313293, 0.01774701832685001
-0.04541016790727375, 0.4585907777073648, 0.030259832092283594
-0.014128015176347855, 0.458590836116862, 0.011338888250884895
-0.035481237559657784, 0.45859079755046256, 0.022873859460367487
-0.023050990534005205, 0.4585908156798319, 0.020733703300580032
-0.02852417541773858, 0.4585908062855101, 0.02317061925195986
-0.038820325978063404, 0.4585907912403188, 0.024973382647207238
-0.03617023592246446, 0.4585907949669762, 0.02466370047311686
-0.04638080664711315, 0.4585907784289259, 0.028164322414374925
-0.03196956406534088, 0.45859080005963926, 0.025035092541418953
-0.0421784087083098, 0.45859078291012745, 0.029185421345986638
-0.017485632230655666, 0.4585908323888893, 0.010679312701598134
-0.034664614681800356, 0.45859079268344655, 0.029146764954725558
-0.03588299778774964, 0.45859079133944336, 0.028898137773940184
-0.017372967296338686, 0.4585908332609459, 0.009910652355420815
-0.02804573154758271, 0.45859080289408927, 0.027417404284168938
-0.02409861461936196, 0.4585908195970039, 0.015149465212221637
-0.016184245085550036, 0.4585908341787135, 0.010569832794639588
-0.02084490067332237, 0.45859081931627144, 0.019910412324140144
-0.10748255798572114, 0.45870111119809154, 0.060547267731769445
-0.10788845133758596, 0.4587049446394667, 0.06071246321510916
-0.09785870385325834, 0.4586977350678688, 0.07086963816120669
-0.09493317026754772, 0.45867754815941975, 0.06752606517606655
-0.09978020219755072, 0.45865910366866275, 0.05543412473949677
-0.09554573357213893, 0.4586348676519866, 0.051128636697865645
-0.08515939546677101, 0.45863449586657457, 0.062073403600389265
-0.08879991472395991, 0.4586372173769586, 0.06006739365169396
-0.0719683219040498, 0.45864789608684164, 0.08423357474429896
-0.07911146457570843, 0.45867598163260076, 0.08743318112908788
-0.07911110550127448, 0.4586722677102472, 0.08641615220495219
-0.09251728412676818, 0.4587027874761129, 0.08150249767938356
-0.0926377622482974, 0.45870811929766675, 0.08236839077988907
-0.09683694793708479, 0.45869663598239613, 0.07188539737863618
-0.08486911569894681, 0.4586449033756003, 0.06941612604430544
-0.06975353914459143, 0.45861716135805297, 0.06704753937674278
-0.07772581685361654, 0.45863351881603004, 0.07442859915396224
-0.07696287896438804, 0.4586292892161139, 0.06972579775981438
-0.09821012415727438, 0.4587061090337992, 0.07347859196799895
-0.09420335097960189, 0.45870069059351115, 0.07863637388443889
-0.09093648801113506, 0.4586931948072346, 0.08083593842581006
-0.08730274172182927, 0.4586814173562844, 0.0812731392072162
-0.08987791452092213, 0.4586912056010527, 0.0816228716473504
-0.09195354990637189, 0.4586925256936277, 0.07900618129817366
-0.07987134172992255, 0.45863920640438743, 0.07436339456351038
-0.07068364906574712, 0.4586321923722573, 0.07925304156358348
-0.07075225690159329, 0.4586276267952164, 0.07659839351670195
-0.0726235835921055, 0.4586287780127247, 0.07623413870074582
-0.0609552116504834, 0.45859155255796025, 0.013234790969425985
-0.07184713308541843, 0.4585963231373265, 0.011843772889642178
-0.06823096540824763, 0.458594710059657, 0.012402230516176673
-0.07519784484677342, 0.4585961748564471, 0.016759029784058257
-0.06566912706713979, 0.458591518456826, 0.019572731941435922
-0.071059575457665, 0.45859523902019605, 0.014388571392374132
-0.053358827864629574, 0.4585907259237586, 0.039193652602770246
-0.051275758006265944, 0.45859074121008825, 0.036605516620268896
-0.05119742125592387, 0.45859074825333723, 0.034203770131472244
-0.05061581328676328, 0.4585907345271305, 0.03989174843644545
-0.05645863610943199, 0.45859291447633055, 0.0270940820234489
-0.07288289442402235, 0.45859862803577506, 0.03084613101059389
-0.0683497260230227, 0.4585942738693032, 0.025575379477238203
-0.07338210758104564, 0.45859713960119164, 0.02842551048001748
-0.0627208256749715, 0.45859435892516875, 0.027405318262007664
-0.031632135869317776, 0.4585908139417909, 0.005976643453992143
-0.05174915943617389, 0.45859078009006027, 0.012377209318611788
-0.03379562068826948, 0.45859080796210894, 0.011362867547860544
-0.0171924965527409, 0.4585908356048113, 0.006674892490852652
-0.047281529393218266, 0.45859078528742503, 0.01561627512327143
-0.028909422721038965, 0.45859081640926314, 0.009356447968786466
-0.04607470438444242, 0.45859078680803844, 0.01625691534333519
-0.03875882069350737, 0.45859079874384223, 0.014682259657410447
-0.03884795856038049, 0.4585907996435368, 0.012602408746580099
-0.03962331843341263, 0.45859079826940297, 0.012988494927581057
-0.04868395892309506, 0.4585907823510518, 0.01722022748437468
-0.031171667322263053, 0.4585908100338264, 0.01523516072718232
-0.037173154387758416, 0.45859080098342275, 0.015038728860454102
-0.027945575583023328, 0.45859081575974564, 0.013611737309268873
-0.04759776608134112, 0.45859078596817576, 0.013280897113545695
-0.0076780030348823315, 0.45859085210906636, 0.0026558807687577213
-0.01664180801415016, 0.4585908380104824, 0.0035292286830214043
-0.021711982307963153, 0.4585908293981229, 0.0053042104964335654
-0.01702682498240167, 0.4585908350958179, 0.008204360112324435
-0.11630669236201341, 0.45870175175084665, 0.03641583887503036
-0.11580333733544976, 0.4586915073894176, 0.032292933507238365
-0.12459473937140786, 0.4587267186246888, 0.022190094132941207
-0.127454830480784, 0.4587488142459266, 0.021275637641082885
-0.10231079130496203, 0.45863665650391633, 0.030541749806530134
-0.09878173060984946, 0.45862734571986874, 0.02894708175132038
-0.11010810194142653, 0.458646897516673, 0.01806978707712157
-0.11540420554242224, 0.45866920831099167, 0.019507681980887547
-0.11414687626163689, 0.45870813032134305, 0.04797847767675335
-0.11860700319245644, 0.45875187275228546, 0.05053049984399313
-0.10312496093494648, 0.458680254732344, 0.05921418530553403
-0.0986943319939794, 0.45866864532388146, 0.060324028307261524
-0.10186730023447521, 0.45868330084220144, 0.06182471515196794
-0.11393006864242014, 0.4586937618667047, 0.03738132598119006
-0.1023181483400781, 0.45864213701956563, 0.03676235442348447
-0.09192751823532272, 0.4586252296332705, 0.04442341816121638
-0.08450913648322327, 0.4586131474929068, 0.04215560671178607
-0.09844894506143367, 0.4586350228384791, 0.04207475828084634
-0.09169794540807161, 0.45862515126139447, 0.045902909472250036
-0.11084781718995879, 0.458690372964866, 0.048430870023407055
-0.10603050922488111, 0.458670734981638, 0.04809996001410627
-0.12061521183132175, 0.45874851640425973, 0.04221786595467651
-0.11526763507793539, 0.4587118924572723, 0.04565593114732578
-0.10068801639637806, 0.4586428842306123, 0.0435447848843459
-0.10385706136912715, 0.4586602039242864, 0.04683121326551395
-0.09441225506840786, 0.4586321203387662, 0.05061712539792331
-0.082376185793721, 0.4586137375045831, 0.049909501428671635
-0.09554853952360637, 0.4586335475802674, 0.05045797902468947
-0.07496620034160714, 0.45859597265400787, 0.004791659395024191
-0.06439209298397153, 0.45859345420129544, 0.00766513066377296
-0.07782316403564553, 0.458597307322594, 0.00517846571735824
-0.06378251387111554, 0.4585910836565851, 0.003874192302396883
-0.07004938382171225, 0.4585928530578567, 0.0026633518781421176
-0.059189271157622875, 0.4585907442714843, 0.019620182812098104
-0.0555453201141675, 0.4585907623953617, 0.01852686288455773
-0.05261795286603783, 0.45859077206658505, 0.020952537723118062
-0.051386062515613375, 0.458590775349548, 0.022505117111633312
-0.08833404522503416, 0.45860346279411934, -0.0031696478201866714
-0.08526021351601111, 0.4586011841735197, -0.0029935011873460354
-0.08832822613062569, 0.45860253921198624, -0.004085732511561622
-0.0431227832778418, 0.4585907929421506, 0.006070956662636081
-0.02407295331756052, 0.45859081824707737, 0.0015865862802523223
-0.05193800446406724, 0.4585907652270885, 0.003766295682119793
-0.025792852301573542, 0.4585908188819393, 0.0027903611151954767
-0.046016919631066085, 0.4585907854826014, 0.005762984306757415
-0.06573672018320892, 0.4585907237136816, 0.0006703972420644096
-0.04876154039025341, 0.45859076457012676, 0.0016841362436135132
-0.05484160157811324, 0.4585907482150236, 0.0008499876468115377
-0.05932466681040169, 0.45859073959563723, 0.0011762409993289803
-0.029434524819901112, 0.45859080311527856, 0.0006568856765435048
-0.011607309253672522, 0.4585908411297322, 0.00038264249310357884
-0.025914231320038617, 0.45859081505713756, 0.0018164157319101948
-0.12230163665881086, 0.4587026131546955, -0.003127786203439637
-0.11867758046375362, 0.4586855242281073, -0.00538534397049882
-0.08841907608404194, 0.45860556548872566, -0.012770981204139848
-0.10657143621892544, 0.458635039897914, -0.008629497735045802
-0.10071785172399643, 0.45862547189400216, -0.009886911935343074
-0.12927099663400024, 0.458760683353551, -0.0034536123546012975
-0.13275131533742174, 0.45879112077492334, -0.0028651031752459652
-0.12113136224118191, 0.45869369788780723, -0.010024184105396324
-0.11161898026780481, 0.458653061725358, -0.011642149886094043
-0.11414650342210328, 0.4586638427975468, -0.010715578848918432
-0.12514054790125895, 0.458723624803611, 0.012786208732470435
-0.11743010428530609, 0.4586817165106525, 0.02272822204736514
-0.10965682981490793, 0.4586529667905453, 0.02420798107960449
-0.11498055526730876, 0.45867643588423823, 0.025550830365615326
-0.09937556193049227, 0.45862272963956063, 0.012973867329751254
-0.10332420857246971, 0.4586295390545032, 0.010738440030578297
-0.10625672865663428, 0.4586327230717683, 0.015241757775493036
-0.10885573182377918, 0.4586421411952432, 0.0063450922662846585
-0.11518591381283765, 0.458671426941228, 0.003941112003520799
-0.1089660708074803, 0.45864236006055853, 0.00735333960441637
-0.11398097214094083, 0.4586629439893121, 0.0153483663318745
-0.11098630792223162, 0.4586499311922694, 0.01766783908113566
-0.1232068116907272, 0.45871122000294556, 0.0010624962203007724
-0.12920146580810163, 0.4587617487772515, 0.0009483132901158342
-0.116595976417639, 0.4586744051571972, 0.00952515984700784
-0.11094269907718866, 0.45865034258401594, 0.012090619106719727
-0.10835464455062224, 0.45863936274600586, 0.014112597389045977
-0.10351344943360352, 0.4586318874686844, 0.022749968915204213
-0.09816154738337515, 0.45862196249740117, 0.022393299200927808
-0.09488543142542463, 0.4586146532068482, 0.020723681739532568
-0.08012809846794469, 0.4585990508060824, -0.007156661195330359
-0.08277673476011325, 0.45860021030381004, -0.012170668342582305
-0.07773090571641089, 0.45859840243610506, -0.010626666258199191
-0.08242679542534004, 0.4586000063041618, -0.010493744057184073
-0.04345991603338205, 0.45859076849218827, -0.013309697665023597
-0.026605176177837767, 0.4585908162293463, -0.005677460092323403
-0.04130332305610267, 0.4585907724181647, -0.012858709361455799
-0.048723442004746514, 0.4585907811938159, -0.009043225989383811
-0.016359397984371152, 0.45859083367056036, -0.0038264726244047424
-0.033944760382566, 0.45859080674706343, -0.006278011548254735
-0.020386037692738012, 0.45859083197557393, -0.00331121563175405
-0.033097638454194105, 0.45859080938335617, -0.005837327060653564
-0.05252288958567658, 0.4585907693101847, -0.011034089054392047
-0.04288859370825681, 0.45859078461486025, -0.009557460255159272
-0.016129039259107504, 0.4585908320841971, -0.004261393100813331
-0.04465373574486256, 0.45859078115922486, -0.009984942351288079
-0.07204887645519063, 0.4585964338324944, -0.023639005660995204
-0.06967718329652349, 0.458593940814282, -0.023576930504774225
-0.08686971691035683, 0.4586066092108617, -0.03166797653813587
-0.08322069555241701, 0.45860017200587355, -0.019281274314697214
-0.07681731184553525, 0.45859678223586997, -0.017656172060243894
-0.0839287812685033, 0.458600437738411, -0.016220990551126715
-0.11223195486926213, 0.45869327314875086, -0.04622598446015657
-0.11582266259973423, 0.4587028759109247, -0.03839844736899537
-0.11108995217724205, 0.45868704909537256, -0.04448906883812877
-0.08894614540317348, 0.4586146049957891, -0.036543817316392
-0.08691480325170674, 0.4586110030009798, -0.03608041201604113
-0.08826783503414139, 0.45861230626662425, -0.03556580169947702
-0.10668976668324662, 0.4586707512530279, -0.0462476184803255
-0.10446858420032298, 0.45865902165720507, -0.0442403038280228
-0.12333242489444879, 0.4587893547073062, -0.05002934469307737
-0.1224653928479476, 0.45877631478653663, -0.047643412305552996
-0.11862101775971091, 0.45868264500391437, -0.012415555148301075
-0.11755650220591365, 0.45867842471069303, -0.011875258351282444
-0.11400724805896262, 0.45866245929255267, -0.016304305649081405
-0.09014965557548538, 0.4586069041480776, -0.02141517545317848
-0.08903719458750295, 0.4586059350726844, -0.01610074690336022
-0.0881772426612064, 0.4586038779462825, -0.021555468830555244
-0.12507734971655152, 0.45874880499359993, -0.0294710940590405
-0.1273990919734979, 0.45876698079178524, -0.02893085479901571
-0.1137216187538272, 0.45867792928510137, -0.029475536394007316
-0.10471199118444253, 0.4586465172662936, -0.032381291233092274
-0.12827321148504706, 0.45875061934569855, -0.013951356481786746
-0.13042700097120208, 0.4587710633704007, -0.016770761620947906
-0.12396559925758294, 0.4587144642540907, -0.019380933138788525
