0.07250281564732622, 0.42775981339882346, 0.15536976327216115
0.06159290931952166, 0.3937898129435053, 0.15980585975812567
0.06363240004678221, 0.45857768059815496, 0.15912995006594968
0.0551261512826386, 0.43224196730020226, 0.16258908488941837
0.05440388462174818, 0.4493247740960644, 0.16293350376317575
0.05430118807534158, 0.5665247007523396, 0.16328369574892346
0.062711558231441, 0.39812453435501816, 0.15935323898579876
0.05552831183094509, 0.5003816669648882, 0.16260111014846507
0.05883218492470338, 0.41737660246613184, 0.16101286770063433
0.06512100077146933, 0.4032763314049743, 0.1583673624307912
0.057777813941970416, 0.4881835231834053, 0.16163603878488783
0.05407470637115483, 0.40821860878375216, 0.16296215704775097
0.07132115159681393, 0.40447478078856375, 0.15579878597468377
0.07107428916545908, 0.3979984764197525, 0.15588418322296704
0.05599246905200742, 0.44672067215330624, 0.16226775019909123
0.05662907057232709, 0.5437611309739842, 0.16225838416086866
0.06472204848812832, 0.42906064890399964, 0.1586005131595606
0.07225635874237951, 0.40599531253019777, 0.15541486793170642
0.05583610394124383, 0.5115661438584866, 0.16250279701553835
0.0688461828839157, 0.40967871410819884, 0.15683902068223912
0.06123390846792132, 0.5015128846744621, 0.1602374902827418
0.05514026510840549, 0.4227804394932431, 0.16255839860766574
0.05331420758834012, 0.46375648367483796, 0.16342336059672125
0.05900149780925565, 0.4987862061256723, 0.16115630169425738
0.05892969250241577, 0.49116399600927585, 0.16116608062354365
0.002260335433870412, 0.39140257384629584, 0.17159368263339306
0.048139317681807764, 0.4484722853843825, 0.1646646082366992
0.038389039700413734, 0.5508408529290877, 0.16725560598971417
0.03954957179712138, 0.4957768424499932, 0.16684031805956911
0.051756142977308975, 0.4903119984254428, 0.16390245138484105
0.042267142796258206, 0.5328914538324765, 0.1662818102635916
0.051231261152822546, 0.5187852613447379, 0.16409917376694602
0.04834082939190455, 0.521574577297478, 0.16479856783983743
0.04605579462730669, 0.45737587908175964, 0.16518593887840907
0.03851949995348492, 0.5265948856674916, 0.16716391053616705
0.052445187107295746, 0.40074891378746763, 0.16351411291625184
0.04406467708000836, 0.5605728395058006, 0.1659201934915501
0.03878808834093719, 0.5387055919202599, 0.16712975707247565
0.03871393014586941, 0.5365280360123588, 0.16714209427712223
0.04898737069340299, 0.522694601657539, 0.1646464725003517
0.047187027619345887, 0.5395763137663093, 0.16511985207567959
0.03982975150184283, 0.5086046353842081, 0.16680517534689582
0.03850734854264685, 0.5421850088864186, 0.16720568568477068
0.044896458032955125, 0.4614305987001848, 0.16547378098095358
0.04882696289977171, 0.47997655891916435, 0.1645784098399959
0.04139879888572094, 0.5716427859636641, 0.1665864353438507
0.048894378355582316, 0.5330749787361693, 0.16469462693927575
0.04632854762792334, 0.4622463152765319, 0.16513273868963457
0.04470112008320444, 0.5555673675009598, 0.16575524727736973
0.037463783316839354, 0.5284564572120852, 0.1674214618959273
0.047307848634397506, 0.5262395777614544, 0.1650576611010986
0.04927895946769384, 0.4856758376037096, 0.16448433570874144
0.04110060027774026, 0.5369751668488487, 0.16657145091609135
0.048122785095922174, 0.5248977545422768, 0.16485908744076938
0.04771425405014467, 0.5033878331736698, 0.16490333499318485
0.04400553380783087, 0.47909702153809886, 0.1657312535745927
0.05268231725692632, 0.42496897625813007, 0.1635176827110016
0.037811927907852295, 0.5425901789749821, 0.16737329281534494
0.05292065715376531, 0.4320230949323983, 0.16347817026285755
0.04872757302035391, 0.47007918255859305, 0.16457754713069644
0.036089737424760564, 0.387915757201044, 0.16845573811089443
0.04025072813133679, 0.5783068238412289, 0.16750795484350717
0.016515916542684198, 0.5663520184110765, 0.1708706524088766
0.002365747260999193, 0.5333629675993401, 0.17191100074708254
0.025797681664773146, 0.5776950107279392, 0.17016319990342157
0.018911057344757076, 0.5534205983991936, 0.17064952986375723
0.016398156228685262, 0.5065263309441392, 0.17073448918349762
0.012096921915037076, 0.5527495190173681, 0.1711875197720309
0.004731066668280833, 0.5583176512480756, 0.17178437423246
0.009097604806989689, 0.535423099691843, 0.17138290455972033
0.006217743295444527, 0.48996600872278306, 0.1715004190786753
0.006232824369545465, 0.5468278618757376, 0.17163750594431354
0.009548439905056416, 0.47539845680993426, 0.17120122955132933
0.01960362947741678, 0.5738813500473308, 0.17064444208538487
0.010263934995983258, 0.5690401027737342, 0.17137229356480632
0.0007918079860875006, 0.5168047633424679, 0.17199537587245392
0.00813236470410655, 0.45902504689581897, 0.17127355257477495
0.010463012801173408, 0.550567586092751, 0.1713116053569529
0.01696597481866673, 0.530039248908922, 0.1707467033303882
0.013775123066855875, 0.5582483484608005, 0.17106799292404595
0.004237129808332951, 0.552807459322944, 0.17181008973281797
0.014045975302738878, 0.5763165032561783, 0.1710904832880334
0.006944101447057977, 0.5342435841455833, 0.1715505753722114
0.00979831543373842, 0.5593031879351091, 0.17138548769506667
0.019396847429436592, 0.5440288390928939, 0.1705882197735429
0.01427737033473089, 0.569691714768501, 0.1710560480731651
0.018385483341497044, 0.5218563221334604, 0.17061439037194867
0.014465590617768783, 0.5299753620769547, 0.17094455724586455
0.0012755424195831735, 0.572821785821587, 0.17209329482972333
0.007411429370308681, 0.4810062504192287, 0.17138410018766373
0.00781182576730515, 0.566021776764371, 0.17155913967154585
0.012594234677267866, 0.5622814056049974, 0.17117131720444845
0.009728795406099226, 0.5397964472493659, 0.17134355505591375
0.009899439168355301, 0.5757814769164087, 0.17141755275915824
0.004002264970102415, 0.5550441293996745, 0.17183412835300985
0.016530487116862533, 0.5078015857928826, 0.17072711096217288
0.02905779435801423, 0.4150424805716649, 0.1691525144539197
0.042192310700018054, 0.43541015397164634, 0.16605673247744954
0.028671879549076462, 0.558948827305434, 0.16960369135140205
0.03298012322368467, 0.4553078542693241, 0.1683132390494852
0.02865818000444157, 0.4583874439973367, 0.16935629667319446
0.03711106712273342, 0.45689591862613865, 0.16732757333549322
0.03565653218398813, 0.4995649636410908, 0.16778239137177098
0.03469381484655148, 0.43122927524903587, 0.1678426782586717
0.03174566255375128, 0.42285110152551353, 0.16852806379041824
0.028049881841846615, 0.46302741530796687, 0.16951358925008325
0.02945430011744492, 0.41377386122766996, 0.16905436367008297
0.028192245280287444, 0.5259680944844387, 0.1696363808890456
0.04720818279434772, 0.4312319414941687, 0.1648446960368169
0.02880062537996972, 0.413037644610201, 0.1692091252189462
0.036742132978732654, 0.4054146380364372, 0.16728762549056286
0.03891657674795795, 0.4670713872000379, 0.1669204038080106
0.03400339255278173, 0.4462688691828035, 0.1680455686873295
0.048804683939489314, 0.39507439289837204, 0.16437209971971048
0.03232922533359546, 0.3927470508247689, 0.16831322077244143
0.040054763369336756, 0.4585323403767896, 0.1666264496608647
0.0353715154709772, 0.44563803549510217, 0.1677162435111405
0.029127839073163953, 0.5205524165741531, 0.16939874648518874
0.030431843271659542, 0.5516577550063236, 0.16916389286837522
0.04443920195088079, 0.3918412507381993, 0.1654098514533355
0.039668005977965326, 0.3999071051383834, 0.16657296337030705
0.038486307831575334, 0.41631738480934455, 0.16689696248960245
0.04110074116889798, 0.3966344212865913, 0.16622157390610082
0.04486678304460957, 0.4151353873656518, 0.16536548549433477
0.035432195704031874, 0.4279834006346423, 0.16765769774916356
0.029605157662365905, 0.47632071001077064, 0.16917413869972997
0.02817207338672605, 0.4373844131079564, 0.1694203944300231
0.031385809425021685, 0.4980529616042093, 0.16880173263911408
0.029415616962997944, 0.506812467153863, 0.16929555477571384
0.03496240547104329, 0.3957493528067405, 0.1676898903280951
0.02387307986681566, 0.4543642124881609, 0.1700156979686124
0.025868113480319834, 0.4377991228896749, 0.16981742727484314
0.017453331854419003, 0.4868600113170395, 0.1706031049788627
0.013736310223621422, 0.4409547522815371, 0.170785827854295
0.026388067584658337, 0.4252159223917374, 0.16974565228994049
0.02291296097597198, 0.545280902688264, 0.17031281878699062
0.0238966010536979, 0.4448625467420158, 0.16999072946441063
0.02607568227932638, 0.4124842823507227, 0.16973942993198252
0.01313319525715546, 0.3978676079699623, 0.17072881106845447
0.01801903428860688, 0.48373545750642133, 0.1705507083795497
0.01954855268887039, 0.5022273843169056, 0.1704745527114671
0.025939009356839935, 0.3915061658998355, 0.16969923926088723
0.02528550366802262, 0.5497539442926281, 0.1701358127059914
0.021983444878786562, 0.5177115935633686, 0.17031938572703256
0.022339010447074096, 0.5007251236025925, 0.17024992106840253
0.019019020528148422, 0.3995877602509307, 0.17026689105322856
0.02073492044309338, 0.43668667720731735, 0.17022122356639757
0.014642956007980674, 0.4219489852489338, 0.1706678122686176
0.01580119566214267, 0.4998185682068192, 0.17076545111280889
0.015220408921156876, 0.4153444922536611, 0.1706060227363272
0.02022416782460248, 0.43647192296437276, 0.17026114822629934
0.008803018313844845, 0.45087059331606083, 0.17120061205278464
0.02566322659893401, 0.5316509093805802, 0.17006187816226692
0.01364568503939714, 0.48075446774138575, 0.1708897881926216
0.012152920783848335, 0.4380213045628168, 0.17090408421745787
0.003816927382184859, 0.40375230945603985, 0.1714808837067859
0.01835591494974795, 0.4848474709856625, 0.17052673469953433
0.015995722132771943, 0.4116436462537345, 0.17053562548978424
0.01892660760486609, 0.4136973576358668, 0.17030852056604384
0.01644480961216347, 0.4417396468070943, 0.1705732483876132
0.02073872269553405, 0.501041819336445, 0.17037741921554977
0.021239089979952372, 0.5218030437067969, 0.17038828121951632
0.022893071380395178, 0.5282866282121731, 0.17027306773251957
0.02672412946971999, 0.40021556348641607, 0.16965824422712264
-0.02907784801416456, 0.5783392470184658, 0.1706296739543551
-0.05026088462496832, 0.5515187509953791, 0.16443500178792037
-0.044251670122668896, 0.5389697988354814, 0.16584330386778084
-0.042885604363173506, 0.4863963532405073, 0.1660395029602328
-0.03328046205932854, 0.5726315932810936, 0.16855551397316443
-0.030209868650278124, 0.5732136160985446, 0.16929256532952752
-0.02838599622462793, 0.5765842553212774, 0.16973790022528618
-0.0517102883673281, 0.5713205056461294, 0.16413714187800987
-0.04203453199295962, 0.48014565098458967, 0.1662278060798547
-0.045430873129848476, 0.5563251151181424, 0.16560407535067184
-0.04067376611335628, 0.5201087096753907, 0.16665341857009996
-0.037779392700612424, 0.5482023079036644, 0.16741683739284827
-0.04317121710658629, 0.5371393413893604, 0.16609757726440605
-0.05143904352327148, 0.5409444320478249, 0.16412639797479334
-0.03645365084737956, 0.5450129792499231, 0.1677264853963835
-0.03365211162217746, 0.5521438831358217, 0.16841540695743273
-0.043569484313571494, 0.4953894258203937, 0.1658980893706733
-0.036761190671105996, 0.5470890828920041, 0.16765798573844828
-0.05280227260697169, 0.5426996898482337, 0.16380419444279679
-0.046202215938926414, 0.5421901968073339, 0.16538405343112939
-0.03350395976511657, 0.5389459914352133, 0.16841799780127348
-0.04495025572687865, 0.5424328968896535, 0.1656845817464454
-0.03889882474190475, 0.5351697928330618, 0.1671161743540196
-0.032234855050382004, 0.5572717201739532, 0.16876771225222945
-0.04950968830864073, 0.5458371565768563, 0.16460079702621644
-0.05267261836122609, 0.5191601017138429, 0.16377657326309888
-0.032876821699852864, 0.5641537823284615, 0.16863107702646984
-0.042902702399590556, 0.47849261871430204, 0.1660157037866513
-0.03621469238640717, 0.5193940170092228, 0.1677198658130128
-0.04539173941738442, 0.4613169905144709, 0.16537660581561273
-0.036708694099516215, 0.5662878337334241, 0.16771842228965886
-0.035911406216959804, 0.5763091297631093, 0.16793440489205233
-0.04864369430268596, 0.5480902075801959, 0.16481387371336276
-0.0475858398027356, 0.5108867026857284, 0.16497455233090616
-0.048740645128603856, 0.427187615063642, 0.1644892513801908
-0.02371258070283676, 0.39057780908565104, 0.17013897408639217
-0.014428867917942836, 0.44537859583251066, 0.17074894079855504
-0.009976512755301495, 0.4049075487054218, 0.1710031056329809
-0.008652438777853367, 0.4026638661492349, 0.17110250373534874
-0.013439240052769402, 0.4355174332482466, 0.17080332905690906
-0.01804576518950936, 0.4427693650509988, 0.1704561705037854
-0.005826743208890574, 0.5265500412923916, 0.17162754902139266
-0.013126609588429284, 0.4823906674719741, 0.17094207655541227
-0.010096540847448003, 0.45134477168503645, 0.17110653023091033
-0.005592182944842174, 0.5181395036577416, 0.1716256706228364
-0.0026674099927527046, 0.5098135192228745, 0.17183703792170557
-0.006203346665754546, 0.41334243516977914, 0.17132241827026418
-0.01085997179904268, 0.4770940858308414, 0.17110869275100432
-0.0027951985655639885, 0.4072414296005673, 0.17157747530996637
-0.006040464570827381, 0.47135120943695064, 0.17147638736519258
-0.005916363136408529, 0.4845693391635445, 0.1715183599511343
-0.004350492930727878, 0.39287389000757433, 0.17141937019591597
-0.015695868715015972, 0.40448055899675533, 0.17054914691561227
-0.0017542165475930302, 0.5321949474723097, 0.17196378336445928
-0.02196055239057334, 0.4004551931571466, 0.17004325244821364
-0.0008179703109124533, 0.5396828181754177, 0.17205613504291448
-0.004552618548245284, 0.501943055077461, 0.17166860674430626
-0.01405201839110094, 0.41945259646038024, 0.17071573491201092
-0.0025039296672744304, 0.5509701583044602, 0.17195007203359752
-0.02177862142823168, 0.4083455975066043, 0.17007684821565064
-0.0024908687620735963, 0.49264477794361405, 0.17180926605647068
-0.004290420099681997, 0.39560249457012797, 0.17143076304774107
-0.008695278216224732, 0.46541832057079957, 0.17125172250001655
-0.010540304495758027, 0.39553666886305905, 0.17093566967038337
-0.01646977728549754, 0.44978603381202764, 0.1705980379255402
-0.00480903862015868, 0.5034270253532009, 0.1716519094721247
-0.017329278959142814, 0.39822976974638213, 0.17040459469971508
-0.006636806220910501, 0.4193234485270892, 0.17130263736676016
-0.006047177466715676, 0.46901263716505237, 0.17147016864033354
-0.0240357364784675, 0.39717129298205267, 0.16987093092749875
0.0032662382347913173, 0.5782693173263822, 0.17208571228674005
-0.023937885428170682, 0.48207720689697364, 0.17008515292236587
-0.02310160027157878, 0.5721206999150281, 0.17037034446741142
-0.021593206873369727, 0.5544688562959197, 0.17044687133718806
-0.018910303393679384, 0.5425731348433898, 0.17063040705474775
-0.00945791041386766, 0.5714626824947404, 0.17144920956114687
-0.014558471201153975, 0.4783637423503669, 0.17081889319223856
-0.011854454914036605, 0.5780576318285968, 0.17127546081757977
-0.023291470046181914, 0.44476778044119186, 0.1700456157341564
-0.018027981852260802, 0.5549263145137581, 0.1707303195407096
-0.01565302589244761, 0.5263805493115206, 0.17084897938065377
-0.018284031111858258, 0.5282511430916003, 0.17064517479161606
-0.004868491265586827, 0.5534497440525841, 0.17176884960291902
-0.018167277314275043, 0.4690346437947028, 0.17051041996992033
-0.023908607690207574, 0.42845163454265883, 0.16995706656659232
-0.024489583837779473, 0.5448402702646699, 0.17019408821482587
-0.010999336724872348, 0.5559128113974138, 0.17128932792355864
-0.018499932969130155, 0.4589521932282649, 0.17045955827370152
-0.019084899911008292, 0.4514741753585205, 0.17039504902409838
-0.015098818990978799, 0.5729129348811812, 0.1710060238231937
-0.02229697372949834, 0.4927919165951835, 0.17024115497742104
-0.022255319110390855, 0.533341885866136, 0.1703430617558206
-0.014464270584107184, 0.48099099583367366, 0.17083274195586967
-0.01430541906179942, 0.5150506809054237, 0.1709281468812093
-0.02567521188999175, 0.4808245938290924, 0.16994452524657644
-0.012263614750447753, 0.5274596049278404, 0.171120016186964
-0.024747203369655933, 0.453881329680599, 0.1699524959545609
-0.016535089746825736, 0.4883791671026278, 0.17068671684465808
-0.006073211569819819, 0.5485766480802736, 0.171661595674227
-0.020354223967282252, 0.5262972669381216, 0.17047648159452364
-0.022124972851888275, 0.4448299141669613, 0.17013814357470572
-0.02292463931476048, 0.42295508573925134, 0.17002162224152625
-0.014387753180102115, 0.5507114478891624, 0.171008345395097
-0.02489575201987807, 0.4768890468504545, 0.16999668156459385
-0.023872939828623856, 0.48732124254502895, 0.17010304834012727
-0.03658841140626021, 0.3858448005822115, 0.16896783671654803
-0.03944053384234317, 0.4442496815787376, 0.16675975263983778
-0.04554712803822724, 0.40186251109220406, 0.16519117229735583
-0.03042090723924098, 0.41798448268366617, 0.16885505555178051
-0.03365206591933869, 0.4017298438386051, 0.1680404678396988
-0.032408135301006225, 0.47783858346711716, 0.1685281901308948
-0.03296070508335082, 0.47539748191556513, 0.1683897293119058
-0.048728909963463636, 0.41424856344355115, 0.16445980811106123
-0.032048989444147885, 0.43736345976728064, 0.1685133333203056
-0.03182256329210237, 0.4510540888562602, 0.16860170441242123
-0.0395199155562868, 0.3940335429128976, 0.16661555839364467
-0.037689848902390626, 0.5011209757811588, 0.16732092040249025
-0.03664453669183362, 0.4537448953881039, 0.16745324171451817
-0.027658752647943208, 0.40065583736747623, 0.16947357147523548
-0.049046204741073865, 0.3992970603178181, 0.16434652511753836
-0.04688591005767016, 0.40230933893382587, 0.16487156243175582
-0.031215860039606358, 0.4705949915260641, 0.16879575951461456
-0.038849232054338156, 0.474719464197274, 0.16697736128785862
-0.035456207548361915, 0.5069693883699663, 0.16787059875205324
-0.033932472075229606, 0.4868891543530156, 0.1681855752122906
-0.03306630298184423, 0.4323071097332939, 0.1682570175106961
-0.030977484973537132, 0.5269223520177235, 0.16899327667967806
-0.043105494499593916, 0.4252633243510996, 0.16583443213439797
-0.027923939411265166, 0.46539203150893693, 0.16957141474070492
-0.04307500982196176, 0.4088462276157874, 0.1658008111207007
-0.028671182059739547, 0.5181452147885831, 0.16952390398319206
-0.04242815404945773, 0.4639014404649708, 0.1660930143040473
-0.03566070557456951, 0.45933376755547045, 0.16770286380330207
-0.028507529749308022, 0.45256508853349997, 0.16939963301034894
-0.03167056515191665, 0.42379650663487695, 0.16857017079312447
-0.03313633893194057, 0.4818292582243583, 0.16836368673632135
-0.03237458671037942, 0.5243890325657846, 0.1686522667006896
-0.035718636709202396, 0.4906738860272674, 0.16776710929370658
-0.03390435226903217, 0.5074568412511695, 0.16824358220344765
-0.03480639246888552, 0.49949752769393463, 0.1680076452933141
-0.08617501500253189, 0.578353057916988, 0.14996941602654637
-0.08696982613575971, 0.5411384580023617, 0.1479707554375282
-0.08464831528419513, 0.5670905001997785, 0.14946559277809784
-0.09561400759649782, 0.5051043349994504, 0.14257696011157217
-0.09080320217965829, 0.5609963717895279, 0.14568067624837872
-0.09112458834824526, 0.5233727156313327, 0.1453769990417458
-0.08840046265471377, 0.548276120855302, 0.14711530838920064
-0.08048182044326713, 0.5652320617500203, 0.1520107484504874
-0.08926837556297483, 0.5521496169907991, 0.1465950430570221
-0.08913656468909112, 0.5534420358727989, 0.14667940226594597
-0.10047109654403727, 0.467501516343262, 0.13949690034687975
-0.10055642206338988, 0.47043756608506854, 0.1394530158525317
-0.08561426518519123, 0.527127520002783, 0.1487607088484727
-0.08919622365189234, 0.5275680008547837, 0.14656933508203732
-0.10069140898815271, 0.4476223243241464, 0.1393055328875937
-0.07919224580776218, 0.5727418238604269, 0.1528214831930932
-0.09430230553325576, 0.5641595659000985, 0.14354776005544823
-0.09845960899395662, 0.4153159431092067, 0.14057985327413783
-0.09912475109039542, 0.5130087471775207, 0.1404503957613375
-0.09855408551304823, 0.47215067560558965, 0.14068357662037306
-0.09340797412627236, 0.5546330892466589, 0.14406812810209457
-0.09056376998355734, 0.5238836285973285, 0.14572174533372798
-0.09705637877760934, 0.5499474273142722, 0.14182150930969373
-0.0904102731401284, 0.5382624697106347, 0.14585657793270596
-0.09427398170090698, 0.5308818187625323, 0.14347050443272302
-0.09036399987529886, 0.5582164349230039, 0.14594162325679783
-0.07891847030809403, 0.5759840836829649, 0.15299828578364413
-0.09882617943186435, 0.4553526570538404, 0.14046927051869515
-0.08460351044725309, 0.5496209777756645, 0.1494433612746758
-0.08652685095623142, 0.5557557148252854, 0.14828346424850966
-0.09214351475883048, 0.4709597714486091, 0.14460429699104516
-0.08675933012474771, 0.5311529357619166, 0.14807122215667326
-0.09048329041656461, 0.5603879195263346, 0.14587477442722896
-0.09788644691934043, 0.5433779124180864, 0.14129472517983313
-0.09576013165506936, 0.47941912222676164, 0.14241450174533918
-0.07403064261493396, 0.389829009185042, 0.15518722626966733
-0.055534029215306695, 0.45187978750560254, 0.16250911928608258
-0.06477736702386754, 0.43971783299597866, 0.15864321365795825
-0.0539995185748947, 0.45477567008624, 0.1631532097091807
-0.06092898622267358, 0.4666290297770536, 0.16031008947473652
-0.06823105753636832, 0.39819092272327117, 0.15710168902400265
-0.05761235563570669, 0.5032612866400603, 0.16178191754365054
-0.0729955051751544, 0.42407715490948344, 0.15519341398599784
-0.06993683563205245, 0.4165849661652296, 0.15644243648001677
-0.06660630965853072, 0.47418657495568767, 0.15797506358691685
-0.053604482508489315, 0.48653970823380793, 0.16340043105666557
-0.06614290220373753, 0.4718316790169565, 0.1581610968603243
-0.05606199895727877, 0.4674212850079082, 0.16233091574143055
-0.06539205082082411, 0.4863674193050113, 0.15851068778482627
-0.057418169196552016, 0.5252108126408304, 0.16192007090184243
-0.06449476248370181, 0.436886733541893, 0.15875300300337458
-0.05794759169733893, 0.48372671175936727, 0.16159159730225722
-0.05755911052591299, 0.4018746049342383, 0.1615379066600298
-0.06721131189702802, 0.4207080343471178, 0.15758376054028078
-0.05848855024359584, 0.5186469675669668, 0.16145886705298432
-0.06873567524657659, 0.39526774147393107, 0.15688470974427263
-0.05548552963394528, 0.41344838491087305, 0.1624283703502352
-0.061098688048389534, 0.49848876666781583, 0.16032331792280516
-0.07202480282354036, 0.39263386516154397, 0.15551352048546777
-0.06599400404380909, 0.4391837638497321, 0.15813717076469364
-0.06117816148276877, 0.4984302178701755, 0.1602901999731747
-0.06041806834723902, 0.4581523173405332, 0.16049976218135711
-0.060943518854357975, 0.500564688042215, 0.16039312796744046
-0.07302559651206951, 0.40575331681817733, 0.1551328404588965
-0.06396024632305546, 0.41426840513506724, 0.15891534828251697
-0.05823981967471179, 0.4470225062597085, 0.16137405327570786
-0.05880566096725416, 0.5243929372122857, 0.16134241537603983
-0.05639900027613719, 0.4075571316807504, 0.1620340156402099
-0.05523813910491079, 0.5362002552683818, 0.16285315435173056
-0.05391001296722166, 0.5507119829606484, 0.16344212640686925
-0.05777539638995678, 0.5783271658936511, 0.1628540180687712
-0.07128943983272218, 0.48773798786698674, 0.15606814203305208
-0.0667739363830536, 0.4887886493670671, 0.15794385828955665
-0.07446655920277391, 0.4327921554216361, 0.1546061171890962
-0.07165356369691334, 0.46458425097504696, 0.1558563418224756
-0.05934693246406571, 0.5696223036572192, 0.16123661052913665
-0.06612828524297368, 0.5460638257255612, 0.1583619839171137
-0.0711226216572257, 0.47579350197679743, 0.15610598700983794
-0.06228823309815714, 0.5185579764410455, 0.15988258662131594
-0.07068450657452724, 0.45170699916811863, 0.15622449464998997
-0.07359492052227883, 0.4257202443623417, 0.15494909863354284
-0.0738321724770795, 0.567571648642325, 0.15522298213592461
-0.07002345691297936, 0.5268305514029781, 0.15669585075543144
-0.07562138337604567, 0.5757527790745807, 0.154502317545734
-0.07284259343406392, 0.5490995534196905, 0.15558496335099525
-0.07449522845377131, 0.4910982633655695, 0.15474725117935528
-0.06995068752339086, 0.48207004915973906, 0.1566085595100658
-0.06731883543398141, 0.5735311445381396, 0.15794025121979346
-0.056606281208976775, 0.5660765941629534, 0.16236408315068374
-0.07748689447970607, 0.5090313005709992, 0.1535534214637097
-0.07618089287686532, 0.5248035286159654, 0.15413652461367028
-0.06877779181043714, 0.4886618463878889, 0.1571123582379714
-0.07208681205360266, 0.4400494981649997, 0.15561224537176882
-0.07137679126227472, 0.5304396973596733, 0.15614398153847905
-0.07742757707890895, 0.4050916158041995, 0.15330523360840173
-0.06210283985567732, 0.546530216751241, 0.16003289848001212
-0.07428124437076426, 0.45298614666626813, 0.15473598235525554
-0.05700469189644512, 0.5659063990932854, 0.16219838207484186
-0.07005668940653413, 0.47333705987374863, 0.1565416717166769
-0.07588222561363275, 0.4942963093435496, 0.15418034022569885
-0.061389805530623745, 0.5226827878556235, 0.16026606568908663
-0.07237337568312077, 0.47521434779300686, 0.1555856741972153
-0.0774024237216815, 0.47840571500010476, 0.15350808112872938
-0.06763955686515763, 0.4816855067816366, 0.15756617038800266
-0.05589258157581198, 0.5641165314605608, 0.16265497014613708
-0.0935536946385055, 0.387009444214735, 0.14501275959359228
-0.07862095207139826, 0.566273917115315, 0.1531528056238383
-0.08071646655505307, 0.4684230197723548, 0.15159194521185448
-0.08777276901993258, 0.4200298009434572, 0.14713500610864216
-0.07946953423912306, 0.44830845559069665, 0.1522980589413
-0.09824925593010916, 0.3965878248212484, 0.14065538417744305
-0.08355819156807545, 0.48241158312720245, 0.14989219571780538
-0.08112547840821632, 0.409660895543114, 0.15117455182116946
-0.08008454686329153, 0.4048222176827184, 0.15179798578172213
-0.08330914222017224, 0.41990478765751554, 0.14986697875031385
-0.08273424359001837, 0.40572563234426195, 0.1501785899605573
-0.07924077335388426, 0.4011579113280278, 0.1523040710448432
-0.07929497047562688, 0.42484041975022463, 0.15233820992471592
-0.09089844481041244, 0.4568634581964479, 0.14532637572268817
-0.0849531728632958, 0.43445771929676846, 0.1489019802338718
-0.08452893544408843, 0.46642111766763605, 0.14925252154483032
-0.08974581757282248, 0.4782328952676957, 0.14609267556345043
-0.08712436476958274, 0.47122434251910567, 0.14767742926473099
-0.08747827689553049, 0.44754725298059805, 0.1473934891326545
-0.09447841132978452, 0.40207197737040057, 0.14297922616826023
-0.08749395601856239, 0.4865988815836073, 0.1474948909680282
-0.08405906060008779, 0.45605303013110265, 0.14951067685284297
-0.08794247474525714, 0.4597158448842653, 0.14714392660908848
-0.08983640194959644, 0.47962928075681155, 0.14604119504109703
-0.09635378908315928, 0.4127768577184008, 0.14186167510537886
-0.09580411974643369, 0.4115101667905143, 0.1421945447788365
-0.09127098260306685, 0.470825073240252, 0.14513801768742277
-0.09733042200109489, 0.4038560111830843, 0.14123849059819008
-0.08077838150447225, 0.41564766350448884, 0.1514040375419981
-0.081534095376148, 0.473317682534644, 0.15110536108335748
-0.0856532972061975, 0.4712929163480367, 0.1485781114358825
-0.07965476381364989, 0.4921096349118522, 0.1523091735737542
-0.07816457870077015, 0.41885148917230436, 0.15301313588417292
-0.08121923040957779, 0.5352957769019969, 0.1514742651751113
-0.09389227577631368, 0.3923831730994382, 0.14331047913586187
-0.12329579999510518, 0.5783286104451394, 0.1213959820172962
-0.12158927026960423, 0.3897701425644461, 0.12199712407044101
-0.13943563717583826, 0.3867161563071649, 0.10254686662568552
-0.1327778143362316, 0.5680990679097868, 0.10889852535723316
-0.13093309633539751, 0.5677366825647638, 0.11105492779611167
-0.12380188998853632, 0.48670682415717276, 0.11909396146138307
-0.12891086748463854, 0.556340324125858, 0.11337780003018005
-0.13181329575758424, 0.5244603993213878, 0.10986391740834729
-0.13408226067343657, 0.5728348434270637, 0.10739039050282795
-0.12204510358917947, 0.5206125759936713, 0.12127535198793168
-0.12501666172423026, 0.510344951162185, 0.1177612357151018
-0.12623874265371593, 0.5146908277781892, 0.11634798856825476
-0.12451375290960973, 0.5636660656237656, 0.11854840515216378
-0.13107266206804533, 0.5278698235470107, 0.11074295093774146
-0.12325558795947543, 0.5719734881413621, 0.12005106407700336
-0.1332872369315003, 0.5497208643244459, 0.1082340952088314
-0.12822761039906805, 0.5553435671590965, 0.11417328277922154
-0.13196615660189714, 0.538356608548424, 0.10973695845068582
-0.1274530723698831, 0.5775862287018729, 0.1151622334748297
-0.12298562977658843, 0.4477590524688309, 0.11990343660102346
-0.12966728177296555, 0.5506081828961531, 0.11247164288544187
-0.12304487593729332, 0.40939406458996086, 0.11969101190822123
-0.12585152116847817, 0.4427863828337584, 0.11653267143294309
-0.12574592453150607, 0.46916542728501764, 0.11675459707435756
-0.12950341830231324, 0.5314758683580921, 0.11259193766875206
-0.12609530473872566, 0.5515973367648662, 0.11665345077755127
-0.1240237122450043, 0.5242487744572528, 0.11897455186564102
-0.12203583684989988, 0.4010278599369721, 0.12084006715068672
-0.12217428886740306, 0.520116326106052, 0.1211223935131249
-0.12479598905115839, 0.5201368964406412, 0.1180558850115438
-0.13466596295833744, 0.5514575348139069, 0.10662788740145746
-0.12529517670376342, 0.4879031454837161, 0.11735173694726456
-0.12473865300073782, 0.5257898799309526, 0.11814403969129218
-0.12220602885636413, 0.41403248676702625, 0.12068950990083044
-0.12373837766843311, 0.5501130243454361, 0.11940479527939006
-0.12488867170014734, 0.5071554567488048, 0.11789904603015133
-0.12484284249262319, 0.5451486628663749, 0.11809439002898914
-0.11146454416207126, 0.4785734254825982, 0.13029038177807029
-0.11230301823295855, 0.4453911968080249, 0.12946771308390603
-0.1099257091883164, 0.489400653987616, 0.13164050072100814
-0.10348431335246377, 0.4167601014434621, 0.1369156978200919
-0.11042165467148345, 0.44010493183081406, 0.13105927147989832
-0.11313669905522925, 0.44180412330278646, 0.12874353942112957
-0.10726757006610282, 0.414064472338575, 0.1336727094937707
-0.11315729332067598, 0.40428040310516417, 0.12860624667221132
-0.11579491208448525, 0.39860505334221785, 0.1263331855441474
-0.10685635950512846, 0.4912740604553481, 0.13427053147517634
-0.11010444134528449, 0.4909984850905079, 0.13149279509241366
-0.11297239161074987, 0.42946165124439395, 0.12884464176492164
-0.101960004948106, 0.47365241645134004, 0.1384003276066461
-0.10339299338058536, 0.5133627263516082, 0.13730189456031966
-0.1132448533087544, 0.4205183045176446, 0.12858318235905705
-0.10960330233583016, 0.4723292309107253, 0.1318616822276637
-0.10205531325245956, 0.5214328618203812, 0.1384712476843033
-0.11487065098944646, 0.42807856399096267, 0.12721736608731618
-0.11507408477472822, 0.4470456329976408, 0.12710394368413871
-0.1050692284356779, 0.43697815779063864, 0.135625206499935
-0.1098776748830508, 0.4079618146257179, 0.13142180770257722
-0.11284476785196135, 0.4378865828123821, 0.12898062245010614
-0.10807252303450954, 0.4156114825478088, 0.13298947166705943
-0.10743082696871865, 0.5199097541984514, 0.1338707433274227
-0.10337408304034804, 0.43816146551343277, 0.1370781982958994
-0.11549461447925535, 0.39763063060177983, 0.12658680861130847
-0.11470148525976297, 0.4526718382804805, 0.1274404327298244
-0.10724251993821757, 0.4744591273726047, 0.13388676115525602
-0.10883086169630884, 0.410760856071831, 0.13232567944429074
-0.11196483362589355, 0.4216944223807927, 0.1296812510180539
-0.10514077368187902, 0.4409683066154464, 0.13557676791978268
-0.11235331418079697, 0.39175806701825805, 0.12925364487768076
-0.10402788901135859, 0.398844679762454, 0.13639383958678536
-0.10727310476181547, 0.4078359098688483, 0.13364811103762514
-0.10936700851972946, 0.578310944065675, 0.13327639924794882
-0.1061448492692667, 0.5492164728821722, 0.13506362813187098
-0.11878922970759392, 0.5245818105172726, 0.12417507186164306
-0.11529248150395707, 0.5129121755529576, 0.12712730713293333
-0.11467274505384434, 0.556255313168547, 0.1277953737678505
-0.11701155078671038, 0.43993390022008405, 0.12542487574288969
-0.11128731745229432, 0.5658374545986389, 0.1307202189647556
-0.11286406733872134, 0.47956981244487584, 0.12909707464425593
-0.10955415306975125, 0.5416941466488812, 0.13212494018795679
-0.10713780422237187, 0.5295535494909425, 0.1341520138612006
-0.12114974365228436, 0.39941085127872916, 0.12175779014341932
-0.11955342607728817, 0.485056677119282, 0.12339568012727711
-0.10792306020074147, 0.5710229524250211, 0.1336129424253671
-0.11678329425519653, 0.4607731537351571, 0.12568648265866042
-0.11980549924133972, 0.45012948033104616, 0.1230687795903189
-0.12105195124943917, 0.5384008418389875, 0.12228469109511024
-0.11966334996055658, 0.4325243812139331, 0.12313415659049007
-0.1196134007917054, 0.49874544331464465, 0.12338806536315006
-0.10508872708634771, 0.5753844674960127, 0.13604999292291892
-0.10614518587812756, 0.5780567252152967, 0.1351553237042048
-0.10527370164471012, 0.5709416686810054, 0.13587768380430365
-0.12154825763490293, 0.4812487921642826, 0.12167810554178078
-0.120301302422228, 0.4797275336569763, 0.12273930575897321
-0.10938922073942457, 0.5085424754964111, 0.13216021059774244
-0.10950669595686124, 0.5103190920425652, 0.1320654445526915
-0.12118779432083021, 0.48677531396842966, 0.12200390067203058
-0.1215463094374847, 0.5231136859193373, 0.12181329535290694
-0.10874573277466931, 0.5102758840507124, 0.13271587255061837
-0.1177820186648561, 0.4406344456673623, 0.12476841846850234
-0.11328284312818741, 0.5065080568900848, 0.12882497017328265
-0.10954895696928582, 0.5749414606966845, 0.13223542172745262
-0.11061908273645843, 0.50433775255561, 0.1310953612893073
-0.11662291804824099, 0.557172142479726, 0.1261310479108747
-0.11399906188786357, 0.5642445231071899, 0.12839680263405617
-0.11064375123618884, 0.533963202285379, 0.13116875925567933
-0.132517823108722, 0.46460545889249916, 0.10881653697319023
-0.13763830499606078, 0.5024254258660372, 0.10296823352772377
-0.1385929762779662, 0.5400471513236695, 0.10199191553420554
-0.13169906389153146, 0.414542241291896, 0.10958746384881925
-0.13181697649838453, 0.4560456757965087, 0.10960437924504507
-0.13707604259696224, 0.47890917115645393, 0.10353817643857798
-0.1362706866406387, 0.41787682190479797, 0.10425250299300864
-0.13660553849821203, 0.39620441229387016, 0.10377997529071394
-0.13746290703517006, 0.4029881308602492, 0.10280242423500291
-0.12872331060130085, 0.46402099215528775, 0.11325277625358025
-0.1373201372814536, 0.4227105135126138, 0.10304299961321794
-0.13292006669728357, 0.3972135708018394, 0.10809461562223699
-0.13496504642025375, 0.4471668591458734, 0.10588897546357676
-0.1353096868329131, 0.471116115601391, 0.10557519915782287
-0.13225860327538716, 0.39694480465679616, 0.10886732294696272
-0.12512828355364858, 0.4061344178550559, 0.11724190121869581
-0.12679552900104568, 0.39985197729072297, 0.11526829573967397
-0.13249698993242603, 0.4769746610414076, 0.10888705127543366
-0.1338294032042121, 0.4766509104610635, 0.10732732721198009
-0.12807929647577568, 0.4596008675398217, 0.11398958573823385
-0.13516180725927046, 0.40993256428168917, 0.1055199152268343
-0.1350687965281099, 0.49577207529691386, 0.10594895131246726
-0.13870410842533304, 0.47229053479782657, 0.10160914489006954
-0.1368369917061122, 0.5001879493301058, 0.10389717777048754
-0.13198064329124326, 0.47154924771237483, 0.10947077839147618
-0.13663567243750974, 0.3992775679793623, 0.10375619283258551
-0.12658274045776113, 0.4114035024352305, 0.1155602886333924
-0.13815621976374004, 0.40588673830357846, 0.10200227412110781
-0.13788538974230008, 0.5168825105109295, 0.1027331550311875
-0.13551561868180176, 0.4857391224949478, 0.10538887597895341
-0.13518653682361106, 0.4700957509029843, 0.10571544034458737
-0.1322131630577747, 0.41796781656218585, 0.10899890478403215
-0.13511433847452836, 0.5243822186084623, 0.10600241718349906
-0.1348696617216611, 0.422045438045884, 0.10590682577317337
-0.14389578209939993, 0.3861978904082028, 0.09585916704297942
-0.15133381762487916, 0.38536249703273767, 0.08416629106464288
-0.15838254366260418, 0.3904397681972489, 0.06594980205850709
-0.15823554383152572, 0.5545472300574342, 0.06656598408632686
-0.1545181505390026, 0.4230507337631582, 0.07469616911300894
-0.15713236527376093, 0.48228471026938835, 0.06876838699539183
-0.158702020829587, 0.521115518047126, 0.06522982138264646
-0.15338270585218428, 0.44826450063804335, 0.07759314030782818
-0.15531016009818882, 0.5109694548032282, 0.07334302445877539
-0.1561306411905539, 0.5353844184079981, 0.07151942000557932
-0.15447031641426698, 0.48379340591844233, 0.07519583930155702
-0.15826639201303305, 0.5187720401007487, 0.06626524610918232
-0.15589891454786106, 0.4704490258638882, 0.07166721067229398
-0.1603145321320039, 0.5556361736479669, 0.061560662937934475
-0.16290082524526703, 0.5708551372019119, 0.0554216931269748
-0.1603283072774383, 0.572456512942739, 0.06163388276223559
-0.1535513494403047, 0.5066171693724668, 0.0775557839427256
-0.1570203886428415, 0.48370542069065464, 0.06904733979903775
-0.1545189094333414, 0.4591856874985011, 0.07492298231193721
-0.1535810843731733, 0.5084295602239034, 0.07749556414783197
-0.16267590564464626, 0.5777381060552094, 0.05600750124130206
-0.16025618862911736, 0.5501162180804208, 0.06166639533677101
-0.15723857766394778, 0.48406026153798754, 0.06852355538778097
-0.15614905641998691, 0.47260426750701034, 0.07107778344348886
-0.16067547538683605, 0.5696964220339336, 0.0607794343651513
-0.1536569123306094, 0.5595308057138173, 0.07763609286965137
-0.15328387193200077, 0.4503826557835887, 0.07784482054606466
-0.15359938493394984, 0.5413411850873154, 0.07765969081005933
-0.15927569003619452, 0.5536683931006241, 0.06405274553845064
-0.1541571920375019, 0.5259233846004285, 0.07621732377067916
-0.1584698042014525, 0.4961829410978166, 0.0656319099367122
-0.15837907799512832, 0.5137215802186604, 0.06596161600993576
-0.15827304010825374, 0.5679711990507983, 0.06656052445164799
-0.15498132388722008, 0.44876269241996525, 0.07374220090343656
-0.1584160277705631, 0.5653985775077346, 0.06619951879072102
-0.15418867167515804, 0.4655651440679848, 0.07575951492527452
-0.1607717254762949, 0.5506469881682822, 0.060426851311846705
-0.14064633453457115, 0.4649955060288494, 0.09861728823777398
-0.14288588668670751, 0.4447727002870732, 0.0948647670059828
-0.1443156926358706, 0.4608737322775072, 0.09260374679191381
-0.14310180736596514, 0.5351161239162737, 0.09493153871349969
-0.14422929735696607, 0.5782492206648966, 0.09328991612888932
-0.14157061842252225, 0.4905030046422588, 0.09722578670880043
-0.14699823469034043, 0.49845632011720087, 0.08839595870820498
-0.14061105405785856, 0.4847929753871493, 0.0987668529128324
-0.139738494779858, 0.41012652732843796, 0.09984558656081151
-0.14729379161712153, 0.5663059960197008, 0.08822818436217579
-0.1419567921310831, 0.5190072414644654, 0.09672727760007345
-0.1502659983447978, 0.5427410576565906, 0.08326325180003058
-0.14198608220562114, 0.5366266093252985, 0.09676124341132125
-0.13922159297996106, 0.4345406317445113, 0.10080338328449487
-0.1437299073568628, 0.46829041866015864, 0.09359514699807024
-0.14180288462072735, 0.5103766190549688, 0.09693863060228278
-0.13941162396030715, 0.502425125767219, 0.10080816178998517
-0.14156759099554916, 0.49901546456009993, 0.09727025986612454
-0.14243362688177083, 0.5120869117263291, 0.09591616791678187
-0.1440463034892316, 0.4700550086826806, 0.09308646415722334
-0.1496541012477962, 0.5681868947382005, 0.0843810272613488
-0.14646293370252544, 0.5598304967472454, 0.08955543640034386
-0.14074047232065812, 0.4518915233872438, 0.09840265311005682
-0.14565290743645087, 0.5425159223546421, 0.09079832604060067
-0.14383632865737206, 0.5376931198526562, 0.09374356320120475
-0.1497542398919101, 0.5513280100407015, 0.08413915309220413
-0.14838941010931722, 0.5369114636710611, 0.08630184766035313
-0.14045863316614193, 0.5082866108847033, 0.09912494567086838
-0.14161785319372727, 0.545198155326505, 0.09740259804500186
-0.1404186109536775, 0.44664564761144665, 0.09890409888360788
-0.1418155912582221, 0.4397787796189677, 0.09659005289673873
-0.14921989048760034, 0.5441499690341159, 0.0849787553833698
-0.14610478611027772, 0.5726963973367587, 0.09020026239594012
-0.14068389580982912, 0.5154609400186833, 0.09879026195726182
-0.15593911924192577, 0.5783073500238782, 0.07386893806435395
-0.1439647194520649, 0.42905808132110573, 0.0930293751704889
-0.15160618727749586, 0.5245320235911946, 0.08098931596379189
-0.15266089728464924, 0.4616775829210235, 0.07897444041382685
-0.15117773931618256, 0.4472745695086202, 0.08133050309938428
-0.14899346384881235, 0.4594156049346082, 0.0849551936961153
-0.14309268568685388, 0.4211260473739675, 0.09441713016112685
-0.15298078982820107, 0.4772769269409738, 0.07852428681986479
-0.1493020126280773, 0.4973997428387173, 0.08462751448245574
-0.14695268936993466, 0.4778686142073548, 0.08837476506742492
-0.14636333416566064, 0.4057146305924546, 0.08900251403931755
-0.1507493611069517, 0.5178363511620337, 0.08235796824697997
-0.15326626674566415, 0.5143680252724219, 0.07823015187509744
-0.15268273637338917, 0.5082840878066531, 0.07915517846590649
-0.15171603194179256, 0.5288030044376799, 0.08082970171159286
-0.14992703574875732, 0.47126677693515695, 0.08348510604380191
-0.14914494726454988, 0.3953171895017988, 0.08441008660794881
-0.14160190666420322, 0.401113514913238, 0.09675959533736903
-0.14575449445973251, 0.46558081724655287, 0.09027512333607246
-0.15041452801616828, 0.5010315653972357, 0.08282693186426915
-0.14842231491509453, 0.45524556903128355, 0.08586888062066009
-0.15278278966754133, 0.5465003625021391, 0.07916918320553817
-0.14731748347118429, 0.4676099082113429, 0.08773118791610203
-0.14766477344164186, 0.4305443706260915, 0.08699172985391114
-0.15185964879720132, 0.4806672038319012, 0.08037156741393502
-0.15121767364805766, 0.4193408090141796, 0.08113555572015102
-0.15254323751749868, 0.48326916667640785, 0.07926691336444447
-0.14422218164722672, 0.4443367766898654, 0.09267972121528181
-0.14776366338445865, 0.45603616013737514, 0.08694854951418172
-0.14811037120454007, 0.39430983640609696, 0.08609553122520133
-0.1522163981201321, 0.46780167682973617, 0.07972902785800198
-0.14488217653876523, 0.41024481998231316, 0.0914432243661713
-0.14998897105510173, 0.47592229628542715, 0.08340554390107872
-0.14254969076009139, 0.3984256672446615, 0.09519877882642398
-0.14451356233458515, 0.4540850515063368, 0.09224897648165757
-0.17145794186319654, 0.5124420438692135, 0.008186943237246138
-0.1711397764349142, 0.4182521865465558, 0.00931208460236557
-0.17101311693355065, 0.4736776178043529, 0.012613675890646828
-0.17133213557145, 0.41060134361531697, 0.006648028661839689
-0.17136951858619087, 0.40849319082566804, 0.006111216682038981
-0.17086658992029546, 0.440830643554903, 0.013455257004804516
-0.17080513528194954, 0.46551254128431324, 0.014989295768190573
-0.17063779949321728, 0.44839435479937706, 0.016576688211190335
-0.17007534897868284, 0.41218288437083767, 0.022567189100990877
-0.17104883697776424, 0.4679512123769822, 0.011986745176785767
-0.17177834004356754, 0.5348608235690981, 0.004829476597669908
-0.172016551951645, 0.5440154039083307, 0.002102499923625076
-0.17110130734335782, 0.4182860975206224, 0.009798910328387356
-0.17156231719590298, 0.44195729405966677, 0.0047042743013655484
-0.17151114673309278, 0.523239151872216, 0.007846662102103143
-0.17214089227991505, 0.5629824956170143, 0.0011148312918229924
-0.1709540678947293, 0.4493029165068109, 0.01261078112760005
-0.1709797857530006, 0.4319085448629225, 0.011751827313047756
-0.17160494281398372, 0.42558180299615656, 0.0036631011820502787
-0.17049305355854855, 0.4153481772915288, 0.017389660377356835
-0.17027233776661066, 0.3934945241704371, 0.01950570194907356
-0.1713296901227518, 0.43872038425463883, 0.007542461171803288
-0.17055671756723118, 0.422048213185305, 0.016791478763062386
-0.1705215811138396, 0.42850161184957003, 0.0174333663157895
-0.1705129363287014, 0.39583586259345066, 0.01653934831590898
-0.17179261878064433, 0.5173141696202282, 0.004110298322836555
-0.17204973628331008, 0.5112259919582884, 0.0006764697688196142
-0.17043819057289694, 0.39771967762053645, 0.0175410841607529
-0.17142142692108148, 0.48369203086508317, 0.007765121594683138
-0.17191084576836246, 0.4660647448645536, 0.0010434395896058244
-0.1709163701417942, 0.45648070484051906, 0.01330725896078951
-0.17167301407517818, 0.4792344060752318, 0.004451204993882751
-0.17002325040080324, 0.395044481931773, 0.022698755348896312
-0.17182602319086082, 0.40146615456638723, 0.00013071248331007355
-0.15971466597511488, 0.5066421762491262, 0.06269686604590219
-0.1626472803159265, 0.5422655955013903, 0.05585206475794245
-0.16227347158673316, 0.5092819516589491, 0.05654457722031412
-0.15864011716961077, 0.4383918588327597, 0.0648556400822499
-0.16104465194031659, 0.4274429124875573, 0.058989300600124445
-0.15735033698871148, 0.44764351948669884, 0.0680236927848655
-0.16185283825047264, 0.42187242650482565, 0.05700560835070638
-0.15443069078853663, 0.39696563617260366, 0.07474197488038353
-0.15735776260326836, 0.41687635910602516, 0.06781111667966244
-0.1604960940010655, 0.5121766863023581, 0.06084794990560255
-0.16193707338494995, 0.4842660144107805, 0.05719731138298016
-0.16057839558161432, 0.4918463992644502, 0.060520893774241295
-0.15977070519116976, 0.44410260264524154, 0.06216605368726226
-0.15982152746005457, 0.4598673556486113, 0.062143275629952706
-0.1625336632762019, 0.4886492286854941, 0.05578673450316442
-0.15636630519705416, 0.41144900647677624, 0.07016706797130273
-0.16261341396856724, 0.415740913233804, 0.05513315006403205
-0.15862385425479814, 0.40407959748029754, 0.06467774334603535
-0.16086522449220964, 0.43124407011788723, 0.05944593108228538
-0.16111070906013059, 0.4482914313439614, 0.05896195966939778
-0.1600010996118679, 0.4892022846295114, 0.06189595903341099
-0.1548930596593259, 0.41405088242705357, 0.07373535960197393
-0.16161768639113633, 0.4310371619399129, 0.05763052119278328
-0.16087273793779067, 0.412440104364423, 0.05930883823265409
-0.15864516467236722, 0.4267270145085945, 0.06476966387549102
-0.16132036477374176, 0.5272735349606369, 0.05895624875101167
-0.16160036036883058, 0.4446567218638011, 0.05775846764296953
-0.1562661952420959, 0.4084139586061572, 0.07038921804349531
-0.15989090457615746, 0.4507188740982623, 0.061918129827845274
-0.16180287759389267, 0.45121499175706226, 0.05731171776698393
-0.15777746345668547, 0.3950334410878171, 0.0666610580747234
-0.16262253561182358, 0.4915233005036257, 0.05559065851528913
-0.15749707960670437, 0.4517025370873391, 0.06769559561317859
-0.16292917429620818, 0.5589277629120872, 0.05527787711506685
-0.16203884925433132, 0.5313131123714536, 0.05724962347177621
-0.17207874135361337, 0.38938950806295586, 0.00417965061051435
-0.16988842568040863, 0.39042905369977476, 0.027288981603941363
-0.1703964651250745, 0.5170550092413817, 0.021732631990725407
-0.17015231432636826, 0.5532391415574869, 0.025926827319425846
-0.1699842875646405, 0.4472171808957411, 0.02479292970831521
-0.17082579841984807, 0.47708002180440595, 0.01508359844731956
-0.17058279675525803, 0.49290372476039573, 0.018638061026557576
-0.1707692657730394, 0.5228083179145211, 0.017201686492998185
-0.17074857523762815, 0.53521597048219, 0.01784397084721652
-0.17041852431361404, 0.5186344604876973, 0.021502576385969984
-0.17110367012324004, 0.5376492640116608, 0.013434658473146524
-0.17018004148874422, 0.4819595726142077, 0.02338786575884868
-0.17043939764752106, 0.4928958319528428, 0.020448620182774407
-0.17009445015641875, 0.5210460867065427, 0.025668944485637328
-0.17122165902248954, 0.5761055205486165, 0.013125632483084581
-0.1709243685549422, 0.4923697421300708, 0.014308395975749517
