-0.7522024385342796, 0.009657955214976463, -0.1916250455471877
-0.84458254639065, 0.009670236127349012, -0.1266213642113337
-0.7956928397171344, 0.009663736782224727, -0.19022549279595283
0.905838990194637, 0.008531742169150964, -0.0992017637837313
0.7705171994987746, 0.009660461240483389, -0.173583765441082
0.8618164343009357, 0.009672734559960094, -0.1432717245384707
0.7469130438915008, 0.009657288143322458, -0.15803807199535358
0.8526746575295121, 0.009671505634579247, -0.13705654956019353
0.7531561086727876, 0.00965812739601434, -0.12846991000886304
0.7453035107528865, 0.009657071774428882, -0.1340947115569798
0.8369596484762993, 0.00966939307222199, -0.12559951415172604
0.7528517256113966, 0.009658086477921612, -0.19745327163425597
0.8536568572286385, 0.009671637671290433, -0.1195961368556824
0.7972929653607079, 0.009664060695937414, -0.15032092173519768
0.7936499423918784, 0.009663570965822432, -0.13417534255234678
0.752945589604345, 0.009658099096020495, -0.2047246946315019
0.7898245321699571, 0.009663056717462247, -0.19560077189178013
0.7434245500282277, 0.00965681918649309, -0.1785462025446965
0.84294694060404, 0.00967019794149875, -0.12271201406726867
0.7811847605170048, 0.009661895276427915, -0.14746533992709956
0.8379523145023388, 0.009669526515917303, -0.15738486885412345
0.7532102622423557, 0.009658134675856953, -0.1442343007840705
0.7730577377714162, 0.009660802764023323, -0.14906820803693385
0.7619135998505087, 0.009659304662037124, -0.1777924408334203
0.8129836212309385, 0.00966616998450606, -0.13166644368996844
0.7503782880721838, 0.009657753974706328, -0.22599189421758217
0.8861786989290972, 0.009676010070461373, -0.10260161977249489
0.8919813065024799, 0.0096767928944691, -0.02055911967728655
0.8808569807780137, 0.009675297138844855, -0.02986722717740414
0.8442419421628069, 0.009670373262697365, -0.08079707889149185
0.8850681731947432, 0.009675863762701083, -0.01469216905403925
0.8260050100341805, 0.009667922029787316, -0.07038482140982098
0.8180888601206762, 0.009666856918280106, -0.09828102220805923
0.857638662112765, 0.009672173903831788, -0.08894840137405
0.8733015477559247, 0.009674279607148433, -0.08464630696256897
0.8998090596995819, 0.009677845403330845, -0.013888610485071545
0.821335139761417, 0.009667293000817208, -0.10754299588921862
0.8832992434900393, 0.009675624025232723, -0.07194487572167005
0.8316362373316561, 0.00966867862992584, -0.08230975698321072
0.8863647336528497, 0.00967603540206805, -0.09307263906702411
0.7934892228232671, 0.009663550519457376, -0.08282932855683599
0.8538472584972967, 0.009671664346375515, -0.08541104635606034
0.8597825712042438, 0.009672461750823768, -0.09951341803451423
0.8007665943186573, 0.009664528330209242, -0.0971174602206181
0.8408921271528111, 0.009669921897493118, -0.11178685745556236
0.8669196762525289, 0.009673421631423585, -0.08648899190719964
0.8401484875738692, 0.009669823652789145, -0.06097008119999771
0.6880101633245415, 0.009656139649450779, -0.04510773236162523
0.7357597334596633, 0.009656139649450779, -0.006956693625225973
0.7196609802177368, 0.009656139649450779, -0.03279273065785879
0.7321164519865357, 0.009656139649450779, -0.0047686903017900364
0.7186279162778907, 0.009656139649450779, -0.0671669887239526
0.7133013855055891, 0.009656139649450779, -0.059181348229417334
0.6987563186647434, 0.009656139649450779, -0.07145651891161121
0.6811609708946753, 0.009656139649450779, -0.003282629828200499
0.7262661642165669, 0.009656139649450779, -0.045586780406812535
0.6411074966635438, 0.009656139649450779, -0.037750268868587934
0.7102778382000045, 0.009656139649450779, -0.08161853568885094
0.7321542897609047, 0.009656139649450779, -0.09033182395036542
0.6544130192254317, 0.009656139649450779, -0.050896344127300035
0.7161759718780316, 0.009656139649450779, -0.043330761053755634
0.7150504217750815, 0.009656139649450779, -0.03355976406384491
0.7350744902428259, 0.009656139649450779, -0.014186698149558679
0.7359418455355418, 0.009656139649450779, -0.033226275611812676
0.6924275214048321, 0.009656139649450779, -0.059880871347375776
0.6642042074931666, 0.009656139649450779, -0.034905860777015005
0.6643954592296979, 0.009656139649450779, -0.020970179139980425
0.7322551375103263, 0.009656139649450779, -0.04606380702503318
0.6980992665246738, 0.009656139649450779, -0.08639531304155079
0.6442811952677312, 0.009656139649450779, -0.2340488548839877
0.6721361664169264, 0.009656139649450779, -0.22780732954543798
0.5778827904051631, 0.009656139649450779, -0.19212146100537641
0.5805717590989748, 0.009656139649450779, -0.18113343478665891
0.5838046472046532, 0.009656139649450779, -0.15090203188287607
0.5821120582546581, 0.009656139649450777, -0.22607481942195437
0.6853412686045732, 0.009656139649450779, -0.20878365574956106
0.6835417801733332, 0.009656139649450779, -0.21540856609017892
0.6554522010840884, 0.009656139649450779, -0.18873914352905646
0.6661213381149023, 0.00965613964945078, -0.22199025142086307
0.5874907282775863, 0.009656139649450779, -0.1877164710433042
0.6130781676639037, 0.009656139649450779, -0.16436189314123814
0.6222461735520867, 0.009656139649450779, -0.22774783976961244
0.6118768499178291, 0.009656139649450779, -0.2045438666498879
0.582546519070487, 0.009656139649450779, -0.14052605031791396
0.638436399295967, 0.009656139649450779, -0.2212281205721197
0.6143579995551999, 0.009656139649450779, -0.20765306066781455
0.706416920420372, 0.009656139649450779, -0.2143672867119625
0.5870210033760734, 0.009656139649450779, -0.19534122350826874
0.6587662111332773, 0.009656139649450779, -0.20281271562186837
0.6149969510612809, 0.009656139649450779, -0.2220315699705461
0.6586794162458984, 0.009656139649450779, -0.20223553954049223
0.47125110917950674, 0.009656139649450779, 0.0026567572630107677
0.5620934584737907, 0.009656139649450779, -0.09110747690540827
0.474633652498472, 0.009656139649450779, -0.013890763116097044
0.5229217834583957, 0.009656139649450779, -0.009922405785573058
0.43694753255558083, 0.009656139649450779, -0.001963203219641096
0.5405071509650196, 0.009656139649450779, -0.011913328686113837
0.5297690447920643, 0.009656139649450779, -0.029353483912200013
0.4907343662770287, 0.009656139649450779, -0.053796840950974284
0.5098408212289536, 0.009656139649450779, -0.029823383621172966
0.4436799312578208, 0.009656139649450779, -0.0018374949124680782
0.5201462635405812, 0.009656139649450779, -0.02543454245921062
0.5486676613766327, 0.009656139649450779, -0.011614130593789252
0.4851898054614477, 0.00965613964945078, -0.038290800113618746
0.5602695644891944, 0.009656139649450779, -0.05284180857874481
0.5469437326718762, 0.009656139649450779, -0.00350546495835225
0.530380829592163, 0.009656139649450779, -0.03912841478588424
0.5349262503209946, 0.009656139649450779, -0.018311642377078323
0.5532070705483088, 0.009656139649450779, -0.062269907600130785
0.5650826886345226, 0.009656139649450779, -0.10168857089294278
0.5609793218393142, 0.009656139649450779, -0.02068148187584623
0.5618443763172728, 0.009656139649450779, -0.06945167746663812
0.5720827516466701, 0.009656139649450779, -0.02396005935959427
0.3013482416842126, 0.009656139649450779, -0.016726761570232597
0.28714202782167453, 0.009656139649450779, 0.002592394031358575
0.32973326355820337, 0.009656139649450779, -0.05044776149133591
0.400188059653448, 0.009656139649450779, -0.0592054830443998
0.4100217369881182, 0.009656139649450779, -0.11356166060137111
0.3578879185451642, 0.009656139649450779, -0.00441350647005507
0.3909433327276478, 0.009656139649450779, -0.003188327702301545
0.38432898986956615, 0.009656139649450779, -0.021433479444924616
0.3016862367500138, 0.009656139649450779, -0.01591679405158521
0.3138238085601385, 0.009656139649450779, -0.016031760497579206
0.27390777305160474, 0.009656139649450779, -0.00045815461699591335
0.4027860664195497, 0.009656139649450779, -0.019431718904799933
0.39917911582885945, 0.009656139649450779, -0.036541527658806666
0.3406669114921338, 0.009656139649450779, -0.028087657241278638
0.321486837954157, 0.009656139649450779, -0.014831925065499657
0.34417561772464056, 0.009656139649450779, -0.056260235516538214
0.4016287658482849, 0.009656139649450779, -0.05555226149780837
0.3667155036161397, 0.009656139649450779, -0.04746129545781062
0.409717215716126, 0.009656139649450779, -0.07199622636509155
0.40515388929985763, 0.009656139649450779, -0.11161827171278046
0.3603992868828194, 0.009656139649450779, -0.04233112885202951
0.47710498367278714, 0.009656139649450779, -0.20258322386856992
0.4190945434402755, 0.00965613964945078, -0.13479450233828355
0.49960718537458776, 0.009656139649450777, -0.22221421840862204
0.5107299781012561, 0.009656139649450779, -0.235433714141721
0.5141401265398682, 0.009656139649450779, -0.22374133322107392
0.41967139581596624, 0.009656139649450779, -0.21109013786950132
0.41626764084078244, 0.009656139649450777, -0.13237153674130386
0.4762283329255351, 0.009656139649450779, -0.2168451387820855
0.5190881931662672, 0.009656139649450779, -0.22247820641114616
0.5077168221771077, 0.009656139649450779, -0.19036805356404227
0.5028607366030102, 0.009656139649450779, -0.23609491160451518
0.4454339288713316, 0.009656139649450779, -0.2227359993464964
0.44616323365259086, 0.009656139649450779, -0.1713184710351438
0.43774672935274433, 0.009656139649450779, -0.1621363043567171
0.4149741813249186, 0.009656139649450779, -0.1834222667597034
0.45107897265813585, 0.009656139649450779, -0.1526908442175198
0.5038890676511718, 0.009656139649450779, -0.20492772307009227
0.47640252341663014, 0.009656139649450779, -0.1801052818748547
0.5134256148204341, 0.009656139649450779, -0.1928734099082854
0.43513285086448145, 0.009656139649450779, -0.20413966101651612
0.42010800039902213, 0.009656139649450779, -0.1318628062876282
0.4171932829347539, 0.009656139649450779, -0.2144171438029529
0.19641591773214206, 0.009656139649450779, -0.019893054820276066
0.2199204811816248, 0.009656139649450779, -0.0015343694754710612
0.2065838389931252, 0.009656139649450779, -0.02852279160056029
0.24210834028821074, 0.009656139649450779, -0.09916488118059702
0.16652308981842218, 0.009656139649450779, -0.006084720543160214
0.18637500077669286, 0.009656139649450779, -0.02517616860759464
0.12089357751125693, 0.009656139649450779, -0.002388947283122358
0.17540119969128068, 0.009656139649450779, -0.045631599706374947
0.1305234481817069, 0.009656139649450779, -0.0007609637914573579
0.11164480670954824, 0.009656139649450779, -0.011895733905754895
0.22979223736636667, 0.009656139649450779, -0.07254835878560915
0.2451142914763073, 0.009656139649450779, -0.021472658003263353
0.15631003573007948, 0.009656139649450779, 0.0006765721745284133
0.20801551128061235, 0.009656139649450779, -0.07396860321547233
0.17536320108389, 0.009656139649450779, -0.0560993623294151
0.1775618185547299, 0.009656139649450779, -0.02167325831100076
0.21332658732721438, 0.009656139649450779, -0.005092559879834389
0.17252791501814568, 0.009656139649450779, -0.007113098749727669
0.19155055676430494, 0.009656139649450779, -0.031440174340278335
0.18513058154735784, 0.009656139649450779, -0.02940139563076882
0.15792648998536324, 0.009656139649450779, -0.004531662905245143
0.2378287030381513, 0.009656139649450779, -0.032140899750117975
0.3370457237110228, 0.009656139649450779, -0.22191532228157967
0.3060916090391641, 0.009656139649450779, -0.22722415540232385
0.2742417552582959, 0.009656139649450779, -0.22720222336418897
0.24911734343159056, 0.009656139649450779, -0.21700751195144413
0.40565265744844875, 0.009656139649450779, -0.23582884488564199
0.3048132354310244, 0.009656139649450779, -0.1968044256322064
0.25548697444741597, 0.009656139649450779, -0.17221813852629841
0.34828121989514305, 0.009656139649450779, -0.20150975264215057
0.2949404905282838, 0.009656139649450777, -0.17252016640847384
0.2688174128178996, 0.009656139649450779, -0.22988229606517008
0.24924483116601925, 0.009656139649450779, -0.2002890069690238
0.321487422205162, 0.009656139649450779, -0.19504031802305247
0.382769319185697, 0.009656139649450779, -0.22342047249480382
0.3578730180470744, 0.00965613964945078, -0.20323595765778218
0.36107532057752767, 0.00965613964945078, -0.21713792816882893
0.3158395630434377, 0.009656139649450779, -0.19140532862855314
0.24857825534556943, 0.009656139649450779, -0.2358471352237328
0.3528217155186748, 0.009656139649450779, -0.21250704337023052
0.29873127242303327, 0.009656139649450779, -0.20374906342873944
0.24680095952384523, 0.009656139649450779, -0.1280014971678941
0.385585928710581, 0.009656139649450779, -0.22782302785319003
-0.05971682180799647, 0.009656139649450777, -0.011579896512244583
0.06970775783481374, 0.009656139649450779, 0.0005885425056291658
-0.015218529659373672, 0.009656139649450779, -0.038772514271556265
0.08146008252028315, 0.009656139649450779, -0.10911249296338597
-0.043840483368206035, 0.009656139649450779, -0.0002842808825969452
0.03422292666140455, 0.009656139649450779, -0.045974079948063115
0.05426398981741578, 0.009656139649450779, -0.08729241062593836
-0.017648514436711074, 0.009656139649450779, -0.01816087501480467
-0.03777234269774066, 0.009656139649450779, -0.017628923465463856
0.028765348678298358, 0.009656139649450779, -0.03699561775649932
0.044032445969873164, 0.009656139649450779, -0.05603045917856406
0.029382826007103537, 0.009656139649450779, -0.05042006780314413
0.07285423190470328, 0.009656139649450779, -0.04921344732740744
0.02107030016130622, 0.00965613964945078, -0.05753069824012495
0.05894204056509352, 0.009656139649450779, -0.015685663157653757
0.08194734714718283, 0.009656139649450779, -0.082077923344109
-0.00039868566045357743, 0.009656139649450779, -0.04930072562188467
0.07539473028917977, 0.009656139649450779, -0.02475725060911248
-0.05923654293714532, 0.009656139649450779, -0.009874619387716568
0.08046136741327048, 0.009656139649450779, -0.09627648616732817
-0.017046675688773463, 0.00965613964945078, -0.0019049673898813772
0.009606460065589288, 0.009656139649450779, -0.019161491326146526
0.1484921875799358, 0.009656139649450777, -0.16545977243087712
0.17498305068131845, 0.009656139649450779, -0.21015407195419253
0.08325483685882445, 0.009656139649450779, -0.1379619944427622
0.1259966919659046, 0.009656139649450779, -0.21496920820358162
0.22582904550042068, 0.00965613964945078, -0.23118119679255095
0.15279623742108958, 0.009656139649450779, -0.2354045435311114
0.10953009473738742, 0.009656139649450779, -0.2010373323731004
0.16734784576040446, 0.009656139649450779, -0.19679789323513905
0.1496326436324531, 0.009656139649450777, -0.18801298727340554
0.13274435082045996, 0.009656139649450779, -0.2312959180336454
0.19701974229600266, 0.009656139649450777, -0.2298663697063643
0.15559415367537852, 0.00965613964945078, -0.17226916083218854
0.12838529555469083, 0.009656139649450779, -0.2078640960202558
0.13084472854603563, 0.009656139649450779, -0.22181437935508436
0.13950616655307882, 0.009656139649450779, -0.21333325492699182
0.15678334059651328, 0.009656139649450779, -0.20432772504075164
0.10971931807225793, 0.009656139649450779, -0.18414726418990215
0.12187487717482921, 0.009656139649450779, -0.18799286087597813
0.1741609236141443, 0.009656139649450777, -0.2062198308426311
0.1054658705623914, 0.009656139649450779, -0.15103518311050745
0.12595921261810838, 0.009656139649450779, -0.21773546571860947
0.15481544837447178, 0.009656139649450779, -0.218700677127718
-0.22410797321937334, 0.009656139649450779, -0.010894675373068957
-0.08500888081325854, 0.009656139649450779, -0.0907275077038469
-0.18414101456498178, 0.009656139649450779, 0.0016921909414908743
-0.1574209321358545, 0.009656139649450779, -0.010152601802129211
-0.0943780372837083, 0.009656139649450779, -0.022249041042296115
-0.1026886759004696, 0.009656139649450779, -0.014349070000602029
-0.19182519756834046, 0.009656139649450779, -0.02445139551060468
-0.08888021475833079, 0.009656139649450779, -0.10558844660773596
-0.11561256089662048, 0.009656139649450779, -0.036270598193716676
-0.13641024800965265, 0.009656139649450779, -0.053798323435472306
-0.17647377576685974, 0.009656139649450779, -0.00166056653106471
-0.10344476439601091, 0.009656139649450779, -0.045056720547459676
-0.12419669362867028, 0.009656139649450779, -0.010346743952196757
-0.13823423168504576, 0.009656139649450779, -0.007250936805477635
-0.08934242911783426, 0.009656139649450779, -0.019330564598312956
-0.1454623164420496, 0.009656139649450779, -0.05664353389979722
-0.08217602601591875, 0.009656139649450779, -0.013656649676678375
-0.0859587276874798, 0.009656139649450779, -0.07971878477065207
-0.09318574031629392, 0.009656139649450779, -0.030965524987181605
-0.18110282617153808, 0.009656139649450779, -0.04299488335218917
-0.08383275564602682, 0.009656139649450779, -0.09213622702899854
-0.19782803967230617, 0.009656139649450779, 4.131107139720481e-06
-0.07794953558482154, 0.009656139649450779, -0.15719789511588944
-0.05501525147624691, 0.009656139649450779, -0.1821369794666576
-0.026067545198098632, 0.009656139649450779, -0.20728362568335035
-0.07497516987922251, 0.009656139649450779, -0.14335530025889648
-0.004897687852905295, 0.009656139649450779, -0.17377954358033937
0.03883964713508038, 0.009656139649450779, -0.23221120837493497
-0.07965676525587868, 0.009656139649450779, -0.18731356866758977
-0.07773985805294559, 0.009656139649450779, -0.13873012832135295
0.0387614157105519, 0.009656139649450779, -0.227723026232935
-0.048770623774150285, 0.009656139649450779, -0.17540344579000608
-0.06934077314325644, 0.009656139649450779, -0.18581457576100063
-0.060989073762884996, 0.009656139649450779, -0.18877141967070576
0.0020502907145389573, 0.009656139649450779, -0.1867430154218675
-0.046215623132629925, 0.009656139649450779, -0.19419551511727942
-0.0528443204634631, 0.009656139649450779, -0.19923301278018724
0.012447103699772831, 0.009656139649450779, -0.21914535438305532
-0.013806658294448805, 0.009656139649450779, -0.23577811918048014
-0.03373598828231236, 0.009656139649450779, -0.17363811676431776
0.02564877491494083, 0.009656139649450779, -0.21209560018106205
-0.051654538798008416, 0.009656139649450779, -0.2145260444328448
0.02319830563460273, 0.009656139649450779, -0.21796969464327673
-0.3239827572125196, 0.009656139649450779, -0.0033030890925373107
-0.3296739948560341, 0.009656139649450779, -0.015078466192633795
-0.26437964974754663, 0.009656139649450779, -0.054438017233174346
-0.3114744126654951, 0.009656139649450779, -0.027110104459046692
-0.3038229759055591, 0.009656139649450779, -0.054112571846648055
-0.26390403993878414, 0.009656139649450779, -0.014756330750657088
-0.3304131272201804, 0.009656139649450779, -0.03188194895381933
-0.3241539212137804, 0.009656139649450779, -0.01797725356960792
-0.26186950957519456, 0.009656139649450779, -0.0752610048877992
-0.33458504868140104, 0.009656139649450779, -0.01221640652335081
-0.36350208270077905, 0.009656139649450777, -0.01956234321942255
-0.28748535335522374, 0.009656139649450779, -0.015827409076034877
-0.3141493454500084, 0.009656139649450779, -0.015894754178378014
-0.37977950984485803, 0.009656139649450779, -0.014430275680362458
-0.25440924602257153, 0.009656139649450779, -0.07461247832742413
-0.29490947220076236, 0.009656139649450779, 0.000992695525397775
-0.2788001372718326, 0.009656139649450779, -0.013403555070263914
-0.26101093628230604, 0.009656139649450779, -0.005156668618627975
-0.30737394753545505, 0.009656139649450777, -0.0502156596354318
-0.30317980061909006, 0.009656139649450779, -0.051174205040437744
-0.2789871253007092, 0.009656139649450779, -0.026782058209106525
-0.2989012179207495, 0.009656139649450779, -0.03389648834241647
-0.1738457807352014, 0.009656139649450779, -0.23391374672101983
-0.13279519091538491, 0.009656139649450779, -0.22386322144686185
-0.1564904103088382, 0.009656139649450779, -0.2135018237191188
-0.22530728315205623, 0.009656139649450779, -0.2223773986362767
-0.19721723609326142, 0.009656139649450779, -0.17489808865883272
-0.1889233861137476, 0.009656139649450779, -0.18742150219451714
-0.18091784307692366, 0.009656139649450779, -0.1977417458214945
-0.16552989356189382, 0.009656139649450779, -0.22471739137967917
-0.22073004051522266, 0.009656139649450779, -0.19090070900862044
-0.1968985451971477, 0.009656139649450779, -0.20866888447862342
-0.19071362863673036, 0.009656139649450779, -0.16681148874969892
-0.1696745980730841, 0.009656139649450779, -0.22808524789661724
-0.23422468058684495, 0.009656139649450779, -0.2300119972169422
-0.2458311372082264, 0.009656139649450779, -0.16575547364606535
-0.2420958607699207, 0.009656139649450779, -0.2083160170238721
-0.15648094933230566, 0.009656139649450779, -0.1893253174904453
-0.14430686852485747, 0.009656139649450779, -0.20819897484755706
-0.15123236883216704, 0.009656139649450779, -0.22348621505032584
-0.23655876164557943, 0.009656139649450777, -0.12935882354150155
-0.24619316837059296, 0.009656139649450779, -0.23004636252033012
-0.2288241858055895, 0.009656139649450779, -0.20179115129642544
-0.1710700481234786, 0.009656139649450779, -0.20722758538071134
-0.3886557564866724, 0.009656139649450779, -0.1982807094709732
-0.360417703208114, 0.009656139649450779, -0.1590779268025363
-0.39668934914294257, 0.009656139649450779, -0.16853242617134356
-0.314795231352818, 0.009656139649450779, -0.19737664544544878
-0.34804354583931235, 0.009656139649450779, -0.22493299867055178
-0.3759027156973683, 0.00965613964945078, -0.15254505709012733
-0.3820778966394909, 0.009656139649450779, -0.18336329808529367
-0.37088684347948564, 0.009656139649450779, -0.184009008544127
-0.40608105330257693, 0.009656139649450779, -0.20632445858151022
-0.3358387052998189, 0.009656139649450779, -0.18498949501102535
-0.28130632307228964, 0.009656139649450779, -0.21696797732465742
-0.3888635850861162, 0.009656139649450779, -0.21396238014076502
-0.2757900857837514, 0.009656139649450779, -0.23522039331574374
-0.3555845161715265, 0.009656139649450779, -0.23107869991303676
-0.35858180729413697, 0.009656139649450779, -0.20836142374736213
-0.2589840591387687, 0.009656139649450779, -0.2345249647674727
-0.39262775803853167, 0.009656139649450779, -0.184175848658912
-0.26457261226658685, 0.009656139649450777, -0.22986620014903003
-0.37910859884038994, 0.009656139649450779, -0.21092719694048065
-0.31157902202284066, 0.009656139649450779, -0.2241428056081267
-0.37917599236454164, 0.009656139649450777, -0.15076330015173275
-0.2711976139010931, 0.009656139649450779, -0.22712310070272884
-0.47855859403891504, 0.009656139649450779, -0.04859199233579431
-0.5017846138221189, 0.009656139649450779, -0.013375075664045175
-0.4320489550235739, 0.009656139649450779, -0.04220903718718761
-0.444590629551653, 0.009656139649450779, -0.02484866749384429
-0.4201197857526675, 0.009656139649450779, -0.06513133927004017
-0.5339083824211622, 0.009656139649450779, -0.0010357497927486496
-0.4959524729041864, 0.009656139649450779, -0.009935696481160397
-0.4190970308974393, 0.009656139649450779, -0.07207796644513856
-0.4332553286133397, 0.009656139649450777, -0.0029452784735535145
-0.4104811859845876, 0.009656139649450779, -0.026434790934132067
-0.5450960564560362, 0.009656139649450779, -0.014046923691813422
-0.44723166189398167, 0.009656139649450779, -0.08003860126799166
-0.45978023978155946, 0.009656139649450779, -0.07377553460953597
-0.4160460705836687, 0.009656139649450779, -0.012883636057517944
-0.5273559227597704, 0.009656139649450777, -0.02597713283756955
-0.42017360643644464, 0.009656139649450779, -0.01215910127121124
-0.4152641763878372, 0.009656139649450777, -0.10664886999157774
-0.41182101278268973, 0.009656139649450779, -0.047845804688559646
-0.46774913680210667, 0.009656139649450779, -0.023838776336839836
-0.43347816505267067, 0.00965613964945078, -0.08454454002539957
-0.41847118317662996, 0.009656139649450779, -0.06031064533802932
-0.5467047983569795, 0.009656139649450779, -0.15514772677147157
-0.46107535134784416, 0.00965613964945078, -0.23462665476945524
-0.47666513139035893, 0.009656139649450779, -0.2323424729801412
-0.5376846485464352, 0.009656139649450779, -0.17951187461851753
-0.48132887142812647, 0.009656139649450779, -0.19190702009505947
-0.5585949238326048, 0.009656139649450779, -0.14510920149509607
-0.5034392943554422, 0.009656139649450779, -0.17321535515010342
-0.5273388288948917, 0.009656139649450779, -0.17259051473606157
-0.5390402942361544, 0.009656139649450779, -0.22522231932868186
-0.49346454327201195, 0.009656139649450779, -0.20897241432401495
-0.5080537099751632, 0.009656139649450779, -0.1770087114433099
-0.5573934229333826, 0.009656139649450779, -0.2135100226192208
-0.5477427039880947, 0.009656139649450779, -0.18229636993022097
-0.5461346209371393, 0.009656139649450779, -0.1382275786046732
-0.4742908269744349, 0.009656139649450779, -0.21547993785442499
-0.44610317501564567, 0.009656139649450779, -0.22602686044813486
-0.553776610117892, 0.009656139649450779, -0.2357011029999928
-0.503866778915707, 0.009656139649450779, -0.22609611529129675
-0.46427414072952483, 0.009656139649450779, -0.20222867776972397
-0.5477439823040944, 0.009656139649450779, -0.16428303310017683
-0.5348596963862902, 0.009656139649450779, -0.23144314628568616
-0.5412710995916791, 0.00965613964945078, -0.15550618364381036
-0.6050045430339144, 0.009656139649450779, 8.275078260552068e-05
-0.6305055461567579, 0.00965613964945078, -0.07140804623326719
-0.6515283552217588, 0.009656139649450779, -0.041999285342558174
-0.6846440367439385, 0.009656139649450779, -0.031108514436268633
-0.6938888032864855, 0.009656139649450779, 0.00020701397336304178
-0.6893750000988255, 0.009656139649450779, -0.023125048810922005
-0.6018188265042874, 0.009656139649450779, -0.046761930057162504
-0.583826896960322, 0.009656139649450779, -0.001845827934177527
-0.6087060150259163, 0.009656139649450779, -0.027417900666876535
-0.6224740531052235, 0.009656139649450779, 0.002790650407056901
-0.6496278925078411, 0.009656139649450779, -0.019133992243490758
-0.5770775591470005, 0.009656139649450779, -0.09677212882997749
-0.6783097375441997, 0.009656139649450779, -0.02043944435701793
-0.6455209527692611, 0.009656139649450777, -0.0481069724795167
-0.6889433316751405, 0.009656139649450779, -0.012103248017801186
-0.6199154062529755, 0.009656139649450779, -0.04473903008783563
-0.6527473257924539, 0.009656139649450779, -0.012758910505980143
-0.6956439772164338, 0.009656139649450779, -0.007285322675046851
-0.6859960250030523, 0.009656139649450779, -0.0001337917295780993
-0.5787445009033811, 0.009656139649450779, -0.07437300835984596
-0.633560448504624, 0.009656139649450779, 0.0012508367196341253
-0.5936873949137262, 0.009656139649450779, -0.03937446523163087
-0.8599213078568414, 0.009672275245832859, -0.169700664259974
-0.8515390532011591, 0.009671160917896904, -0.16142189488219524
-0.8099515225448493, 0.009665632316213792, -0.222874404418684
-0.8797942822194514, 0.009674917137711883, -0.13761392131650538
-0.8623317292583497, 0.009672595684666496, -0.20848313972309632
-0.886247316310194, 0.009675774997136868, -0.23436954285917255
-0.7833557963698253, 0.009662096708925396, -0.22882073791321256
-0.899976623169244, 0.009677600156452918, -0.14477777053351285
-0.8363184713863863, 0.009669137510089056, -0.21832211103923455
-0.8263778842485031, 0.009667816019105718, -0.18884322476397764
-0.9012341641845188, 0.009677767332605574, -0.15024477302909678
-0.8927090845662122, 0.009676634017672405, -0.1749502551552478
-0.773025483587418, 0.009660723408233226, -0.21723259312832902
-0.8785259982944158, 0.009674748533408335, -0.21174807449326577
-0.9005980654950287, 0.009677682770328617, -0.18688134712535934
-0.8170460243275344, 0.009666575451665155, -0.21634431216012465
-0.8495654506458317, 0.009670898549291772, -0.1715246073112899
-0.8072806475952052, 0.009665277252965052, -0.20083547212018585
-0.788557305002821, 0.009662788191899481, -0.23520046463369404
-0.8721133509941337, 0.009673896042959923, -0.14352118648479747
-0.7807358813879852, 0.009661748420240071, -0.2134665072032777
-0.8103878354935132, 0.009665690319188824, -0.22805658256826203
-0.7367819786867766, 0.009656139649450779, -0.19946981797789462
-0.7164921981573175, 0.009656139649450779, -0.22539431870005489
-0.6522474237323265, 0.009656139649450779, -0.21643301002127718
-0.6961641838322072, 0.009656139649450779, -0.20640272324371062
-0.687020899385347, 0.009656139649450779, -0.20468973562040338
-0.6557057512612292, 0.009656139649450779, -0.18554429167422284
-0.689543114429378, 0.009656139649450779, -0.20591859913216096
-0.6763712643501364, 0.009656139649450779, -0.17614537477130016
-0.6758142610943504, 0.009656139649450779, -0.17110244883138692
-0.6411740049287127, 0.009656139649450779, -0.21346212008835352
-0.7164673757319775, 0.009656139649450779, -0.20249428621291538
-0.6978784876408988, 0.009656139649450779, -0.19990181978531668
-0.7353101508048849, 0.009656139649450779, -0.13078060160460567
-0.6910099674262953, 0.009656139649450779, -0.23010580863012767
-0.7009553589395695, 0.00965613964945078, -0.17098397300335627
-0.6564779877951021, 0.009656139649450779, -0.2013673335486516
-0.6343252790201583, 0.009656139649450777, -0.2202241107141096
-0.6499691560003216, 0.009656139649450779, -0.2180200089409489
-0.7055421418225571, 0.009656139649450779, -0.19339590069973228
-0.7310549336637405, 0.009656139649450779, -0.16688005596713681
-0.6433638337441355, 0.009656139649450779, -0.21231961062873209
-0.6482290402529929, 0.00965613964945078, -0.197417602394988
-0.8005038453711917, 0.009663831411634615, -0.06052829813437237
-0.7883100089447552, 0.009662317623872431, -0.03677577939535022
-0.7393081848497323, 0.009656234356962359, -0.09190303392356652
-0.7644077268559817, 0.009659350306545144, -0.007819776781212543
-0.8054299605991477, 0.009664442957721212, -0.004760534439026388
-0.8263934706954692, 0.009667045445070264, -0.006728487280977372
-0.8060705516025033, 0.009664522483047576, -0.04281871517071185
-0.8556321413906336, 0.00967067524133233, -0.012283818767854882
-0.7719641400703006, 0.00966028838751079, -0.026603258247383917
-0.8145748593858494, 0.009665578239135986, -0.04812873343866255
-0.772098651664116, 0.009660305086275434, -0.008969922831084567
-0.8034912152763148, 0.009664202274736706, -0.029662336436818457
-0.8401302762588764, 0.009668750782703656, -0.025032195071339122
-0.7460045673676861, 0.009657065670549986, -0.023351859544709953
-0.7879942454275031, 0.009662278423826488, -0.05144285635245966
-0.7739362590659814, 0.009660533213625953, -0.07793510746840956
-0.8661838280457027, 0.009671985166574085, -0.018848333969322638
-0.7953691320722981, 0.009663193969415255, -0.0002310928404640315
-0.8167421035239213, 0.009665847288804945, -0.05475101708943129
-0.7893130543682423, 0.00966244214562538, -0.04198481530997705
-0.7433507200139595, 0.009656736212165742, -0.0534482507214053
-0.8082914794315565, 0.009664798197207645, -0.03721044085412556
0.8175925198229403, 0.00966682962221167, 0.1036960758327784
0.8759466686997419, 0.009674731762938186, 0.11848924240767761
0.8666969593433232, 0.009673455036847117, 0.09149082231751055
0.7984513550833585, 0.009664231658945966, 0.0927971285823559
0.8150305691746607, 0.00966646718560437, 0.08722392313755217
0.8517308493408133, 0.00967140947480363, 0.06841261113222946
0.8087361003534004, 0.00966561978157943, 0.09070384692163622
0.8706172642969212, 0.009673931755878001, 0.037218582939118075
0.8703335038123148, 0.009673933930926075, 0.07857935874801243
0.836683912714395, 0.009669393148298497, 0.08631781974989806
0.8982612243642397, 0.009677706399132253, 0.07604782445765594
0.769495261571995, 0.0096603326553677, 0.10805235604177323
0.8565227363843417, 0.00967207719424289, 0.08882955627407721
0.8654042551400323, 0.009673255975076196, 0.06666361817201692
0.8077461730549017, 0.00966547563362795, 0.08015108593474411
0.8789365209031608, 0.009675047477084722, 0.028258244009801765
0.8240480027137878, 0.009667689572496755, 0.09080955734416163
0.8219832556191975, 0.009667431667814821, 0.11242764710906175
0.7785444529281075, 0.009661558046231318, 0.11032290620211839
0.8427640521506259, 0.009670188880646751, 0.05967179087305631
0.8424815606895371, 0.009670168540742197, 0.07788136491980349
0.8518230907154343, 0.009671452452822112, 0.09954747277003267
0.7896035175731267, 0.009663028278871623, -0.06038102437340658
0.7891253107065981, 0.009662963981839058, -0.027700899845530112
0.7797020396791892, 0.00966169698128652, -0.0687383374807447
0.818031440034759, 0.009666850539036022, 0.0010430083999950761
0.7484327325721674, 0.009657492684363842, -0.07605399441900246
0.7751851688005692, 0.009661089667978613, -0.08504691140887982
0.8110084004262511, 0.009665906260235318, -0.024197611159482067
0.7895329142391692, 0.009663018785940468, -0.0663069753964457
0.8240283179519646, 0.009667656845849495, -0.04810318226479392
0.8388424202413922, 0.009669648667556785, -0.017115338320427786
0.7872083047628844, 0.009662706231893966, -0.06404862258164264
0.7564947362899372, 0.009658576656493613, -0.10260043777601348
0.74056914832509, 0.00965643539061128, -0.02444946415395668
0.8226933959114374, 0.009667477359664918, -0.05484384122917309
0.770929816351209, 0.00966051751698254, -0.009817727472568212
0.7501238724701098, 0.009657720065618068, -0.03599307142044364
0.8283750252642789, 0.009668241279911765, 0.000640624833183128
0.7704584858032456, 0.009660454144501483, -0.06561633338732299
0.7693173964476893, 0.009660300719980443, -0.031013431890418646
0.8491858605650541, 0.009671039388949292, -0.01655631039028389
0.7530194812296604, 0.009658109393048809, -0.0970619703942442
0.7579560453333236, 0.009658773135970857, -0.03923793405595655
0.6653163134947601, 0.009656139649450779, 0.0780063388322702
0.6881243379690748, 0.009656139649450779, 0.05451431126512782
0.7321259316780037, 0.009656139649450779, 0.08726874080569384
0.7054816129508955, 0.009656139649450779, 0.0688668790043199
0.6585909152486816, 0.009656139649450779, 0.09537366560441288
0.7061015659798976, 0.009656139649450779, 0.04182025842198996
0.7160955456988527, 0.009656139649450779, 0.1150494526785987
0.7195031260510989, 0.009656139649450779, 0.03904723489197949
0.6025548919766353, 0.009656139649450779, 0.12000177712878313
0.681944288675332, 0.009656139649450779, 0.06018189252000698
0.6352422113796401, 0.009656139649450779, 0.10458315259381809
0.7120532396270295, 0.009656139649450779, 0.11001214470966912
0.6559349008438525, 0.00965613964945078, 0.08292242823672928
0.6891830642497241, 0.009656139649450779, 0.08571049064093642
0.7223150531813499, 0.00965613964945078, 0.02525608914591153
0.716162129960922, 0.009656139649450779, 0.04024476034261514
0.5974709659217723, 0.009656139649450779, 0.11811203441359223
0.6778715452331465, 0.009656139649450779, 0.061918485133085656
0.6850687430784695, 0.009656139649450779, 0.09355392426226694
0.7266233167514676, 0.009656139649450779, 0.11635937373362945
0.6861087143777684, 0.009656139649450779, 0.06909631664810219
0.4655659217869129, 0.009656139649450779, 0.10796208185201696
0.49413071791192553, 0.009656139649450777, 0.08149756478985956
0.5588927089713972, 0.009656139649450779, 0.09520829014235062
0.535621172122481, 0.009656139649450779, 0.10160952121293891
0.5253877620016533, 0.009656139649450779, 0.08276563205083004
0.5138384143132708, 0.009656139649450779, 0.10819512229268047
0.44943738454129495, 0.009656139649450779, 0.10434998171195377
0.5722530667486315, 0.009656139649450779, 0.12126239744270056
0.5290259151003289, 0.009656139649450779, 0.10428469132124785
0.553447400024973, 0.009656139649450779, 0.06939115894030654
0.4698249718815271, 0.009656139649450779, 0.12152322469124849
0.5680429809517876, 0.009656139649450779, 0.11023861413554184
0.449487443820172, 0.009656139649450779, 0.0975636789975301
0.4857649588577893, 0.00965613964945078, 0.06800533754744198
0.49697375287679163, 0.009656139649450779, 0.09487706272095606
0.4395412561714808, 0.009656139649450779, 0.11027798409918994
0.5708172828891835, 0.009656139649450779, 0.11735677193096347
0.5690857675856846, 0.009656139649450779, 0.05442588103186894
0.5674004118695404, 0.009656139649450779, 0.0490138831760381
0.49078125844419723, 0.009656139649450779, 0.07568417206311846
0.5227186513193667, 0.009656139649450779, 0.11248981646496314
0.5508346476292704, 0.009656139649450779, 0.05483073255988844
0.6457969641258141, 0.009656139649450779, -0.10233629434709482
0.6117555190857098, 0.009656139649450779, -0.04798064075435567
0.6182602407813723, 0.00965613964945078, -0.04417346139578952
0.6824160809901809, 0.009656139649450779, -0.10016615183736248
0.6142611100281904, 0.009656139649450779, -0.07586682564866506
0.6174948027062537, 0.009656139649450779, -0.0812219198313057
0.601087949727119, 0.009656139649450779, -0.06484735776163066
0.6444853746178933, 0.009656139649450779, -0.10552486642623135
0.6736891776865547, 0.009656139649450777, -0.07187876233444809
0.5824211132975443, 0.009656139649450779, -0.011667834466697436
0.6141944026985257, 0.009656139649450779, -0.08854313411182525
0.6842060155146165, 0.009656139649450777, -0.10585487540149721
0.6206405860683719, 0.00965613964945078, -0.03421662543798744
0.6158467168449836, 0.009656139649450779, -0.03240203745020845
0.5895829840220745, 0.009656139649450779, -0.012172914784856196
0.592495337741797, 0.009656139649450779, -0.0796623774116024
0.5752206319706031, 0.009656139649450779, -0.07119686934811066
0.6523705213991179, 0.009656139649450779, -0.07025232530434358
0.635673286523512, 0.009656139649450779, -0.08008814514313498
0.6957694322250184, 0.009656139649450779, -0.1119800403059671
0.6441333943748793, 0.009656139649450779, -0.0768835950277953
0.6619465528887658, 0.009656139649450779, -0.10481982978902495
0.4265641902687851, 0.009656139649450779, -0.08715539103135178
0.4308941267295023, 0.009656139649450779, -0.012375194651524049
0.4195239109042384, 0.009656139649450779, -0.08399308747079358
0.5398668968049749, 0.009656139649450779, -0.11427793193462166
0.49895445934814664, 0.009656139649450779, -0.09044932074549279
0.47197725648258526, 0.009656139649450779, -0.08431714385373645
0.45384167480459864, 0.009656139649450779, -0.060611471036287876
0.4567016254831197, 0.009656139649450779, -0.03985870799362298
0.5193400997178227, 0.009656139649450779, -0.09399592312851943
0.4386268167230427, 0.009656139649450779, -0.08158942071513545
0.5420220443404198, 0.009656139649450779, -0.10524364803017862
0.45543953770284407, 0.009656139649450779, -0.0559524355520805
0.41663300756973665, 0.009656139649450779, -0.033134606483798304
0.5637520865124986, 0.009656139649450779, -0.11540521088307623
0.46167550354200393, 0.009656139649450779, -0.03926216672368974
0.5426890919793301, 0.009656139649450779, -0.11584740288953471
0.48879126094390474, 0.009656139649450779, -0.09635855278268837
0.5200592868462562, 0.009656139649450779, -0.11187274214856713
0.41997077202654254, 0.009656139649450779, -0.08898006872016717
0.43199552285298115, 0.009656139649450779, -0.1036766665035333
0.4483396494493533, 0.009656139649450779, -0.07530484780161399
0.38943960020999896, 0.009656139649450779, 0.027924892502984293
0.38170443921645975, 0.009656139649450779, 0.10843706672484854
0.3820021330801399, 0.009656139649450779, 0.04935824979606278
0.3631325824514283, 0.009656139649450779, 0.10996805578491772
0.3934577153688495, 0.009656139649450779, 0.11181303282412225
0.3796702062480281, 0.009656139649450779, 0.08917457573073881
0.28759518905500464, 0.009656139649450779, 0.10820346344106664
0.3878346334194896, 0.009656139649450779, 0.021867507276820568
0.38147868388994555, 0.009656139649450779, 0.10897733562810463
0.39371658175711116, 0.009656139649450779, 0.04888393052713978
0.402622772014847, 0.009656139649450779, 0.020923711387510847
0.33225121513800754, 0.009656139649450779, 0.10568347634357261
0.3680807051368286, 0.009656139649450779, 0.050289057148741274
0.4034449963417367, 0.009656139649450779, 0.0781345014473958
0.3706578273198061, 0.009656139649450779, 0.1002952604426821
0.2555869252234313, 0.009656139649450777, 0.11654272556885885
0.376492009725202, 0.009656139649450779, 0.10759032482516716
0.3251336736177431, 0.009656139649450779, 0.07914120074867864
0.4024039029964248, 0.009656139649450779, 0.06130461447118458
0.39478386710454616, 0.009656139649450779, 0.07467916173234096
0.34497121017271853, 0.009656139649450779, 0.05440875109133496
0.3877344794052283, 0.009656139649450779, 0.11330850289014002
0.31988732328305525, 0.009656139649450779, -0.09146528324567815
0.2874190088232459, 0.009656139649450779, -0.07682828929894997
0.3336024173057213, 0.009656139649450779, -0.06148978817629758
0.3323923664535921, 0.009656139649450779, -0.08628783999965339
0.2645979128382109, 0.009656139649450779, -0.06008597797170034
0.2589147943920667, 0.009656139649450779, -0.05739398352355502
0.34661657252850936, 0.009656139649450779, -0.07698121961553601
0.246130008102514, 0.009656139649450779, -0.0827130228790069
0.2838162690631577, 0.009656139649450779, -0.09560428515732511
0.2843187438043448, 0.009656139649450779, -0.054301681604973805
0.3712225083667856, 0.009656139649450779, -0.09580266917865975
0.28750585986249166, 0.009656139649450779, -0.09765643248847553
0.31298876594954705, 0.009656139649450779, -0.0700452541485333
0.3158339032607481, 0.009656139649450779, -0.05266837205405632
0.31792126922091923, 0.009656139649450779, -0.08683750329512635
0.30815101848129717, 0.009656139649450779, -0.059854246479726037
0.2924981662123933, 0.009656139649450779, -0.04791147732458609
0.3027670376109925, 0.009656139649450779, -0.053288275318960965
0.3126724268166634, 0.009656139649450779, -0.09076599710127205
0.3003344536499537, 0.009656139649450779, -0.04920140964465862
0.3587773422110986, 0.009656139649450779, -0.10975811917566736
0.29975653818447173, 0.009656139649450779, -0.06834484961255202
0.196936327640792, 0.009656139649450779, 0.08943294113877634
0.2202017634173168, 0.009656139649450779, 0.07656967668164645
0.22490382172357082, 0.009656139649450779, 0.11591505924381287
0.17477827314610153, 0.009656139649450779, 0.10390417727989563
0.1846477531010709, 0.009656139649450779, 0.062088018202227965
0.22144358385824975, 0.009656139649450779, 0.10454316323290928
0.16951189987113924, 0.009656139649450779, 0.099447872886902
0.18912009568411353, 0.009656139649450779, 0.11585953349042075
0.22331297563172325, 0.009656139649450779, 0.03848672784426276
0.22456397455735286, 0.009656139649450779, 0.10598905378768209
0.19445073155177067, 0.00965613964945078, 0.06668113433934264
0.14384835551255454, 0.009656139649450779, 0.10743717598303681
0.20304056796289133, 0.009656139649450779, 0.07211970712262562
0.23526449509279054, 0.009656139649450779, 0.02598202751566929
0.15602693009945515, 0.009656139649450779, 0.12026532390748329
0.221285539048172, 0.00965613964945078, 0.0292048834436614
0.20829907084101706, 0.009656139649450779, 0.03221953109498196
0.16035925076884955, 0.009656139649450779, 0.11339062038427988
0.1612986649977568, 0.009656139649450779, 0.12132637253058029
0.1483628697382619, 0.009656139649450779, 0.09876631031919957
0.179216238079818, 0.009656139649450779, 0.05269012007096717
0.15626747476136335, 0.009656139649450777, 0.09602901515198742
-0.00632567758342845, 0.009656139649450779, 0.08223677117423746
0.05629455039229864, 0.009656139649450779, 0.10749646037483965
0.02976532440885317, 0.009656139649450779, 0.09190741082795859
0.08122518993416485, 0.009656139649450779, 0.10038350561634725
0.033101564368490766, 0.009656139649450779, 0.0458677380891378
0.024478900218223056, 0.009656139649450779, 0.07956234014286484
-0.006588818967629643, 0.009656139649450779, 0.10763912041563954
0.02046834850180576, 0.009656139649450779, 0.051745981422211415
0.02011388650071122, 0.009656139649450779, 0.1069649317569087
-0.01934951374232414, 0.009656139649450779, 0.12032229221844234
-0.005821263106917267, 0.009656139649450779, 0.0783843764961373
-0.05063808564371333, 0.009656139649450779, 0.10972768722767207
0.049783504197910736, 0.009656139649450779, 0.0810830504439996
0.0008553508428314361, 0.00965613964945078, 0.08070616322255986
0.04381094228264263, 0.009656139649450779, 0.05579302553014064
0.002678328024752078, 0.009656139649450779, 0.06416103435839833
0.03845234833166893, 0.009656139649450779, 0.10005870330201026
0.023998518303644443, 0.009656139649450779, 0.11746997319898232
0.078371951946476, 0.009656139649450779, 0.07202374958468281
0.062451270221162605, 0.009656139649450779, 0.022140382308795274
0.004313211753763223, 0.009656139649450777, 0.08435031105248526
0.09117161793684389, 0.009656139649450779, -0.019172089292621743
0.15052667272682846, 0.009656139649450779, -0.10668189265073152
0.08381625643132838, 0.009656139649450779, -0.02201081477417058
0.1363967832966726, 0.009656139649450779, -0.04171517870842874
0.15107226466738272, 0.009656139649450779, -0.1058631662765753
0.1322898674093179, 0.009656139649450779, -0.09524999663746075
0.09333233299080194, 0.009656139649450779, -0.10346809549329508
0.20710261829980747, 0.009656139649450779, -0.09582411051286943
0.11849738335058593, 0.009656139649450779, -0.07786035046812792
0.1393405781245876, 0.009656139649450779, -0.10027436872099821
0.0965413591188772, 0.009656139649450779, -0.1033659459047183
0.08917686961781024, 0.009656139649450777, -0.03890165745785356
0.14784341391332256, 0.009656139649450779, -0.059404837497894374
0.19651164897376863, 0.009656139649450779, -0.0871941375970254
0.13579461495596745, 0.009656139649450779, -0.04532375019028928
0.0876894673362863, 0.009656139649450779, -0.05790071547452489
0.08798719645652867, 0.009656139649450779, -0.06852547459622763
0.1641022253201845, 0.00965613964945078, -0.08962071597679633
0.13831210420093046, 0.009656139649450779, -0.08164245229833841
0.16639229904914193, 0.009656139649450779, -0.11275668705816
0.1814172429083673, 0.009656139649450779, -0.10337963603835082
0.17067462006749878, 0.009656139649450779, -0.09817452213177519
-0.14293676259652247, 0.009656139649450779, 0.07410914347289183
-0.1738423219746468, 0.00965613964945078, 0.08697606625616902
-0.10931092520043208, 0.009656139649450779, 0.06652255377040468
-0.10655607430833751, 0.009656139649450779, 0.1113399760177653
-0.16733148236220022, 0.009656139649450779, 0.08739936212997605
-0.09770874712564633, 0.009656139649450779, 0.053742565473814265
-0.1803853483999002, 0.009656139649450779, 0.11803209056016219
-0.09275520251027264, 0.009656139649450779, 0.02006281494946227
-0.16688825901146725, 0.009656139649450779, 0.0795025461909402
-0.09944319593217898, 0.009656139649450779, 0.03599390443727017
-0.12550116628921573, 0.009656139649450779, 0.06482075100237247
-0.09935303177312182, 0.009656139649450779, 0.0399531589511027
-0.13298827025901155, 0.009656139649450779, 0.10737430304430132
-0.08919159811765796, 0.009656139649450779, 0.036045854077839314
-0.09374142925082825, 0.009656139649450779, 0.11607579241943182
-0.15052897321759517, 0.009656139649450779, 0.11904005765913749
-0.11565739136902009, 0.009656139649450779, 0.03244966056129881
-0.09598553108704233, 0.009656139649450779, 0.09819448929201016
-0.1331259828538126, 0.009656139649450779, 0.11113964596606973
-0.11687636851666597, 0.009656139649450779, 0.05824792552139652
-0.17200772446207185, 0.009656139649450779, 0.0774666490290728
-0.11891600429504687, 0.009656139649450779, 0.04450914291138747
-0.014797047075170947, 0.009656139649450779, -0.08388232380783142
-0.07118060995990763, 0.009656139649450779, -0.07703029917743949
0.04314195060972955, 0.009656139649450777, -0.11133647154344632
-0.06784440590375, 0.009656139649450779, -0.08655293981123273
-0.06186616298498386, 0.009656139649450779, -0.07605620968995366
-0.02761585886617042, 0.009656139649450779, -0.09455869116717658
-0.04332803544451336, 0.009656139649450779, -0.05641059390398824
-0.011535020736188117, 0.009656139649450779, -0.06583340816049642
-0.0505401915088076, 0.009656139649450779, -0.0923775984586873
-0.02764045570893854, 0.009656139649450779, -0.06810655417188448
0.025298135942594023, 0.009656139649450779, -0.09684732366856263
0.016854984737081247, 0.009656139649450779, -0.08598623089646831
