-0.2818591537762461, 0.6210587554900207, -0.17488573837006366
-0.16357914110418148, 0.6233846954271739, -0.1451080137923885
-0.21310224550326853, 0.6290643934938035, -0.07242946960923705
-0.24897234084108416, 0.620655378406701, -0.19628606995722886
-0.2219265971972415, 0.6263512798130034, 0.09775840343674747
-0.1885271463097468, 0.6311816513480721, -0.02043191081681178
-0.24589851411977776, 0.6316645824322318, 0.003755519875402442
-0.2587883326639361, 0.6280532462308367, 0.08472047595683924
-0.2771369376585232, 0.6296753866916698, -0.021201508862967816
-0.22256161004764727, 0.6295790294560971, -0.055450971574804456
-0.2379816045299732, 0.6256264575352074, -0.10692874690408906
-0.2672465270537048, 0.6252500110295864, -0.10605793531941801
-0.2802934550306906, 0.6229310461219584, -0.1374348175092845
-0.31046469622957096, 0.629058231257132, 0.008643109644364905
-0.3293355651675553, 0.6250091693848527, -0.09201653268215287
-0.41122703038599207, 0.6243360243098811, -0.0378815981312259
-0.35024856824801803, 0.6281250975969841, 0.05591834317932538
-0.41463341950094873, 0.626712044599247, 0.08738127187375777
-0.32352861188589155, 0.6281411986888328, 0.03897645990915301
-0.3501795298647389, 0.6268183124621146, 0.012329721301206752
-0.32066364340208103, 0.6270082401227979, -0.03743333220304807
-0.3738262880140254, 0.6222617253976535, -0.12369403880306706
-0.2838437807858627, 0.6196306082840941, -0.22010269185966475
-0.2978078650110197, 0.6195350934907196, -0.22083734675254751
-0.28608638717987717, 0.62001605584247, -0.2913728821460467
-0.2981007314519386, 0.624162750807904, -0.11410796449833106
-0.3170454835556974, 0.6196123621144749, -0.22434388727322027
-0.34145515785297154, 0.6211246752093683, -0.14798044152956902
-0.3881590822981126, 0.6239057033012899, -0.09068491479884283
-0.347064468569508, 0.6202613938031785, -0.2060889183021828
-0.32287030898963875, 0.6211907947446731, -0.32305393595032755
-0.38934145018473865, 0.6210793142412806, -0.21534646440349411
-0.3598122883814354, 0.6213812720552689, -0.29082129678530366
-0.42018997782996664, 0.6227765924435952, -0.3139781955769234
-0.23669613563372033, 0.6209837828154209, -0.6425107802196248
-0.22806721406624425, 0.6217225921618167, -0.567976268224125
-0.1771449638199421, 0.6212169803738983, -0.6063646274926546
-0.2917276854989591, 0.6210124278582332, -0.6216541837547502
-0.2552002555774745, 0.6219923887361855, -0.5169486829639994
-0.28269907431956287, 0.62211528962755, -0.5495704113675468
-0.19425654154100133, 0.6210402362442707, -0.5051587121151279
-0.17524087388799434, 0.6201724337135532, -0.3191872367510947
-0.22795544350756697, 0.620093542316002, -0.32560229832020104
-0.22873704848395265, 0.6211041102067202, -0.43214880673337075
-0.20509100018289841, 0.6209066179838493, -0.4686658691759509
-0.26076554176024114, 0.6199014495112286, -0.2954038827722169
-0.23011003319136375, 0.6203077169029445, -0.3021852886287043
-0.2516148619740587, 0.6207345791838552, -0.3755379609284137
-0.23348224888601385, 0.6217782299498009, -0.5187683830898216
-0.2563749233450757, 0.6214111672173752, -0.43919533305678404
-0.21042164364342736, 0.6207585970799807, -0.41883513935525657
-0.27195660842226027, 0.621771108952475, -0.44805015187310115
-0.29810367195135024, 0.6200917809634694, -0.2868430474121772
-0.29338665605283454, 0.6211877561948249, -0.35481523232626133
-0.3482650254970445, 0.6210805528335858, -0.28926957399526587
-0.4221628522021194, 0.6228620901682494, -0.3387083794782159
-0.35968324684284886, 0.6223035643842963, -0.3656720894223019
-0.37015995317351424, 0.6220780106544672, -0.33779644980402773
-0.3240647716751437, 0.6226176140650086, -0.45404543350186544
-0.40198892839391315, 0.6226721869661112, -0.41405126653197966
-0.32335966890275425, 0.6208585613787025, -0.6211823192630408
-0.2720905996809191, 0.6211929461077143, -0.6129280569022826
-0.28641342522380486, 0.6224074069353761, -0.5008831849089114
-0.32302406504202535, 0.6225564701218922, -0.49350014827363764
-0.31595946820428256, 0.6222127719484869, -0.41851557573816656
-0.3715295548315368, 0.6225837543768962, -0.49029523976637585
-0.32821556192483836, 0.6221276992314047, -0.5369609017768286
-0.3059651742510465, 0.6217544458064026, -0.5694945865877008
-0.34506572964314064, 0.6210410221111491, -0.5992672165143951
-0.3455837396289445, 0.6220600566484251, -0.5417006689216095
-0.3616698873651842, 0.6210776243405909, -0.5972793659389386
0.40835355510343824, 0.5872444145200774, 1.0010168362460916
0.37799915361305786, 0.5860818242763608, 1.0018002916414703
0.40097390029381075, 0.5072562861130064, 1.02114786393506
0.31801717035344934, 0.5494641987395498, 1.0151510497839724
0.2965975653715708, 0.5702384982418837, 1.009469024981732
0.22417029934526012, 0.5599449873804828, 1.0128160139751632
0.42143532755456936, 0.4088342732705105, 1.0203683512509554
0.315457503637437, 0.4501029515258309, 1.022829664187161
0.32084432533586366, 0.40742681837080247, 1.0197434564315582
0.27208037766643167, 0.4294008405247339, 1.0216318021288475
0.2887115699184362, 0.4334121793908506, 1.0219747501236196
0.3073956233539033, 0.4641344260680787, 1.022836152336924
0.3580760862770337, 0.46324780051957704, 1.0234667800988937
0.2704515832754694, 0.4586303122326234, 1.0228619416790274
0.26910534771987266, 0.5124238261927624, 1.020609949791941
0.25993310074184517, 0.4985112847954143, 1.0217082641050181
0.38443104721107274, 0.4867675146006292, 1.0225045096456782
0.24984239501885408, 0.3975971798809387, 1.0181718506139525
0.2353674205305647, 0.42365936457787756, 1.0211392546164042
0.13725448645266528, 0.43196386806399967, 1.0218658017079747
0.07107509632112635, 0.4265510106089043, 1.0214202211119219
0.07965878915627164, 0.45595131839425157, 1.0230925861472362
0.09177241464823191, 0.478899909440064, 1.0232528937757104
0.20703185008805544, 0.4583150492481199, 1.0228825769329533
0.14487317580686299, 0.433647962951749, 1.022000654908828
0.07836677438232827, 0.4399087010476271, 1.0222828048053494
0.18196693216162851, 0.4923377441009055, 1.0221857117919488
0.19772409244169384, 0.570807048545293, 1.0101602659169524
0.1632865146488779, 0.5851176519590916, 1.0054519996815536
0.23461192884838078, 0.5224738756486413, 1.0195452829172973
0.12797718325128307, 0.5173709656801226, 1.020920812454851
0.10554370757770742, 0.5435141730641297, 1.0182889643547448
0.13409326023304585, 0.5249709900748615, 1.0200978379013494
0.038377106791830026, 0.5181541521110302, 1.0220172000309846
0.1315145699703948, 0.5652639677318226, 1.0131659492584353
0.02104397510167812, 0.538463440729662, 1.0179687554681502
-0.015186330971969487, 0.3981286020052339, 1.0184020382551533
-0.08820318797877144, 0.39422419351726967, 1.0178957489886562
-0.02985303891118137, 0.451503245261474, 1.0232510549731373
-0.1816658562584807, 0.39173776204648814, 1.0179577641909447
-0.15615703179398904, 0.44906755907579987, 1.0236924023787328
-0.1771049432348311, 0.457705201387976, 1.0239732573430902
-0.012309830400654658, 0.44417776696104133, 1.0232139504413478
-0.07808032483765259, 0.4456716040087457, 1.0228148915217716
-0.06643167497183378, 0.4692450040707382, 1.0231360681280632
0.04585917695528093, 0.4754760514976446, 1.023963328013417
-0.2411100416834237, 0.43193898409468434, 1.0231302138449792
-0.24800344410405992, 0.4419992344987005, 1.0239027211107565
-0.3296671908094609, 0.4327791458543927, 1.023961067040457
-0.4140315885937079, 0.44364111972965586, 1.02486082705969
-0.3472293315992552, 0.41255017172238895, 1.0219530845752594
-0.3788187623538496, 0.4673633600819139, 1.0266275672928111
-0.32114415058602697, 0.5006516597085316, 1.025516387272271
-0.33499783886021056, 0.43504621585794034, 1.0240842869415956
-0.27659639014268445, 0.46288186665870745, 1.0253725758788335
-0.22212619010244433, 0.503463020803981, 1.0236072958812468
-0.3084127331784484, 0.49720633314059653, 1.0253709198522911
-0.4091573935489864, 0.5073643100858771, 1.023135826440517
-0.3483420828296677, 0.5237504430124162, 1.023610989524287
-0.3199383048776331, 0.5477513001476977, 1.0202297213075824
-0.4232315117851768, 0.5764636508774115, 1.0098573609365242
-0.208316293655239, 0.5370195116222775, 1.0199039095823343
-0.3329861045507215, 0.5854266808585707, 1.0069960142720504
-0.2316328163711063, 0.5630097449211943, 1.0159021459365316
0.050444775558553506, 0.49525226543149525, 1.0240521043163255
-0.10647984951668657, 0.5387920330947422, 1.0179781256549552
-0.15802462935197056, 0.5070690696937398, 1.0225246364691811
-0.18339919966859902, 0.4983585005067013, 1.0232397495101404
-0.24662840373720119, 0.5436510290041001, 1.0202583002120866
-0.14770067159613137, 0.5414084300411703, 1.0180927990475248
-0.1889708269892228, 0.5573194099906437, 1.0158757548231978
-0.11083480878897128, 0.5581433456281847, 1.0140466225143285
-0.05493669147204583, 0.5459394056000361, 1.016491575822974
-0.15589926922347216, 0.5715649908442733, 1.011268471361965
-0.0028730401980325603, 0.553794882798536, 1.0141664774057069
-0.7585167378009867, 0.6824234480851544, -0.606189151572093
-0.7395981876777309, 0.705050646061467, -0.9109667298628041
-0.7466739380749366, 0.6763010424620874, -0.5865869914756274
-0.7422335298670216, 0.6945046508993948, -0.7782417040464398
-0.7371662206848895, 0.6932792776840001, -0.6297453851359018
-0.7359253984279542, 0.6747028638802883, -0.6535673823369003
-0.717183422587053, 0.6871668121417249, -0.9347694041803631
-0.7194403461331387, 0.7203310088308533, -0.8764551670257018
-0.7191135237663682, 0.7087776582948594, -0.5636106008310302
-0.7163776203249758, 0.681803338545179, -0.9287600732730922
-0.7413197415948154, 0.6957319125209938, -0.7858321370245294
-0.7217962292653829, 0.719618412617479, -0.8643458062217845
-0.7213083535269987, 0.7208635485482371, -0.8147641733447628
-0.7386720461228624, 0.6960632127652775, -0.739376125870658
-0.7295741647917777, 0.7046121049023941, -0.7390142798662596
-0.7272117960857001, 0.7010576907052857, -0.6266121493654871
-0.7027619072980188, 0.7253795401352138, -0.633669349870277
-0.7188429552443575, 0.6574378774306626, -0.7949711365444447
-0.7251925382989837, 0.664402981330552, -0.7864894194812565
-0.7283044563874584, 0.6664969219322152, -0.6946082178159324
-0.724707677441498, 0.6632729684063372, -0.6602171745405272
-0.7090768877900913, 0.6455098420922454, -0.7741386998015616
0.008344863253611952, 0.6973220000339175, -0.5762049274116006
-0.042451088361993364, 0.712673917308623, -0.9219314774651999
-0.0402958470067077, 0.720008505362023, -0.9034896603349489
-0.13884677487219718, 0.7453098836258417, -0.5731471062284945
-0.10859888767397492, 0.7415149390527636, -0.5723968157328176
-0.14900986714060588, 0.7646107032282086, -0.5972524273707112
-0.00971262000802672, 0.6659891046706261, -0.9088696497598253
-0.10493197231956784, 0.6423350772851895, -0.5757431629743099
-0.1840366027487225, 0.651601370556217, -0.5645851621995696
-0.1422864272079665, 0.6465615328418902, -0.5692394355059008
-0.10540957040070284, 0.772619425608762, -0.7759654489272194
-0.16972908535972284, 0.7831840544249399, -0.8024096781864081
-0.17172272883669354, 0.7788434804230964, -0.8291554171118497
-0.15655845199790458, 0.7649566393925898, -0.8745035129214239
-0.11654413792224924, 0.7657077658232786, -0.8413670255998398
-0.0883102076635092, 0.7581247352086151, -0.8300905225245874
-0.10961819607719021, 0.7631645681620814, -0.6072383419988759
-0.1240360519369417, 0.7709002857571841, -0.6257421999891923
-0.1779717742250274, 0.7829348652190247, -0.6454797198019617
-0.16911769653699626, 0.7882493191309086, -0.7094010191535487
-0.1457850890150982, 0.7777989877924641, -0.6416652687257697
-0.11424526004295167, 0.777799876908556, -0.7180654401436344
-0.11999472695409802, 0.7788797146231596, -0.7458871817410673
-0.19009531242518626, 0.6073181869631621, -0.8331826321697189
-0.1594151840564098, 0.6091784711059167, -0.8324474872174925
-0.18759374423828812, 0.6057261199350337, -0.7682826235658622
-0.1132763543343615, 0.6121972401605947, -0.800802839571008
-0.07999260957675362, 0.6201292882237414, -0.8111393460899984
-0.12335636800997565, 0.6098124091158856, -0.6888797454761801
-0.19008199477171184, 0.6052189744922042, -0.7264596620107969
-0.10919221232749456, 0.61188781858281, -0.7149894396431797
-0.13898064237071966, 0.6111998763096, -0.6439962391170615
-0.13183902577784615, 0.6094200605531899, -0.669122739250654
-0.1513093625746475, 0.6166081765869207, -0.6126666711630067
-0.11990977356954635, 0.6144628372410108, -0.6340372160838771
-0.3077205275612679, 0.7157678663130634, -0.938195284411125
-0.2697195266763867, 0.6914864374958203, -0.9405070477245827
-0.2903296683545077, 0.6718142567162954, -0.9339701103440133
-0.47593409699334016, 0.7008798445523541, -0.550522243793129
-0.4800443812420204, 0.6887613521715434, -0.5499850836549981
-0.5555415730092429, 0.6786051322339408, -0.553240871304013
-0.5084207244707177, 0.6809912969973304, -0.9376119381844047
-0.5260084708489766, 0.6931026331407492, -0.93995098207176
-0.3579515971496351, 0.7165547434879718, -0.938645413545025
-0.5235736541773574, 0.7127720649685608, -0.9369352874648669
-0.3835083433675801, 0.6814229065134916, -0.5514776568170838
-0.25212793713844456, 0.6919421239530957, -0.5468412589816215
-0.3919694524967908, 0.7003466785155028, -0.5503713605546455
-0.2810865531186002, 0.7147948583529807, -0.5526574215440707
-0.663971512186416, 0.6978342831989616, -0.9424519148801584
-0.6067806911570899, 0.6773216888759411, -0.934934065127085
-0.6363484941757335, 0.693065414883328, -0.5489119506862669
-0.001132280347839274, 0.7020250552699305, -0.7065342487392985
-0.12919061429163553, 0.723571084065341, -0.5594295541450232
-0.03338018857192319, 0.6978492702409987, -0.5476993259616425
-0.13215553476574682, 0.698654632489953, -0.547089964115997
-0.17823437016454619, 0.6882956674134395, -0.5458139203485661
-0.17867838354219573, 0.6750397024866088, -0.5523211462311632
0.0010690059637827245, 0.6953103715454891, -0.8103436100980081
-0.0867827772316923, 0.6827549263399687, -0.9441694220281187
-0.17655878296608316, 0.6957170874497449, -0.9419608541486956
-0.07306439804152556, 0.6989770663860401, -0.9425763275463799
-0.7554612326000572, 0.6889154181063133, -0.9080403102346102
-0.3165928204771287, 0.7418751786406091, -0.9262867546242701
-0.2213506346185945, 0.7244770413515204, -0.9289507470215165
-0.2611938237571608, 0.7618972016313875, -0.9009667153779563
-0.2844691657133994, 0.741658827068915, -0.9234271526961993
-0.3175785195536973, 0.775141635999512, -0.8869139753421604
-0.35002627510624373, 0.7622891590633099, -0.906584085353666
-0.5879910807815445, 0.7304467884385046, -0.9254449006369236
-0.3986382524051112, 0.7212837463447282, -0.9350476884780521
-0.43491170540796165, 0.7246639405564608, -0.9335299758482843
-0.4876508753567708, 0.7265774879238511, -0.9349507851213398
-0.5024368578447834, 0.7645952898064748, -0.9016028529327934
-0.4115044005337356, 0.7778267532688612, -0.8850406095044592
-0.5384133708711177, 0.754975811852888, -0.913225376684811
-0.5376432456502203, 0.7681762754635479, -0.892856512701064
-0.5068815086102175, 0.7384177908420926, -0.5705387600949751
-0.5371306492048767, 0.7134515956988141, -0.5555388860067989
-0.5514405389115395, 0.742741249543739, -0.5742825023734267
-0.4305440180930075, 0.7601643027257996, -0.5913553818374333
-0.5152885257343262, 0.7542136053812629, -0.5864343246151118
-0.43230818385518455, 0.7745388763997462, -0.6148135324707357
-0.2125015723955071, 0.7280434129649593, -0.5591150534421983
-0.2936936404222736, 0.7192661896238716, -0.5547936563276337
-0.458138905177925, 0.7239787219492444, -0.5611037285730104
-0.2864835771648565, 0.7448173638550378, -0.5686885797973671
-0.3461601007581616, 0.7592670109910571, -0.5858504701219689
-0.4073839437609633, 0.7734541588105468, -0.6117985246192711
-0.32017578612480907, 0.7758570249583865, -0.6098736102828389
-0.28864896945311636, 0.7644788707518995, -0.5885513401305751
-0.2928669013899796, 0.7720557848981785, -0.6012498507973073
-0.24277088927945809, 0.7757756488053984, -0.6079398733716382
-0.35823456304178647, 0.6233721012276924, -0.8991198472592405
-0.23208391560951103, 0.6171361187691888, -0.8841292004171978
-0.289789498654245, 0.678929854455945, -0.9374516237340703
-0.3607288665216329, 0.6475369136013934, -0.9213236013716958
-0.3313787556583935, 0.678428344180144, -0.9375948600658732
-0.3995260334113302, 0.6813482525358767, -0.9379373250704004
-0.549985852417415, 0.6167601980425059, -0.8836896127997026
-0.49469913484833694, 0.6138434915036036, -0.8815292111337812
-0.3942397836383383, 0.6295871177883683, -0.9064406515287448
-0.38430853759675404, 0.6365771040320227, -0.913769674812192
-0.43279674235230736, 0.669884970187081, -0.9324671336163857
-0.5750760160205882, 0.6405453065488654, -0.9144018958132332
-0.47927115660939845, 0.6457884576792039, -0.9200875834124
-0.5314679895669473, 0.6735387625469588, -0.9340036254948179
-0.4337921159116924, 0.6335674284344583, -0.5789088532012276
-0.5425902400528043, 0.6324210416477789, -0.5814433045022933
-0.5915922272850102, 0.6390243599112129, -0.5754235396261578
-0.5687460779280759, 0.6506215737427594, -0.566815014217392
-0.5251588640321062, 0.6563496250331187, -0.5636487289333879
-0.46221765648815544, 0.6505195378694684, -0.5664381068946984
-0.21420907878178985, 0.6175699541440709, -0.6028659887087048
-0.37182187202222516, 0.6172653360981681, -0.6009767303369857
-0.32724780218196775, 0.6190203648080373, -0.5973738352776927
-0.43006875444079384, 0.6242809523119275, -0.5897812214960332
-0.45391761401152686, 0.6367412338677485, -0.5761252365676629
-0.3582398752467595, 0.6391766976703945, -0.5738624732499047
-0.31218847579717734, 0.6685709924718405, -0.5572971484129204
-0.2845513687879347, 0.6348078305243307, -0.5771430800809307
-0.24543347300597482, 0.650471243042949, -0.5651638389919409
-0.2671283777908723, 0.657245261168667, -0.5618783459479628
-0.21742463285374652, 0.654010146574636, -0.5627206065518249
-0.674798638134677, 0.7323425095004563, -0.9102398154781481
-0.6423699198201699, 0.7244792794372741, -0.9278280175126741
-0.659365220352516, 0.7291578402420877, -0.9203905016873148
-0.680046229348745, 0.7280908456028956, -0.5707248606170121
-0.662663031137692, 0.752659018334968, -0.6048740239104919
-0.6741013748506554, 0.72719756244544, -0.5676556446145118
-0.590926997591807, 0.7257922867423867, -0.5606252699350915
-0.6948953101797233, 0.6585082014593822, -0.9141475812865584
-0.5928104533185906, 0.6275633048194543, -0.8980341317974591
-0.658997889272601, 0.6495522131543376, -0.917324917412341
-0.6211760462269933, 0.6765936440547691, -0.9347451065951964
-0.7009889146587301, 0.6617244645127517, -0.5696664543784417
-0.6257320736818756, 0.6626530520364391, -0.5605114015531413
-0.6670245597056915, 0.6438724961027571, -0.5784697151106977
-0.5933480070546241, 0.6374891588306164, -0.5766139617798047
0.0020107814817193394, 0.7062773971139409, -0.6409999026573994
-0.012998804868785388, 0.7203086667903774, -0.6825719106399563
-0.003709634774806128, 0.7037428237716585, -0.7319392509893563
-0.012118176873792897, 0.7146061206648722, -0.7346086481730021
-0.00663905688518311, 0.7074502752143716, -0.7958986548737
-0.12535421836877778, 0.718749290475927, -0.932710207232661
-0.09848934688495752, 0.7112665292761328, -0.9355551769616319
-0.11683041172153269, 0.7379992666006314, -0.9143267350121552
-0.09125646294694491, 0.7469373892299888, -0.8834925665748152
-0.17752721663271498, 0.7506651266791033, -0.9066732385840589
-0.1533535369682292, 0.7720239514908551, -0.8482262863951469
-0.21658141964351993, 0.7579962249138671, -0.9004588167725656
-0.18441802117092285, 0.7640831890185023, -0.8840058440065813
-0.06885843291028576, 0.729935711100359, -0.5692041380109125
-0.010856100454432485, 0.7266891965898741, -0.6144504680850846
-0.011638957391026751, 0.6652579196084308, -0.6453174459330546
-0.0069795932731191584, 0.6767904366773493, -0.6760738541734032
-0.010518685704454772, 0.6649852739653724, -0.8579948085029891
-0.0042398538977245475, 0.6848660757407786, -0.7815678199040493
0.000274956677798223, 0.6809273110253786, -0.8608950970606006
-0.16291779538423604, 0.6154182860438259, -0.8772722770399882
-0.12321279356615364, 0.6228341298378591, -0.8952973357692893
-0.13482267601948517, 0.636590164926452, -0.9132199851201336
-0.0207794851125048, 0.6755426783469523, -0.9430733813800499
-0.2308728945243584, 0.6509071630476084, -0.9236139024434742
-0.10681233410343928, 0.6611361073031183, -0.931057071359922
-0.176775866504813, 0.6454029817144002, -0.919768288596824
-0.018720414242123812, 0.6542684809206308, -0.6148535897613276
-0.058533062686129206, 0.6688261943473517, -0.5591881276068249
-0.003106320699879688, 0.6798658805641674, -0.5678352899149285
-0.7525790007908096, 0.6861303238343923, -0.7763138370906366
-0.7464587489037282, 0.6813158671838643, -0.6502332277791741
-0.5806287948607888, 0.7862185923028889, -0.7463105889677655
-0.5019595630565065, 0.7944537346182066, -0.7690070700127689
-0.5888820506467405, 0.7839475892691228, -0.780238866670721
-0.5223174132778695, 0.7840537232184381, -0.8584814540196991
-0.47853044610349427, 0.7962383265846861, -0.78886259490797
-0.4272257018076705, 0.798526911879457, -0.7995789068236616
-0.4812769648510098, 0.7935246218042191, -0.8258866995883206
-0.5452625256583622, 0.7747369594902807, -0.8782166222347458
-0.4101535903359087, 0.7881702731883592, -0.861141300037864
-0.18905396377763636, 0.786482991087557, -0.7959819150872011
-0.42879654729262395, 0.7985432680581754, -0.7485319653720106
-0.28466424173069105, 0.7948874004899424, -0.8060046958190339
-0.35547227356172606, 0.8005275454181514, -0.7687620308453398
-0.34518566467573264, 0.7983878173566379, -0.8077995933442806
-0.44610506912418135, 0.7954035330525047, -0.8258473023026971
-0.38176894846475623, 0.7949905785525156, -0.8344391292088637
-0.3745274352898308, 0.7862720862871656, -0.8663403122716098
-0.328229346440179, 0.7851907587140294, -0.8662833995754644
-0.22331631104977187, 0.790058746428552, -0.7982534333211779
-0.2507450681120325, 0.7868453872170129, -0.8362295080449617
-0.3036924534543034, 0.7926779657800882, -0.83194669785787
-0.24978780291226138, 0.7904702543801476, -0.8171403409425737
-0.23149744310643328, 0.779984777726457, -0.8550191037278312
-0.26647727850798997, 0.7891679541278609, -0.8322565439616054
-0.444513133274128, 0.780486029613138, -0.6318125761882352
-0.4613587258948256, 0.7861889152434581, -0.6545705994705387
-0.5280233350504353, 0.7660659424372636, -0.6053645938921955
-0.5469203380604644, 0.7794079742926913, -0.6424067574514333
-0.5298727751399319, 0.7882441673213707, -0.6897956989718775
-0.5290943917138263, 0.7919055005289648, -0.7408149817913743
-0.559353037745254, 0.7851909624989879, -0.6792984142771313
-0.5661124492142444, 0.787453507816559, -0.71203633650325
-0.5488460693089099, 0.7898233747328459, -0.7625725888836815
-0.42824013832431823, 0.7940174134221907, -0.6925008665451848
-0.44419837490512437, 0.7982914133220853, -0.7714387533389576
-0.18737804128743435, 0.7813838142695665, -0.6326875568223798
-0.2102507878252229, 0.783720668286586, -0.6348900815272775
-0.23831150187473313, 0.7872766947022952, -0.6470833616452736
-0.3105567892292205, 0.7721044286147607, -0.6024411426726435
-0.425381829900191, 0.768338940087919, -0.603871556530586
-0.3709321433280317, 0.7932484587629691, -0.6712466788783671
-0.28999666775009914, 0.7898238158848633, -0.65065595964853
-0.31599996239498784, 0.7931067946400169, -0.668128030492505
-0.39107530382533584, 0.7862328150955644, -0.6430565756036717
-0.4559905140097408, 0.7852511527267145, -0.6489827832661779
-0.385016302050679, 0.7995018537314039, -0.7390994296949844
-0.38725512047956884, 0.7978164367766368, -0.7120396944601868
-0.3603175072510588, 0.7949596414632365, -0.6801413077869796
-0.20949691728167003, 0.7863658131565446, -0.6495601542916241
-0.2110972592643763, 0.7922952638524963, -0.6990229126820735
-0.29242871940932946, 0.7963824414762548, -0.694612992868799
-0.2716575353636285, 0.7965457953351813, -0.7798715279299515
-0.1894908537605407, 0.791138764874217, -0.7371676941287083
-0.21833786817078432, 0.7922664827519886, -0.7733437007852634
-0.204756294896848, 0.7927929633328841, -0.7258830531002636
-0.21750253651281715, 0.7940787948428587, -0.7392305638542096
-0.44474172369108256, 0.6006108465711313, -0.8298599552638507
-0.5284833886207501, 0.6165106659853798, -0.8854220470704803
-0.5406009227740245, 0.6100515019653259, -0.8680190116782192
-0.5368610933981822, 0.6007404047046723, -0.8178933037785759
-0.5598671532591044, 0.6000639627359181, -0.761654138196923
-0.49560357715398407, 0.6031092091288623, -0.8468427042611395
-0.5320596363356328, 0.6033219036401956, -0.8408046415685201
-0.5539170842382622, 0.6011375638205103, -0.8075919228502078
-0.4815730204783209, 0.5981725303600052, -0.7980598595144035
-0.22154773615843806, 0.6096757846327381, -0.858902914444112
-0.2698518667650113, 0.6106704892471371, -0.8705231073373378
-0.34481200759912534, 0.6199737716774537, -0.8940795118432244
-0.3314209234476835, 0.6063897558670532, -0.8584978296104898
-0.41964009994335305, 0.6088352542920545, -0.8705374869669436
-0.3816394537153982, 0.6071921354359768, -0.863581375251152
-0.4243062690675266, 0.6023633641342288, -0.8442735173761847
-0.3047261113675926, 0.6021215459222593, -0.830046940586205
-0.4139868919121414, 0.5988897699198017, -0.8141301971670263
-0.40788701621158097, 0.5974368776105241, -0.7635140690298399
-0.24210477494452104, 0.602323828294721, -0.7913060078030714
-0.33025466750180743, 0.5999758623585714, -0.8117778526662418
-0.2518211794338203, 0.6022336111815523, -0.8076200257527459
-0.21813073898590296, 0.6039528665937115, -0.7971561389312327
-0.2453438184103099, 0.6017673220974902, -0.7525325966409947
-0.5113285422626945, 0.5974765042654395, -0.7410958566463283
-0.488821961508487, 0.5977582049971901, -0.7025347516155633
-0.5460617252292963, 0.5993371304378656, -0.7149678636180811
-0.47987900829598223, 0.5972924953623471, -0.7113323948179059
-0.5278411936334028, 0.5986860087722994, -0.7000957467320152
-0.5779670611652348, 0.610404367813666, -0.629861647494934
-0.47044139366625193, 0.5981612463874759, -0.6875978267716688
-0.45163072060294396, 0.5986178998936786, -0.6781991320563423
-0.5025781643553221, 0.6031400463988557, -0.6435064133517555
-0.5320147351930916, 0.6081117404910104, -0.6273203399602786
-0.4570661858272278, 0.606710154434164, -0.6276498561789132
-0.2386670478803623, 0.6020980127611464, -0.735738276030719
-0.20356505831131538, 0.6044979084630635, -0.7717387593375014
-0.20311692542541632, 0.6042369409646522, -0.7251910434456164
-0.30883003173980045, 0.59938075855426, -0.7409536160865432
-0.4308231535826956, 0.5973428878784947, -0.7728502517047421
-0.3153296402436575, 0.5992223042045844, -0.7498368722564939
-0.3986640217878997, 0.5976079026781983, -0.7140635668318942
-0.4164207909698896, 0.5972610930415172, -0.7307497750957068
-0.3099210960526323, 0.5993335810390147, -0.7228133716874278
-0.386071586545647, 0.5987415194389617, -0.6852689954416288
-0.3148151731072466, 0.5998488680233638, -0.6852564980281448
-0.3582596326845724, 0.6018073891258455, -0.6540007888154445
-0.3294498852241859, 0.6021752432446545, -0.6539063668426132
-0.3949975200538497, 0.614325474146587, -0.6068655891818378
-0.16488218061341764, 0.607027809838768, -0.6709752779942632
-0.2941393250439377, 0.6006871765163317, -0.6717984492788698
-0.2664444624339617, 0.6033726366735087, -0.6515358756159251
-0.31530324786797576, 0.6130447525514774, -0.6095531820518828
-0.2900942055195769, 0.6073235280872449, -0.6277487948140179
-0.19863428345198503, 0.6112004381018168, -0.6216968742078524
-0.7130411404188497, 0.7256887717830699, -0.7880943669450371
-0.684066004677142, 0.7459446407577153, -0.8541322715346881
-0.6829119140150739, 0.7462635930231377, -0.8577692265563397
-0.6010239422100221, 0.7652263434941177, -0.8813017902815846
-0.6003807925155434, 0.7735028990363003, -0.8547864883772642
-0.639962859413702, 0.7682901935614682, -0.8274300048703178
-0.6575984113698315, 0.7643042257040347, -0.7457666025728134
-0.6253750341139326, 0.7762571569262896, -0.7513833230403146
-0.6899539276332487, 0.7357075038624807, -0.6031246787389307
-0.6824192783797037, 0.750791327493713, -0.7671123270379587
-0.6626259329295062, 0.7620269410716568, -0.7673524280598274
-0.6519091023507548, 0.7667829664735597, -0.7152624528104584
-0.6636152683125353, 0.7598841302193473, -0.6737771543782171
-0.6023541489397712, 0.7821107872440526, -0.727198002366416
-0.6683773122133279, 0.7567918536969132, -0.6620348446777978
-0.5761024922820273, 0.7861077190971916, -0.7068399915132396
-0.604932035583413, 0.7773710182553462, -0.6628232230334503
-0.6255213259390078, 0.7740297051313783, -0.6728684594407881
-0.6913473664682319, 0.637448852171927, -0.8666403945850361
-0.6848833371637544, 0.6253696137349888, -0.7840059310847146
-0.5901270408766777, 0.6033568937884388, -0.7832886327676009
-0.6718924155736398, 0.6206335146731192, -0.8257149945429084
-0.6396825333134555, 0.6099735796808194, -0.8042049765091239
-0.6062223628763096, 0.6116043472492116, -0.8520762063701598
-0.6270667788452433, 0.6190930660927125, -0.8744869463408261
-0.6942186267007419, 0.6324212626869956, -0.7044729851906442
-0.6731271390603029, 0.6266478127829189, -0.6256287745643667
-0.6846626633823187, 0.6320583268545085, -0.626224563549554
-0.6040259017079743, 0.620817075551408, -0.6054854362982363
-0.6665701510084832, 0.6160109406696387, -0.7098637526915728
-0.6620521772994604, 0.6155414090240598, -0.6885689831060324
-0.5854691924058537, 0.6079863208974062, -0.6434694249532611
-0.5937653659488142, 0.6033887381892362, -0.7453516077231727
-0.653559518134951, 0.6120868911418339, -0.7701783087686302
-0.03912813834794104, 0.7366659039511633, -0.7759540660345605
-0.06781834541267369, 0.7526750057389452, -0.7942010709133602
-0.07132622702523062, 0.7520618681423583, -0.8193630822452113
-0.050523946945048866, 0.7383722820806827, -0.8692966919009828
-0.022297720029040426, 0.7241834572488111, -0.8334802124421528
-0.01911109058655095, 0.7342110072761443, -0.6026563603571231
-0.09228380644348909, 0.769950900931228, -0.6832159808761279
-0.08379144558407102, 0.7663308698570909, -0.7042268766545856
-0.08121895634912679, 0.7631732771638249, -0.7474653482517115
-0.05941890518863883, 0.75053784394214, -0.7443416389509999
-0.03595989321485313, 0.73646818692328, -0.7253308932074696
-0.094153975245898, 0.6170057295534538, -0.863244458636933
-0.05145820143742398, 0.6308895318053611, -0.8439288761724958
-0.06990870523124633, 0.6246514653747557, -0.7962567352702843
-0.05676151826267016, 0.6310383416505948, -0.7949923985330187
-0.031926106231392484, 0.6509285344956431, -0.7143782879941476
-0.06099534731312915, 0.6303312380899097, -0.7317360275169223
-0.06471060687475433, 0.6280460761049081, -0.7231846844034516
-0.05499462795477668, 0.6320063669613816, -0.6726473225491902
-0.06666910008797029, 0.6282378824569307, -0.6341794589865906
-0.04352527214260739, 0.6381659271219005, -0.6353988076886372
0.7657622233713473, 0.6827063517570826, -0.7421878080631268
0.7686608092520524, 0.6927080566329954, -0.9218129566232588
0.766542382812021, 0.6945932864504968, -0.6860734469506029
0.7648686138501702, 0.6867428452876518, -0.7695439883961621
0.7576336238391603, 0.680044146072487, -0.7123205554268401
0.7550769584604762, 0.6762584574229178, -0.7737446635076506
0.7468596041403285, 0.7004526323527651, -0.9379173753623544
0.7622514968905474, 0.6988420805898726, -0.9270272450826409
0.7436109683844094, 0.6790806805136046, -0.6025430611485394
0.7355630461934837, 0.6656962683742182, -0.920249855618874
0.7492622132300399, 0.7130314176935636, -0.6457839457881466
0.7229875247627441, 0.7274338372414525, -0.6073681570437686
0.7405380649586728, 0.7171566440989436, -0.6900419464376559
0.746203007172209, 0.7056293635922187, -0.7546467940864467
0.7284944648854115, 0.7266662935979354, -0.7254362833815401
0.7321562988935644, 0.7148175383905488, -0.8254150078973399
0.7460175102202223, 0.6755150297029957, -0.6581951551002398
0.7208002573472801, 0.6395059109921104, -0.7421340719748843
0.7243168071002676, 0.6441814152752733, -0.6929881670088001
0.7375249223574298, 0.6564692657485215, -0.761515484891743
0.7328429330082699, 0.6556568294889906, -0.8708805203057967
0.7285688534311738, 0.6481365734124083, -0.8141471777150588
0.05838941433983421, 0.672256130143178, -0.5525173387330609
0.05206986581770584, 0.7114259483065407, -0.57659846992416
0.07734237003988714, 0.7393982660135396, -0.6159039379697822
0.15469211625222495, 0.7361137853186789, -0.9253644748344756
0.16599931613992386, 0.7497807890698664, -0.9153279786078673
0.10625059461873061, 0.7534094707481847, -0.8966582834465323
0.02338322058454192, 0.6704167967886384, -0.5838029017737812
0.08164207606249567, 0.6365901610159792, -0.8948334236144497
0.1360316775424965, 0.639140924013514, -0.9143765304772616
0.14589814871297693, 0.6444115656515794, -0.9208754870121172
0.10951032369314619, 0.7667109360377998, -0.7186402900822991
0.17393245809480318, 0.7817259451601655, -0.6940244888839333
0.20323592656358974, 0.7859920440965069, -0.6962641645411504
0.1789481254664506, 0.7842123711174211, -0.7080504109878968
0.13959318119160055, 0.7670220612179106, -0.6509064616213098
0.08677529830702992, 0.7561136097724586, -0.8657785324110437
0.12216846084720663, 0.7666584378492532, -0.8640567113603297
0.16781388457754748, 0.7843666240673437, -0.801117885779303
0.18125098324061878, 0.7870270426981444, -0.7388257209437835
0.09149868766219571, 0.7615246101855129, -0.8316602529236115
0.15569419436509252, 0.7836774879453081, -0.7706421118175595
0.13408786134996048, 0.778282906602762, -0.7672681062558773
0.13921177963796313, 0.611357553245702, -0.6666485882834023
0.11745366042191172, 0.615433918961429, -0.6345119517745319
0.1904067811140327, 0.6069845059047783, -0.7130998519514036
0.09822425946718616, 0.6197202447423436, -0.6630030254242624
0.14590322075569123, 0.6100054928266274, -0.7250383447401709
0.13296876546970246, 0.6116844224736374, -0.7379115993689898
0.2073020549402397, 0.6052135050505362, -0.7720858705125712
0.13688940115123802, 0.6103373696169934, -0.7814421204482567
0.2030726317172281, 0.6103390418414235, -0.8633233049608138
0.12676651991113325, 0.6122242700049269, -0.8133778842930178
0.11291985940455417, 0.6179193422432165, -0.8527053342895209
0.12269567761247227, 0.6248074265669266, -0.8875877926952894
0.27177149877143103, 0.7097655921191879, -0.5548982730600935
0.3751975622895998, 0.6949438483757475, -0.5513671099624954
0.3081672828908363, 0.6771873932324556, -0.5558579868800575
0.4597798856161501, 0.7125357884550976, -0.9371484982703494
0.5312680254354646, 0.6930102376525094, -0.9423966364687706
0.5611654542061699, 0.6795399685566257, -0.9397658687094068
0.4698650534422131, 0.6764291097162796, -0.5570235286981552
0.5867581623511557, 0.6930433543214942, -0.5528259166279189
0.40147663897475927, 0.710573461230788, -0.552887151817586
0.5445959347694296, 0.7133280210006001, -0.5556186655027733
0.40586117541915406, 0.6716910979142623, -0.9363122178634222
0.27222649630311446, 0.684396311912161, -0.943663656745843
0.4163134332733556, 0.6963836182699947, -0.9422716987598884
0.2932728593303813, 0.7040842419657131, -0.9430009743622985
0.6404505196398844, 0.7050964369139813, -0.5544481492220923
0.6623094494025056, 0.6819977061444624, -0.5537273749774938
0.5998527395918032, 0.6901188137188948, -0.9422978625356764
0.012581168026556329, 0.7008347740556367, -0.85416330927685
0.17420687628620152, 0.70913625827886, -0.9425875410568052
0.10977187422690828, 0.707998623786989, -0.9410738345332552
0.15847142258873842, 0.6940327825087392, -0.9468906964951287
0.11866910435122956, 0.6851472525887525, -0.9446860019908335
0.22699370473648056, 0.6810489052262088, -0.9431586415092353
0.017952326376431564, 0.696887971202711, -0.7800651804076331
0.12795779425881532, 0.6838807448561992, -0.5492434139410183
0.07992574846597371, 0.6867600034618419, -0.5456434243875197
0.14047279469769675, 0.7021144031774423, -0.5518208102875526
0.7712520192920881, 0.6910981639291685, -0.5624118835259674
0.37668716697327587, 0.755080756094473, -0.5772425159667671
0.3489339041491857, 0.7292612581392707, -0.5584146327663161
0.3104027683068935, 0.7308438106987869, -0.5606768335638729
0.3714471883597332, 0.7659340728378228, -0.5901723841540111
0.3410047829916654, 0.7801708584628841, -0.6138980882682605
0.5756485403913149, 0.7191322267953727, -0.5569498459613946
0.4717995487461196, 0.7154830786746286, -0.5543916897420985
0.3941842903282505, 0.7211235441006469, -0.5561449108759413
0.4300908055853657, 0.7467636112888254, -0.5711985022599858
0.5023947022544875, 0.7632525776509962, -0.5886088472340452
0.39132566422265497, 0.7743236194883575, -0.6014601697892532
0.5478435641300164, 0.7624824436090054, -0.5891681496967711
0.4946820895405148, 0.7786155962568443, -0.6113162448456229
0.5398067887287591, 0.7695999613605727, -0.5987276794561132
0.5275776797255932, 0.7324099450144949, -0.926832324378645
0.5582002798559491, 0.7295439290841115, -0.9285388382153575
0.6229632673745698, 0.7505238843852847, -0.9097865110063748
0.49399745109598026, 0.7389727467161742, -0.9217518422764827
0.5829004264737223, 0.7587640068939154, -0.8988109654788925
0.19094394797673805, 0.729118004221779, -0.931399091347306
0.29535620295368326, 0.7184728082372522, -0.9383653333950658
0.36380050263631775, 0.721126775726824, -0.9365708219082165
0.44660317269701133, 0.7248582490870197, -0.9311576417899537
0.3938721847214365, 0.7235891492896263, -0.9340018219086301
0.46514808337222546, 0.7370493710298008, -0.9235632260550718
0.340172107443792, 0.7765295063227692, -0.8812344752418839
0.3465468230960906, 0.7344366774334103, -0.9306882083779497
0.33491205375781874, 0.7569774766571168, -0.9114168569528279
0.21824901455238507, 0.7517811169316795, -0.9163268815254703
0.3561975728182688, 0.6112553160465167, -0.6160799655622831
0.26207251292729683, 0.6166440022158236, -0.6086136504686757
0.30094647859195656, 0.67887935896168, -0.555028914291604
0.42356670040722844, 0.6517218329084722, -0.5681518168517491
0.35731664767053667, 0.6780412607254985, -0.5549641129269398
0.3903306034093954, 0.6782742864716813, -0.5549989284521217
0.6195444367494093, 0.6201180526167707, -0.6107573095342369
0.5308313620927356, 0.6119912862179199, -0.6152442563653868
0.5106101579272054, 0.6293487112151301, -0.5867191215034974
0.4329727595954618, 0.6411650835335316, -0.5754578223375757
0.4015787283879946, 0.6352417973870532, -0.5796154621674354
0.534460941242201, 0.6661315924994075, -0.5617798445429076
0.5805910252134739, 0.6374176036107089, -0.5799238604183228
0.500330886440546, 0.6596443915196234, -0.5645924913993325
0.6090436189638031, 0.6686214377780133, -0.5616663725400927
0.5740300762222197, 0.6349528054606417, -0.9138938344133934
0.5703489367835484, 0.6484439299854554, -0.9242016212907103
0.5509886199541182, 0.6324147729196143, -0.9112311758371824
0.4398271413178289, 0.6315770540309407, -0.9112086099998531
0.4970385934118582, 0.670537125501794, -0.9353194888014554
0.3035683119873168, 0.6238509477389107, -0.9024640945640399
0.4828956204803055, 0.6255056038793678, -0.904148308515807
0.4214087373000157, 0.6246800190803201, -0.9031424666750404
0.3368101400127992, 0.6219099664489105, -0.9001493377441545
0.4131435346759798, 0.6467067792326234, -0.9235546191264502
0.43221505202627786, 0.6626832343914555, -0.9320407572373299
0.3377201234774676, 0.6659111378456267, -0.9339025496220309
0.36396390848146454, 0.6423416775722877, -0.9209447508748541
0.2793529781436268, 0.6456628058384688, -0.9235585509931447
0.28247009860788025, 0.6582520960804898, -0.93108830427148
0.21913294241839287, 0.6582883700039013, -0.9318858956247248
0.6927499746282253, 0.7044297200219413, -0.5543246388135848
0.6115362144583404, 0.7220449285954272, -0.5626381692637056
0.6679369437385275, 0.7407107653098555, -0.5840334735437708
0.6512686994019994, 0.7611587825675066, -0.6157762059420999
0.7043633360625469, 0.736542991409332, -0.9003038171952978
0.6687685974684502, 0.752614104437795, -0.8974556036142495
0.6360676976057853, 0.7433003805081309, -0.9188175916098815
0.6376146676497514, 0.7245599827401615, -0.932519793883003
0.7067454266131264, 0.6523082187724971, -0.5819890924574123
0.6364363278532769, 0.6316251209845511, -0.5919896938668725
0.6835109584883702, 0.6507872906998247, -0.574826715007899
0.6160032869317341, 0.6609299620172528, -0.5654787580668864
0.7034599414464421, 0.6638197361203314, -0.9291998560306876
0.6148539513463779, 0.6607509460200607, -0.9311698306595414
0.6546338730706348, 0.6301165219123, -0.9017136782641959
0.028263093041075008, 0.7143686742624038, -0.7807730561076989
0.027019909664960713, 0.7155113855348055, -0.8046080493173606
0.01678374126282639, 0.6995112603538787, -0.6536105161382849
0.024194539539613286, 0.7065004378646036, -0.7085660639936113
0.04014592068667896, 0.7235959384292627, -0.7227382228743727
0.2483410695769659, 0.7146450263233523, -0.558173293019375
0.206308384089068, 0.7254991752685463, -0.563908637143805
0.12693597638522658, 0.7073535924981857, -0.5540588019906114
0.10709157356616758, 0.7312258609871559, -0.5770161756189025
0.14274116544921556, 0.7589842176775308, -0.616583835313257
0.17297190996857564, 0.7527762217653665, -0.5916496276813132
0.15746136209559966, 0.7595827421952792, -0.610257134249413
0.25319254562953974, 0.7695472135578786, -0.6085933741205162
0.21664852408040636, 0.7692313437896292, -0.6159663150851997
0.053252265600118434, 0.7196855968429712, -0.9301450661037424
0.0977804726039076, 0.7549248394573065, -0.8867109602273888
0.03067024024487915, 0.6619927959133539, -0.8553882356459094
0.02496766760641304, 0.6805869649126985, -0.7869232295990002
0.03354279804890348, 0.6695107261264779, -0.7438087639412256
0.025011222985370805, 0.6811099554268495, -0.7785309446711042
0.033517141548360066, 0.6634698170714257, -0.6736284533853873
0.21808644902406094, 0.6107604921150249, -0.6313585172699017
0.16425238780323537, 0.6165506464010081, -0.6128297318550755
0.13695568970470862, 0.6148736980759095, -0.6214430442215322
0.12932844913831346, 0.6231050907231237, -0.5979194241688015
0.08650358015860643, 0.6739493619688983, -0.5522995326076161
0.16158707779039383, 0.6272512049270659, -0.5908310579871601
0.1331969481493434, 0.666906085670051, -0.5585527975513506
0.1961212473614254, 0.6603790979366236, -0.5633063341295544
0.07032387627753081, 0.6417019574757933, -0.9001527373788347
0.04269937348858423, 0.6829038926777259, -0.9397578691479397
0.774204074991784, 0.6945026322073133, -0.6465987411696293
0.7681288679268202, 0.6901901172967716, -0.6253046563719654
0.7596801658261103, 0.6804154248649049, -0.766251072192257
0.4601678557674148, 0.7985173093868905, -0.7159888717794066
0.5550364099800797, 0.7911429740065192, -0.7344881335514071
0.567108181860276, 0.7889897506050441, -0.6975475938529199
0.5967796187307423, 0.7802861646019472, -0.6524512586001483
0.5450982821325793, 0.7831419136825928, -0.6329414239141465
0.5835530912261139, 0.784723895898584, -0.6693864514385538
0.5881550832849851, 0.7797992751170213, -0.6412331377621577
0.43286783163943937, 0.7969783327935238, -0.6694682221194431
0.5345161835748738, 0.7753168075472552, -0.6090355845052158
0.23876777196461718, 0.7937723780165837, -0.7381759521643297
0.25635575984811443, 0.7914746375298146, -0.6925813669516567
0.3263269973812469, 0.7992184550960107, -0.7321499637648174
0.35096981129552063, 0.7983077761763405, -0.6926315595506122
0.45874130964048077, 0.7955422982376147, -0.6662218078512105
0.38702307888118626, 0.8002183523847981, -0.7074277081292423
0.389951803480622, 0.7953847965766743, -0.6606546693276185
0.4364981403082438, 0.7827090178295619, -0.6164317490250424
0.4049322453017301, 0.7895551823278546, -0.6358536743839034
0.24956268623401234, 0.7931315170082587, -0.7113779232898743
0.3318049997654706, 0.7978749593685737, -0.6978516931633343
0.32324574965834596, 0.7928247253687869, -0.660789342084001
0.2582961162908781, 0.7663237436386895, -0.6013284073540657
0.23859829179764738, 0.7830556278879787, -0.6545741005799363
0.47173626204840935, 0.7836065012443618, -0.85070918483935
0.5078724547709762, 0.7749546684780606, -0.8715116084791674
0.5361992662024971, 0.7807583907044585, -0.8504981870652609
0.5544385594991147, 0.7638052447583978, -0.8906332451715401
0.5862370191064339, 0.7804615726103694, -0.8384019153672525
0.564695189102965, 0.7879627166623552, -0.7929797457081273
0.6220994332165687, 0.7814434782850073, -0.7832739619364691
0.4911113470268533, 0.7899964860674303, -0.8157426274140559
0.5075380160662307, 0.7904791763676233, -0.8035155927771768
0.5030931307845772, 0.7947260815100227, -0.7567787452814875
0.4754741127655443, 0.7969614255643462, -0.7484580161498606
0.19436558057698694, 0.7807882485067584, -0.8573420400995593
0.2633676617322078, 0.775825317471267, -0.8844954151653686
0.21062385027049577, 0.784748185006927, -0.8474177476448953
0.3410742264184219, 0.7669853463053345, -0.8980024709016069
0.34975141571239143, 0.7857345994133671, -0.855947435403117
0.3913879324238873, 0.78603015913898, -0.8518547063106615
0.30855691949589126, 0.793525034898173, -0.8219329700096333
0.36256161475562465, 0.7895256106469164, -0.8401908065287182
0.38909757579111937, 0.7884458075637812, -0.8425120654164646
0.42360146776944874, 0.7945780474479518, -0.8033133567503798
0.39821932524693804, 0.8003631679721639, -0.7126325573822843
0.39022151695987717, 0.800125173096248, -0.7477795800019919
0.3662508305307981, 0.80046567519508, -0.7168138961959005
0.40341097184924557, 0.793581551040264, -0.81655901180433
0.19171524108922586, 0.7886230969031148, -0.78936417207431
0.26576527626472257, 0.7915356790164559, -0.8254190484403334
0.3237541095385025, 0.7885684805234716, -0.8491648277656614
0.3065549793801743, 0.7980542037838629, -0.7730626782954255
0.2584617423393694, 0.7951602042512119, -0.7305861817463478
0.21642884606095647, 0.7923377114255378, -0.7519435483452549
0.24510905279655343, 0.7947174245100163, -0.7630143236614435
0.49629692563610384, 0.6154292807445886, -0.6072915524514289
0.5055900506203924, 0.60891696279868, -0.6229538018146903
0.5408665373606519, 0.60913901277818, -0.6242634587610972
0.5298853745218268, 0.6007263381534176, -0.6667428373848446
0.5673495042318855, 0.6016378738221613, -0.6735745653645855
0.589465264810994, 0.6009615195253315, -0.7154407851560418
0.5223383847060582, 0.6023435256370159, -0.6529231111912114
0.5507158093709206, 0.6001663317027591, -0.678533779426604
0.46685248319862116, 0.5970678334352757, -0.7363644852830327
0.24587652562517087, 0.6227939888524217, -0.5961766580161434
0.2899194957492841, 0.610137723158084, -0.6236123176204786
0.24967730653343098, 0.6060610222647989, -0.6491050537800005
0.35960076602053637, 0.6095306877931411, -0.6210175084185681
0.3945835287678816, 0.6099335730980425, -0.6183696465094944
0.32497664189505004, 0.6045036646977441, -0.6427091209515676
0.35240398842648496, 0.602715036090723, -0.6520084846630864
0.46628705008265775, 0.6017504781610247, -0.6532904953178243
0.39279959536860604, 0.5989507682472605, -0.6871995937879196
0.4075230191151388, 0.5982280922940996, -0.7010928395999053
0.41341556623171727, 0.59774694880254, -0.7156841145626336
0.3724480196921309, 0.5991182352106783, -0.69138772613094
0.24044129127093009, 0.6045866169884047, -0.6708577056303122
0.33489974277658074, 0.5992922780003059, -0.7142177744765323
0.27037659687415855, 0.6015106464872987, -0.7126360346743834
0.5405648626901709, 0.5977239004650658, -0.7589758299300979
0.5403050077374706, 0.5983322004455669, -0.7909744425882114
0.5535760901663339, 0.598659484874027, -0.7219877673136743
0.5661074828785555, 0.5992989118943335, -0.7609569106817249
0.5694298163470269, 0.599618623061531, -0.7724724621149095
0.5775605721743149, 0.601198028279043, -0.8045460808664398
0.5980034461193956, 0.6091329436147339, -0.8565090103991906
0.5413606405216448, 0.5986864866568194, -0.7975495665209846
0.4674055672169064, 0.6006451650826758, -0.8333774327242792
0.509512320248323, 0.6010886701484053, -0.8339742724132652
0.5787283172061947, 0.6072217905838818, -0.8551528098163408
0.5359878207312399, 0.6065730038176045, -0.8616546297521571
0.2556440191999259, 0.6021459757229429, -0.757077266747553
