0.36563435274543565, 0.532212647272257, -0.0037247079109748622
0.36527203434283034, 0.5238969823470306, 0.05847247062940553
0.36528794185614766, 0.5266299830968542, 0.019407851654995947
0.36319679340651434, 0.5032701137515101, -0.04871959494339425
0.3618969857888048, 0.48461656399874387, -0.10706946466803743
0.3628993971087386, 0.4974806470262062, -0.04957293043518068
0.36379018010588626, 0.4893992853170397, 0.18255681380442304
0.36494943416616477, 0.5104693742511429, 0.18800812018118251
0.36490583667168486, 0.5004191538327109, 0.23053036125060067
0.3626250622301077, 0.4559788568448485, 0.09667188443809513
0.36267145309084015, 0.46579296363073064, 0.08074884834665687
0.36264179437672095, 0.460008368240711, 0.08964574305026851
0.36234536219451596, 0.45809986799141034, 0.032110872703105885
0.3635304028590882, 0.500579707061646, 0.03465255846633568
0.3635120493001033, 0.5033902593967202, 0.0032044028356720024
0.36410753111205635, 0.5053084161787549, 0.10110373771314372
0.3617380597255235, 0.46617972850150763, -0.10185990477955241
0.36232811132642223, 0.4740674510416808, -0.010639548956099674
0.3620814296008883, 0.45696211350165983, -0.01847401260882391
0.36155073733972715, 0.4615504330271321, -0.12615556420601406
0.36400893583703453, 0.5025315026039214, 0.10930249396956872
0.3634959248979586, 0.4940199247888786, 0.09488241317681205
0.36382590253341407, 0.4947540980876302, 0.15534982026469285
0.36271706609061605, 0.48391485180484184, 0.04256678137733056
0.36729635936166893, 0.5301792360596767, 0.2451883822572323
0.3676273713173879, 0.5344725734974498, 0.2412138917534693
-0.37295910813005784, 0.3125598259364225, 0.40548855980160237
-0.3744440104183172, 0.19846492952788916, 0.36681980848442775
-0.3731309192227774, 0.18427778486115243, 0.28700354193251654
-0.37354363433760734, 0.16495026495066129, 0.348052075879807
-0.37443368338218197, 0.21581450267604663, 0.3397935948682364
-0.3739820117778461, 0.18305058207485306, 0.35449473461459313
-0.3735274452945643, 0.17654608982503162, 0.3292725400707677
-0.3734030887155194, 0.15233775391488746, 0.3562813760225818
-0.37193815034203814, 0.1630197048355379, 0.22715660621030082
-0.37223111093676453, 0.1664333642738577, 0.24458867874816476
-0.37400337148383817, 0.20278421996304755, 0.326307860613198
-0.3741432806851013, 0.18017366988682276, 0.3712811508425158
-0.37413608180478386, 0.17697239311140725, 0.3755657983282385
-0.3738623707851942, 0.18771497806410317, 0.33821625211424533
-0.37425072992984926, 0.17184942898724692, 0.3921525153768594
-0.37202276352612923, 0.17982587996644603, 0.20827366912018336
-0.3735000445132116, 0.16515776370176719, 0.34437674401102314
-0.3734307899641041, 0.2018476104112648, 0.2835666482215468
-0.3739506344252419, 0.16906226467347463, 0.37322304088120606
-0.37324471861771125, 0.15806520760155401, 0.3354089488687573
-0.37325227447871767, 0.24910778463366368, 0.27185523898599767
-0.3736612480938117, 0.2552401185847251, 0.2935376623979512
-0.371714314243182, 0.2873785445276525, 0.1899846366498748
-0.37205928226155016, 0.29685236454824676, 0.20825033842058746
-0.3718184168604559, 0.2896983889421468, 0.19549969078082344
-0.37184851107918426, 0.25025076608989216, 0.1973118537703222
-0.3735198560185146, 0.26344100821065924, 0.2859854767056538
-0.37300175051370693, 0.268843201673407, 0.25844571933155025
-0.3717980531552487, 0.2639050251452173, 0.19455848526367875
-0.37116681908989774, 0.24798049990912707, 0.1611276284770286
-0.3705707893559307, 0.2746573573440926, 0.12933471183815215
-0.37301227006960114, 0.2677284265975027, 0.2590103415209819
-0.37220259755232277, 0.2668522399458406, 0.21602302210461996
-0.37065547821684064, 0.277759244814923, 0.13381468544970304
-0.3707035659871282, 0.2605381083231296, 0.13646157291035782
-0.3706650215940095, 0.2767309415881337, 0.13432700481928278
-0.37259063524884173, 0.13922835630736946, 0.3463338875270856
-0.37232696775166435, 0.14059817201250746, 0.32231847934696456
-0.3710532380003649, 0.14126840125228282, 0.23361225112546113
-0.247090696189469, 0.13522189729986572, 0.405888484885278
0.030875164151574114, 0.13894664219715225, 0.40656617739524914
0.2734963133177536, 0.13544069958618674, 0.2131304793727012
0.2737607142572257, 0.1370126606133242, 0.14287915198429374
0.3061319579496084, 0.13310882002532193, 0.31734275412544355
0.23832071172857008, 0.13581024535395875, 0.1966153875424497
0.24974575737735866, 0.1346294771868441, 0.2493842091899145
0.3018656625155617, 0.13669317374624712, 0.15715709915210527
0.22148393674529138, 0.13729395023503158, 0.13030824916648523
0.17492636547528326, 0.13730603433668817, 0.12976820767244332
0.27696489076530684, 0.13381470556486735, 0.28579655464513454
0.2844952542642327, 0.13592601635102966, 0.19144155302816782
0.32648575170220495, 0.13615526338015277, 0.18119644655432904
0.2936724964452909, 0.13711818451675864, 0.1381632626209452
0.30614021518208984, 0.13673306474058122, 0.1553743607416525
0.34218099779429534, 0.13546591253635193, 0.21200370638920807
0.2896123207595435, 0.1363373972946886, 0.17305683683264925
0.3006409845805391, 0.13269313782763975, 0.3359196944278893
0.25733313545094033, 0.13539611197087403, 0.21512311093717826
0.2818855620399804, 0.13420151639223532, 0.2685098830281598
0.33224107488253035, 0.13703334700319342, 0.1419546721008244
0.33748009040586746, 0.13733630998221946, 0.12841518157994192
0.20522180142764035, 0.13612583562971742, 0.18251158000512674
0.3187730540391166, 0.13601322582721295, 0.18754413995178837
0.31564160110091954, 0.1369052244376852, 0.14768050126578022
0.26657225492816494, 0.1342670718968255, 0.2655801913019832
0.2643648121903933, 0.13676528417141054, 0.15393446640306335
0.3003417914427232, 0.13408323559806518, 0.27379588099602153
0.25230206016916756, 0.1359816184253974, 0.18895668256226505
0.2790405463137574, 0.13442377760550184, 0.2585769743940538
0.27375382106405455, 0.13609261334314307, 0.1839962922151844
0.23994959582437256, 0.13508927697640077, 0.22883564278678487
0.2927232907159844, 0.13655001228186947, 0.16355502042990805
0.3041170600530151, 0.1334740516364005, 0.3010204630256438
0.27999914708859996, 0.13387739194025264, 0.282995085013281
0.27061445946016355, 0.1367916545236712, 0.15275596883344647
0.20794716562083124, 0.1368148128483463, 0.15172101757165934
0.29077032572061107, 0.13537132868467094, 0.21623068213185487
0.3522268747339401, 0.1365176674774467, 0.16120124496081548
0.3466890261073764, 0.1371017127366405, 0.13750429647525308
0.36829985477171256, 0.1320012273418079, 0.3444504838641373
0.362938207512222, 0.13555745811789194, 0.20016060876103392
0.3624831321354166, 0.1363272890646549, 0.16892562482637213
0.31285174767701435, 0.13250270192353236, 0.4054239952125022
0.3726184630338251, 0.32346262961663685, 0.3653067379142777
0.37392749276894427, 0.27768348912370644, 0.3567278926848015
0.3709920203374373, 0.31679085892891723, 0.1698993637939268
0.37118896840146925, 0.3131927906661533, 0.17732516552419889
0.371737702293062, 0.302982159078466, 0.19704078710658182
0.3709207176213455, 0.31995797761540357, 0.1769882217812711
0.37269476882434255, 0.2976796298849919, 0.2970096616047735
0.3715491806748704, 0.3178184707045458, 0.249672993144434
0.37304482726744803, 0.28562543427558934, 0.28053310384289337
0.3738321073080605, 0.2734543581203377, 0.3218158174907522
0.37416649229962085, 0.27183558745191294, 0.35796980380137955
0.3724800147691887, 0.29423866793480075, 0.25029416632345913
0.37339030317839733, 0.2936436993185927, 0.36870413827795967
0.37174970119517264, 0.3026805703819577, 0.19706120353899184
0.3739119316150821, 0.2838717740874767, 0.3871015522765726
0.37237651870110056, 0.29750867160511485, 0.2536245089249909
0.37365524345145007, 0.2782592249584941, 0.32339981634685877
0.37264878185271183, 0.28932456081895697, 0.24705633793532414
0.3708725853070839, 0.23366169563314837, 0.1454780376901133
0.37203703817314654, 0.21496786348129537, 0.2071093430653922
0.3709825817622027, 0.20658761407056403, 0.15103116793305557
0.3732235452291569, 0.22474116094018393, 0.27021389248580807
0.3729400230787324, 0.199013427133798, 0.25488638422573284
0.37227407961993253, 0.2086612238000457, 0.21962874449817005
0.3741424095568666, 0.2400021090932186, 0.31916548820590235
0.3711423848607772, 0.21868589911817762, 0.1596447842652896
0.37343477380123624, 0.2170640654192311, 0.28134814045497947
0.37152370040260685, 0.20598580869094588, 0.17975693274666882
0.3724288418789107, 0.22021532806037972, 0.22796892663512003
0.37285136961593257, 0.2294511680675157, 0.25050222755365736
0.3753715750728349, 0.23949789427260842, 0.38442599383561743
0.37236928216338916, 0.20169794841442662, 0.22460985568781225
0.3726009922699147, 0.2394584976450758, 0.23731400844177108
0.3713611074174705, 0.21045523051253368, 0.17117106862937267
0.3708331161903463, 0.18855643887795898, 0.1429034647586229
0.11303663885448828, 0.33125703699447206, 0.4072140530552836
-0.2477468805788955, 0.3302221038324516, 0.40845282778946146
-0.3695487201557451, 0.3306454041880303, 0.33238328696799774
-0.37033248049414647, 0.3296557862710805, 0.2836486482760034
-0.30527730745834697, 0.3330034613609314, 0.24548243749467102
-0.32197005644784193, 0.3330034613609314, 0.36957418851939977
-0.21760484714663272, 0.3330034613609314, 0.17893348588331942
-0.3143024416689891, 0.3330034613609314, 0.308938310206732
-0.31527998458643447, 0.3330034613609314, 0.24986959439133571
-0.28116055967927783, 0.3330034613609314, 0.21488524595127495
-0.25401165281087085, 0.3330034613609314, 0.23386171535598146
-0.2836852423392303, 0.3330034613609314, 0.14970993245597075
-0.34188175834577544, 0.3330034613609314, 0.21123628482399814
-0.3162984980400319, 0.3330034613609314, 0.15547469231210911
-0.28000631801282755, 0.3330034613609314, 0.18257461908991696
-0.32089142039642515, 0.3330034613609314, 0.1727271148783757
-0.2848974260556448, 0.3330034613609314, 0.25256658157101514
-0.2835029946054217, 0.3330034613609314, 0.14531858617426954
-0.21899751431855582, 0.3330034613609314, 0.1974982361361278
-0.33852371377929397, 0.3330034613609314, 0.3222833280829326
-0.3240366732376845, 0.3330034613609314, 0.13769595366596912
-0.22753308623893334, 0.3330034613609314, 0.20557257321122127
-0.1890669834272433, 0.33300346136093134, 0.15660695877213054
-0.2801584318756498, 0.3330034613609314, 0.21701879204125296
-0.32660800765866016, 0.33300346136093134, 0.3498959899827179
-0.2992375506940719, 0.3330034613609314, 0.13876488506378687
-0.2971147204475904, 0.3330034613609314, 0.31797506409074927
-0.3290004963751789, 0.3330034613609314, 0.3555715572555701
-0.33089446071700246, 0.3330034613609314, 0.13235001764939755
-0.2823924520112645, 0.3330034613609314, 0.12764799457838022
-0.21463387820781457, 0.3330034613609314, 0.19108407798045515
-0.3230442357482781, 0.3330034613609314, 0.1280697060669536
-0.2945541441687314, 0.3330034613609314, 0.13456749721129987
-0.2696634211149553, 0.33300346136093134, 0.2743407358379901
-0.3021663239684797, 0.33300346136093134, 0.2646316100048161
-0.29324958487808284, 0.3330034613609314, 0.16358525887957498
-0.1948965856093613, 0.33300346136093145, 0.13183961494268046
-0.2850281383284944, 0.33300346136093145, 0.24176760683036944
-0.31895222608547585, 0.3330034613609314, 0.34351348231409373
-0.1712126708365035, 0.3330034613609314, 0.1276867222562861
-0.35239497204978515, 0.3330034613609314, 0.139078608962147
-0.36009537260736374, 0.3330034613609314, 0.18872449027646926
-0.35992682053946223, 0.3330034613609314, 0.21982147331091992
-0.354936511661756, 0.3330034613609314, 0.17843098077505037
-0.3587721869144695, 0.3330034613609314, 0.16751301374809205
0.29270954143204264, 0.33280576504039344, 0.40536028583262107
0.10768379395230182, 0.32406559769906196, 0.41836577413868326
0.06819644998861893, 0.32404313595865053, 0.41840194387724433
-0.36698451887074846, 0.3272139868556582, -0.09878754784318713
-0.3667237104301737, 0.3283669954382129, -0.2062012419935732
-0.3666240345322078, 0.3330034613609314, -0.2498465319404824
-0.35887112192589576, 0.3330034613609314, -0.2629647064244609
-0.3598088666794821, 0.3330034613609314, -0.2717730440833851
-0.34847950387706605, 0.3330034613609314, -0.3444632551829567
-0.3636011960355169, 0.3330034613609314, -0.11353151139362679
-0.35763225389085773, 0.3330034613609314, -0.34331079337002535
-0.36236240085957094, 0.3330034613609314, -0.05037820880189046
-0.3616615991489577, 0.3330034613609314, -0.054017096048462186
-0.3659881437305573, 0.3330034613609314, 0.011230144298323898
-0.3665986900836047, 0.32114303296480384, -0.24722003887663385
-0.36659876890694026, 0.32866253524127664, -0.3155712048713625
-0.36659874998162306, 0.3277463227684871, -0.34962178557169327
-0.021330362563289983, 0.32459543563506515, 0.4175125855934487
-0.08263660189345015, 0.32199819168489174, 0.42169488104058744
0.1413650506680282, 0.2701619440016474, 0.4231973665232347
0.15787789653598427, 0.2952234411729111, 0.4231973480710174
0.0880872133814046, 0.3113479658028323, 0.4231973361988921
0.16096591824491807, 0.2641230307798739, 0.4231973709695509
0.13435127466108543, 0.30594642720942633, 0.42319734017592364
0.15428897902718558, 0.31664044346020875, 0.42319733230215967
0.1535994677268476, 0.25203687058897845, 0.42319737986831907
0.1227278581017043, 0.31522214929793124, 0.42319733334641785
0.1112286853608234, 0.3058557420055793, 0.42319734024269307
0.11373529836820084, 0.2708178100930615, 0.42319736604033525
0.008762804166391155, 0.32847555314475857, 0.4112645018144605
0.01021861286818997, 0.32509745474236185, 0.41670419321017516
-0.2100587803062588, 0.2026006060008011, 0.42319736174865163
-0.27469302296860276, 0.2125471701915315, 0.4231973688817441
-0.22095408372689063, 0.20101764851072754, 0.42319736061344737
-0.18166340931325167, 0.23834777102270951, 0.4231973873844217
-0.20911140092229974, 0.22517007271733158, 0.42319737793414935
-0.24599824022926947, 0.22700792589187108, 0.42319737925214984
-0.18303808436177393, 0.19875574864940368, 0.4231973589913455
-0.25593346177493315, 0.23490178985536664, 0.4231973849131661
-0.21179841017488724, 0.19656878899448268, 0.42319735742298625
-0.3207228749259443, 0.23197417894752959, 0.42319738281365527
-0.30784637143193877, 0.23140593907251222, 0.42319738240614696
-0.3575902975722126, 0.2526670138760672, 0.42319737940435875
-0.3458952901538054, 0.19035045495020417, 0.42319735601985775
-0.35420692039302976, 0.15139405836219524, 0.42319733110183866
0.2224883382694409, 0.3213182246670318, 0.4227898197593052
0.31772628421602, 0.32701956890266576, 0.4136090471800985
0.26079654508467176, 0.3235100617316291, 0.4192603437639821
0.3665987051699605, 0.3220556300990788, -0.2304183060161984
0.36659873548042554, 0.3252436765149177, -0.2735291901226051
0.3665986657142639, 0.2732579218532516, -0.33537312229258487
0.36659866571426386, 0.29499862332257404, -0.2859650548242601
0.3665986657142639, 0.24898827300228693, -0.34049542885234374
0.3665986657142639, 0.26897740910906864, -0.33730412042356567
0.3665986657142639, 0.27931875383496696, -0.26145313091064554
0.3665986657142639, 0.2631134302455704, -0.3003459491775968
0.3665986657142639, 0.25688965510893275, -0.23874183384832032
0.3665986657142639, 0.305686027888197, -0.29996790698425035
0.3665986657142639, 0.24388976797209438, -0.14337335911169485
0.3665986657142639, 0.279446495900874, -0.25299768880510226
0.36659866571426397, 0.25889258549844524, -0.16704219079646732
0.36659866571426386, 0.255258641780967, -0.178026298844621
0.3665986657142639, 0.25385760714869543, -0.3281945212342291
0.36659866571426397, 0.2764695731954109, -0.28808362507370683
0.3665986657142639, 0.2928037535067153, -0.306354526239753
0.3665986657142639, 0.2575549786601006, -0.20994285586370046
0.3665986657142639, 0.2732230093834685, -0.31131926739369953
0.3665986657142639, 0.2857379546308962, -0.2488737048766246
0.36757640254155316, 0.31042306575317674, -0.018357486680910213
0.3695341399289786, 0.31410071336852224, 0.07782742772229204
0.3695050162054476, 0.30180553429706214, 0.076463031024072
0.36994260777695787, 0.31062912972501455, 0.09791873841573392
0.3691622040936626, 0.3062644919259577, 0.0595927373740992
0.36865361231162885, 0.3136585632756068, 0.034559950399742634
0.3694284952497606, 0.26299776053849, 0.07291346828935275
0.37017503035445454, 0.27123284282944327, 0.10955412036223103
0.36832932480113467, 0.298569326487088, 0.01870612626980871
0.37031928321692303, 0.2814805315268912, 0.11658717989816297
0.3686506907387929, 0.2885354106546749, 0.03455281096180073
-0.13228207843610812, 0.2747502061268497, 0.42319736314500045
-0.14327618729087205, 0.2750992761189751, 0.423197362887988
-0.13442984946689762, 0.2632268441630288, 0.42319737162939297
-0.028437172571466454, 0.24387615788608144, 0.4231973858768685
-0.1081707901304396, 0.2783273305616565, 0.423197360511244
-0.10586581779754217, 0.2531410608684602, 0.4231973790553286
-0.1383693147997781, 0.26015553276518977, 0.4231973738907306
-0.03237969374541995, 0.24412399726944928, 0.42319738569438997
-0.053950325275659225, 0.26317697610150137, 0.4231973716661097
-0.054622326599883336, 0.2573421655333379, 0.4231973759621496
0.16409028374112394, 0.21447572462417813, 0.4231973702647902
0.1216942389760139, 0.18617511899024736, 0.42319734996925573
0.09584757195820072, 0.2382704539779839, 0.4231973873289744
0.10430292251891482, 0.1875978494163725, 0.4231973509895546
0.13212932613211742, 0.21021080165586092, 0.4231973672062376
0.160340175734599, 0.23515816530580272, 0.4231973850970235
0.09467382241576314, 0.2191267450942414, 0.42319737360022924
0.16338286546024594, 0.20293328415311637, 0.4231973619872289
0.16145369510164048, 0.22804102921107972, 0.423197379993031
0.13186834767541133, 0.1869753889064384, 0.4231973505431624
-0.2814249941127801, 0.2625825622914255, 0.4231973721037632
-0.2536402214567329, 0.2519385842974088, 0.4231973799406851
-0.3146366902376085, 0.2508957369301943, 0.4231973807085102
-0.20399820266517085, 0.24056886128101457, 0.4231973883119567
-0.22110790316856155, 0.24449053245319768, 0.42319738542451835
-0.3111503779925411, 0.24346887224627506, 0.42319738617674385
-0.30344213463512887, 0.24174569727221823, 0.42319738744547886
-0.26156243382120176, 0.24618601354950792, 0.4231973841761737
-0.26666575447563684, 0.2482877200691126, 0.4231973826287344
-0.3398104638713566, 0.2993528467425209, 0.4231973450306288
-0.06313804666493499, 0.21818676944214177, 0.4231973729261339
-0.036593118581129354, 0.19498516192376397, 0.4231973562873019
-0.06881558288186246, 0.23297900282038553, 0.423197383534256
-0.08765814049406466, 0.21875639024980603, 0.4231973733346325
-0.07759977799209913, 0.2391161874326369, 0.4231973879354849
-0.005623091578261407, 0.1741237955205929, 0.42319734132675346
-0.027980762708898665, 0.19808769511995322, 0.4231973585122566
-0.02490387334332545, 0.2287179534876743, 0.4231973804784814
-0.09534169609176407, 0.23331171215202695, 0.42319738377285565
-0.02713964370665946, 0.22718415756221394, 0.42319737937853286
-0.22499166984855812, 0.3330034613609314, -0.03679663786493058
-0.29747420662696733, 0.3330034613609314, -0.003181823265691504
-0.23268000318567936, 0.3330034613609314, -0.02116968012796972
-0.22134099583042932, 0.3330034613609314, -0.040709552301249646
-0.29030304288399444, 0.3330034613609314, -0.03319631416994818
-0.2977036217904152, 0.3330034613609314, 0.030808562245629532
-0.33735834070224313, 0.3330034613609314, -0.04632746601428921
-0.31386694441575713, 0.3330034613609314, -0.042917899081840155
-0.22588582058700155, 0.3330034613609314, -0.019655364553635153
-0.33414019387257043, 0.3330034613609314, 0.01902116431662841
-0.2964684415646177, 0.3330034613609314, -0.05690438152632789
-0.3118493267777456, 0.3330034613609314, 0.04398298929127729
-0.28620175732192227, 0.3330034613609314, 0.03978932386100677
-0.29650597991660027, 0.3330034613609314, 0.01992032233177183
-0.3233064579919671, 0.3330034613609314, 0.07563673718622112
-0.3241809275012472, 0.3330034613609314, -0.05664337216541514
-0.22034485371492868, 0.3330034613609314, -0.05630276587749793
-0.2850965351296299, 0.3330034613609314, -0.05236836205006527
-0.34094469085920265, 0.3330034613609314, -0.0010090438323870493
-0.3267051757023578, 0.3330034613609314, 0.0005727550616693167
-0.291022755902507, 0.3330034613609314, 0.05105898860839078
-0.29225751861931465, 0.3330034613609314, -0.037636832091388656
-0.2609998127227644, 0.3330034613609314, 0.02392548304846256
-0.23499552133054097, 0.3330034613609314, -0.044186645797459914
-0.2772706395127579, 0.3330034613609314, -0.0012220367343085126
-0.3503248193967267, 0.3330034613609314, 0.28447399247208816
-0.3489176918843862, 0.3330034613609314, 0.29921532136084833
-0.3443024231997177, 0.3330034613609314, 0.2498900964038675
-0.3478793116483883, 0.3330034613609314, 0.25744516711874704
-0.35192266973486813, 0.3330034613609314, 0.2641481097875204
0.3476765957323503, 0.13574346075287574, 0.19411964480769725
0.3514392357662427, 0.13419843596361486, 0.25927238651664647
0.3647466807885205, 0.13063636581700225, 0.40468732894704845
0.35185931543595195, 0.13358934248147716, 0.2860580904972364
0.3529023534025985, 0.13284684885921383, 0.3181606407508595
0.347693944983736, 0.13560355533673155, 0.20035409385965505
0.24616863285527985, 0.13744062185287476, -0.04285338145110005
0.29829448749818216, 0.13744062185287476, -0.03684327026108947
0.33764738206692063, 0.13744062185287476, -0.06121789873119838
0.2758494173069382, 0.13744062185287476, -0.02415315230784671
0.2629208664608407, 0.13744062185287476, 0.009008890334857415
0.24589589316390115, 0.13744062185287476, -0.008611072523014162
0.28330765065633423, 0.13744062185287476, -0.02859329854862994
0.29699001096200234, 0.13744062185287476, -0.06364810528697977
0.3076437008394197, 0.13744062185287476, 0.03692009712094641
0.32293302543923913, 0.13744062185287476, 0.02397927016639713
0.28402105839294045, 0.13744062185287476, -0.035826725339160176
0.2317810227166912, 0.13744062185287476, -0.0392461409941354
0.24804684565625873, 0.13744062185287476, -0.011124671365422202
0.24571863043564107, 0.13744062185287476, -0.0016045952260220625
0.3406941261031366, 0.13744062185287476, 0.10376634599171736
0.22395952476714875, 0.13744062185287476, -0.03881213528061121
0.20601800220750952, 0.13744062185287476, -0.0524607521890359
0.20374248299003406, 0.13744062185287476, -0.04921896051610287
0.2902679672109963, 0.13744062185287473, 0.05260354174495488
0.2178251409821951, 0.13744062185287476, -0.022704071579307823
0.2754920459696146, 0.13744062185287476, 0.027816905641863517
0.213341718105589, 0.13744062185287476, -0.0662235451297163
0.29929268673962883, 0.13744062185287476, 0.055144268390484974
0.2305302337848287, 0.13744062185287476, -0.04770400432049228
-0.3665987444851038, 0.15385267659096635, -0.23503417270567264
-0.3665987655352872, 0.1503993940119138, -0.17588684665133472
-0.36659872943369365, 0.15632186043495097, -0.31773620970005884
-0.36659867449349515, 0.22489668207808766, -0.28332575270404897
-0.366598701810219, 0.18963550862028303, -0.24871659550182695
-0.3665986880547246, 0.20789298400098924, -0.23669082365866367
-0.3665986823616256, 0.21582837161756974, -0.20945403712981653
-0.36659868880296925, 0.20768424785036355, -0.1912774289219589
-0.3665986855801914, 0.21042581642162722, -0.27866763300397496
-0.3665986681220992, 0.23333728496723521, -0.2786988590682244
-0.3665986814512401, 0.2178191144535776, -0.16270790034971638
-0.36659869801240585, 0.19392072656247777, -0.28977059274806805
-0.36659867746013775, 0.22338164374431246, -0.1436438291819628
-0.36659871218730344, 0.17441727594445566, -0.342645891602582
-0.3665986707176205, 0.23311308643351333, -0.09181110312757934
-0.3665986976527411, 0.19432905885749258, -0.2935111924236152
-0.3665986671815416, 0.23702917843382912, -0.13437009841454417
-0.36659868153047753, 0.21528412622609883, -0.30547981150867876
-0.3665986809489461, 0.2169310514269805, -0.25357893677086746
-0.3665987165899474, 0.1687720965836609, -0.33484360286884995
-0.36813970579487937, 0.26764141477422554, 0.009440318546827822
-0.36767569308565917, 0.2626191930051651, -0.01341417245668423
-0.3680938757415663, 0.2679309315812265, 0.007183004209696354
-0.36813188023235954, 0.25500629181620926, 0.009054878138294326
-0.36694917656174475, 0.3102497031518207, -0.049198031454006634
-0.3670033034704842, 0.2515775441813674, -0.04653206363835658
-0.3685579830998256, 0.2558327756615315, 0.030042157058818183
-0.3670352814569485, 0.27029736298829654, -0.044957019271172356
-0.3669221716178683, 0.29117815715028483, -0.050528133484859246
-0.36684808248699835, 0.2774110223438085, -0.05417732097752647
-0.3682525559516213, 0.2640298311963527, 0.014998642361573597
0.36767706859165333, 0.3302564651237258, -0.05415019480286173
0.3671289000718203, 0.33296051458981557, -0.18933045612861724
0.36660396058020706, 0.32663963283911573, -0.20249926125972587
0.3666292751081065, 0.327491071526779, -0.2147066548799816
0.36616097355104343, 0.3330034613609314, 0.16731112275210774
0.36600105895039736, 0.3330034613609314, 0.34689267748976105
0.35578018618044505, 0.3330034613609314, 0.3557022463072729
0.3547238149757205, 0.3330034613609314, 0.40353623028081764
0.3631555669249332, 0.3330034613609314, 0.34945186055165156
-0.3678944002951747, 0.3212016653513575, -0.008665868800509645
-0.37308492545264876, 0.2937223820471746, 0.3283466522165759
-0.3714027093203844, 0.3091609829289811, 0.18471841565188915
-0.372783810401473, 0.2985057847293583, 0.31322967644113797
-0.37189586911079137, 0.3128467326746719, 0.26988671454466695
-0.3746044222455891, 0.26420809506784126, 0.376438217370216
-0.37399125638227115, 0.2830553653327528, 0.3934107487895182
-0.37224299237959113, 0.30202712525283737, 0.25949243427331353
-0.3726438196775252, 0.305471850372955, 0.33106976339399546
-0.373435551601317, 0.2775768873014949, 0.2904912349438265
-0.37309782243774514, 0.2941097296246379, 0.332099730648898
-0.37387020993951237, 0.27770661217598425, 0.34920148458954847
-0.3738135708881936, 0.2715940692655577, 0.3095857737507268
-0.37147423462304974, 0.31542777449438075, 0.2271304222124716
-0.3731203194570816, 0.2886113584560568, 0.30626994600777324
-0.37381926963569173, 0.28263092023239134, 0.36822351861209357
-0.37269874399408665, 0.2920449056573318, 0.26799204702469404
-0.3715662861836573, 0.3238965379434364, 0.22452248099489075
-0.3725071816063527, 0.32653364659882733, 0.16874943656217295
-0.37183728102241836, 0.32386824169075384, 0.2966340464295181
-0.37424568435519984, 0.20165287172851332, 0.4130760579648667
-0.37084708943915196, 0.13852665260881755, 0.24255603988087443
-0.3621822635303818, 0.13198511587057, 0.351973084267204
-0.3693153243733618, 0.13145433761390213, 0.36692133192600873
-0.357745620706939, 0.13247885172135043, 0.3359837001944498
-0.36687494542475757, 0.13498075257073835, 0.2249925443779494
-0.3491521191344272, 0.1312016949111322, 0.3963706858617893
-0.36660970751105193, 0.1348712541143987, 0.22972285781757074
-0.37085311994800707, 0.13235189257460944, 0.38873643458633056
-0.35076765913024277, 0.13497092670471597, 0.23412474572197334
-0.3497292007637647, 0.1357656278374595, 0.19860935539835417
-0.35356011308346236, 0.1348632771822254, 0.23893562952706401
-0.35509316422142384, 0.13512647729267516, 0.22717315144480524
-0.3490079829127957, 0.13316110628915773, 0.3150060680529287
-0.30153946220333183, 0.13744062185287476, -0.05769550463264836
-0.1658622708371074, 0.13744062185287476, -0.008250717786304283
-0.2573537806866216, 0.13744062185287473, 0.009373237134145614
-0.2649971419136035, 0.13744062185287476, -0.0029853008854667006
-0.1806077819552383, 0.13744062185287476, -0.02051104368495606
-0.16822556043212522, 0.13744062185287476, 0.010590311490084117
-0.26221030065336126, 0.13744062185287476, -0.031401813807413886
-0.2075884967014893, 0.13744062185287476, -0.0544022547685796
-0.26813905612389294, 0.13744062185287476, -0.0007180027813488985
-0.2612080979539287, 0.13744062185287476, -0.061962555705745104
-0.23900314542529788, 0.13744062185287476, 0.03016446446258709
-0.17303466433631715, 0.13744062185287476, 0.10466004981438017
-0.18869304453050117, 0.13744062185287476, -0.044522964487081956
-0.190320708153707, 0.13744062185287476, -0.02130203590141981
-0.2685093120098879, 0.13744062185287476, -0.04887935082631102
-0.21109627950970788, 0.13744062185287476, 0.03998454730746087
-0.19874600447467167, 0.13744062185287476, 0.06732145623266426
-0.16614370557246042, 0.13744062185287476, 0.0878233964306926
-0.20282983632438073, 0.13744062185287476, -0.00570672711842489
-0.19462879268295108, 0.13744062185287476, 0.059680842345838966
-0.3055436626388092, 0.13744062185287476, -0.06317708634534196
-0.26454768497667813, 0.13744062185287476, -0.029476632047970908
-0.2839673774300355, 0.13744062185287476, -0.034737499585220766
-0.18810333669654217, 0.13744062185287476, -0.0053852158378341584
-0.15741940698177811, 0.13744062185287476, 0.2799733601597697
-0.1530407595592515, 0.13744062185287473, 0.22204014645974587
-0.14409488118783917, 0.13744062185287476, 0.3655413851291136
-0.13385503144435956, 0.13744062185287476, 0.28682033844135435
-0.11186777885224924, 0.13744062185287476, 0.2985569186020043
-0.14657804271567806, 0.13744062185287476, 0.18448034085827097
-0.12490576029086897, 0.13744062185287476, 0.27679229578220393
-0.14371638562018113, 0.13744062185287476, 0.3919988676332886
-0.1641051302884915, 0.13744062185287476, 0.3706488411865752
-0.1374235065859511, 0.13744062185287476, 0.309861754317519
-0.12837336021657791, 0.13744062185287476, 0.2400651197263982
-0.14782716085303205, 0.13744062185287476, 0.28942486001855516
-0.16302581460973511, 0.13744062185287476, 0.33143991679931295
-0.11138999731328988, 0.13744062185287476, 0.32344929111982623
-0.06697174216012744, 0.13744062185287476, 0.3161143692190568
-0.1562165284199868, 0.13744062185287476, 0.1806706375380075
-0.05227177255683986, 0.13744062185287476, 0.3455929973547637
-0.038842702936752696, 0.13744062185287476, 0.39262863592524205
-0.045285584288294274, 0.13744062185287476, 0.3888272498446104
-0.09277094175238346, 0.13744062185287476, 0.28490144803994316
-0.15969680353543053, 0.13744062185287476, 0.3207174588352467
-0.0932867406585912, 0.13744062185287476, 0.258218317957554
-0.060009484999528705, 0.13744062185287476, 0.32498014893514726
-0.09941581271591779, 0.13744062185287476, 0.2850693835409475
-0.0770038960380897, 0.13744062185287476, 0.34264101778176026
-0.15254538234467283, 0.13744062185287476, 0.30677343997053497
-0.09380375777827309, 0.13744062185287476, 0.3805811051182363
-0.1312727081641141, 0.13744062185287476, 0.3170307679582135
-0.0828323695062333, 0.13744062185287476, 0.3112420233214734
-0.11542988354134362, 0.13744062185287476, 0.35412565932835216
-0.12297397106047155, 0.13744062185287476, 0.22545677223839208
-0.0641905662641553, 0.13744062185287476, 0.36518957198212104
-0.05404626258536632, 0.13744062185287476, 0.3496287348434882
-0.0792470155188523, 0.13744062185287476, 0.40461966646727504
-0.24121172462665175, 0.13526745579484858, 0.3807973938862187
-0.29242027678253324, 0.1337761743013752, 0.3664955232223463
-0.29749929900577887, 0.13536957038736808, 0.2872576240259723
-0.3181440362681939, 0.13567336327314927, 0.24104700095175918
-0.31021302987388355, 0.13588466441673103, 0.24414079103056532
-0.2966158303589122, 0.1344593864733458, 0.3293305061596634
-0.33452529080764704, 0.13323661901480133, 0.324051135755449
-0.2862939686968141, 0.1367612093671519, 0.2427776918164387
-0.2391399157063441, 0.13618766757691878, 0.34294790102353523
-0.34088637656234877, 0.1340634506755019, 0.2770445762736532
-0.3421945194905464, 0.13570823352139827, 0.2014709847425985
-0.3345846125067494, 0.1350619134469167, 0.24238450337669806
-0.2667644009369249, 0.13513308878491026, 0.3464100499779662
-0.2693711747661548, 0.1360179192629118, 0.30274611491035
-0.25859436802615177, 0.1354934457587367, 0.343220337832544
-0.32609530565634537, 0.13520121428683687, 0.24957853492341642
-0.29098604435805187, 0.13599286828657353, 0.2696980746043315
-0.32651852044525237, 0.13219958581872027, 0.3830530598918442
-0.292507448543056, 0.13551384321604032, 0.2887008730906865
-0.25766443283548535, 0.13508423141953432, 0.3629782173781465
-0.21340740704339278, 0.13579323499933088, 0.40125169829075796
-0.24835025284142864, 0.13655271508325226, 0.31207465277807617
-0.3126274059353029, 0.13699567434880475, 0.1906729717875541
-0.25552932622729335, 0.1368856968375971, 0.2858453388365594
-0.2831157767755298, 0.1348612168602505, 0.33271273492442854
-0.32922486337962437, 0.13466335632191834, 0.2686685110231962
-0.29632388454079395, 0.13695246554622215, 0.21837567690544737
-0.26281719574787793, 0.13399592317482995, 0.40346978333631356
-0.32810452294496195, 0.13253505914935787, 0.3655536098323707
-0.26778151215574747, 0.13533062963231748, 0.3359741081929746
-0.2322310960951821, 0.1361337281498255, 0.3562795422696171
-0.3080836138318028, 0.13499308981408614, 0.2873515422570875
-0.21885836244830095, 0.13596443829667906, 0.3849840157025952
-0.19538855683364692, 0.136545573914941, 0.3961126746426507
-0.20532090197732816, 0.1360778420692551, 0.4013152319637025
-0.21057011445985807, 0.13703991332895613, 0.35002236829227035
-0.35301821497506847, 0.13744062185287476, -0.05465767677760556
-0.3433423134097226, 0.13744062185287476, 0.09544405760868967
-0.35761482822722945, 0.13744062185287476, -0.0167962832824419
-0.3477416744928826, 0.13744062185287476, 0.0652533013436034
-0.18657056806316147, 0.13744062185287476, 0.24224313638140085
-0.27370491476078335, 0.13744062185287476, 0.20474981472324108
-0.1763761220014786, 0.13744062185287476, 0.21535569011363992
-0.32090299852850557, 0.13744062185287476, 0.12784727051855196
-0.1945239164761344, 0.13744062185287476, 0.19537508622323374
-0.21190287479763326, 0.13744062185287476, 0.2166581196806343
-0.2547469442171121, 0.13744062185287476, 0.1530392197141395
-0.17778798237435722, 0.13744062185287476, 0.18358369823960657
-0.19548019364897518, 0.13744062185287476, 0.31971142314898976
-0.16637271009976926, 0.13744062185287473, 0.3975720411950747
-0.19196102966648537, 0.13744062185287476, 0.18133229739165985
-0.19877591587430052, 0.13744062185287476, 0.2388523812007991
-0.1724924926000775, 0.13744062185287476, 0.1342616395680565
-0.26552582605253505, 0.13744062185287476, 0.14782703071917788
-0.24950740863709667, 0.13744062185287476, 0.19915870094486166
-0.2008220203159543, 0.13744062185287476, 0.17764881086103243
-0.18879843161352708, 0.13744062185287478, 0.3445517511853319
-0.16762425892515673, 0.13744062185287476, 0.29565033648392813
-0.3206766556748069, 0.13744062185287476, 0.12460971770901061
-0.16631210148853404, 0.13744062185287476, 0.3602215713561686
-0.29888795339678637, 0.13744062185287476, 0.12712371568519626
-0.19838490855976212, 0.13744062185287476, 0.3304576682586193
-0.2205550059994361, 0.13744062185287476, 0.2819334039527025
-0.21554255214271056, 0.13744062185287476, 0.24258290953771736
-0.20606738386773152, 0.13744062185287476, 0.20618753244978602
-0.17556164739729768, 0.13744062185287476, 0.23596659358884922
-0.2878032006089003, 0.13744062185287476, 0.18654335374318004
-0.25798108892736066, 0.13744062185287476, 0.23980395128609422
-0.17696257350153927, 0.13744062185287476, 0.363909217966498
-0.19086270209219064, 0.13744062185287476, 0.29725638503464225
-0.2312178699015427, 0.13744062185287476, 0.28402425794468844
-0.21541099529789037, 0.13744062185287476, 0.18991245145219093
-0.21304033662584598, 0.13744062185287476, 0.28436831356429854
-0.16975171736808176, 0.13744062185287476, 0.13346699773099335
-0.19055230829920855, 0.13744062185287476, 0.28087024403361327
-0.17124113843677247, 0.13744062185287476, 0.2384501134442047
-0.03499394913878106, 0.13744062185287476, 0.1575733153198985
-0.12493226263847976, 0.13744062185287476, 0.13103221190699949
-0.004413224179730354, 0.13744062185287476, 0.3263911526870351
-0.0636276283962541, 0.13744062185287476, 0.2747961843171506
-0.021532137455650135, 0.13744062185287478, 0.34842180978911097
-0.1530648846961805, 0.13744062185287476, 0.13838659689549
-0.14246236826951358, 0.13744062185287476, 0.1427328082183711
-0.05918107065603577, 0.13744062185287476, 0.17002417157811686
-0.0740844244391899, 0.13744062185287476, 0.16835077690027916
-0.1388154604778656, 0.13744062185287476, 0.15578117416179707
-0.015128924105682715, 0.13744062185287476, 0.27726311350795796
-0.0018228357804192152, 0.13744062185287476, 0.35154199751757387
-0.05857721045298114, 0.13744062185287476, 0.26374276295549975
-0.08452732923916992, 0.13744062185287476, 0.2549261781063056
-0.09952424099083026, 0.13744062185287476, 0.14180704399637717
-0.04400717457703325, 0.13744062185287476, 0.3285641814612258
-0.14028465192715486, 0.13744062185287476, 0.12707825400373995
-0.04472723880966884, 0.13744062185287476, 0.19297382561266813
-0.04046559329192418, 0.13744062185287476, 0.25594719049697945
-0.0790666739635311, 0.13744062185287476, 0.20256047174524974
-0.11842677830131482, 0.13744062185287476, 0.13521307735633206
-0.07031802274235083, 0.13744062185287476, 0.21782522657380277
-0.11956181226481509, 0.13744062185287476, 0.160179223032128
-0.06448025658978791, 0.13744062185287476, 0.14110701234892897
-0.05027215579237602, 0.13744062185287476, 0.2231880558442491
-0.019395837223896206, 0.13744062185287476, 0.16544225449439767
-0.01527689953491244, 0.13744062185287476, 0.37592868284723757
-0.02266669648070532, 0.13744062185287476, 0.15673046317600514
-0.09949419350208867, 0.13744062185287476, 0.16567909250723126
-0.07033768209618547, 0.13744062185287476, 0.1523966401412629
-0.02501225824461182, 0.13744062185287476, 0.24538656252791968
-0.11564028708226462, 0.13744062185287476, 0.12710162634676891
-0.01970505040077591, 0.13744062185287476, 0.2513173939761213
-0.02701855074641417, 0.13744062185287476, 0.13679445918637695
0.08902498012391988, 0.13744062185287476, 0.017151696530990607
0.05563039884797461, 0.13744062185287476, -0.06545769410680344
0.15141872801223008, 0.13744062185287478, 0.10722025346547845
0.12463801160240813, 0.13744062185287476, 0.010281200297203058
0.05954807532382937, 0.13744062185287476, -0.02010418412045417
0.09301588423577753, 0.13744062185287476, -0.05550438979395485
0.10372495509311108, 0.13744062185287476, 0.012559670688788206
0.15800785811191853, 0.13744062185287476, 0.10053438624288666
0.1575049916545616, 0.13744062185287476, 0.06383572437812926
0.1406189656802339, 0.13744062185287476, -0.020951663725110654
0.1551679388029898, 0.13744062185287476, 0.02794707315325158
0.1430876829768364, 0.13744062185287476, 0.03915988023189006
0.08033132418196327, 0.13744062185287476, -0.03154069033504172
0.059694510325251665, 0.13744062185287476, -0.05929344787318776
0.15301779107192304, 0.13744062185287476, -0.010339469137818434
0.1357459302268759, 0.13744062185287473, 0.08468116679583616
0.10771066930749504, 0.13744062185287476, -0.026448564155508975
0.09756836203496527, 0.13744062185287476, 0.04428590289693115
0.1482144677237624, 0.13744062185287476, -0.007987108693028037
0.1331168565020459, 0.13744062185287476, 0.004728735584800588
0.10711314721054009, 0.13744062185287476, 0.023132540117743974
0.1545325336051324, 0.13744062185287476, 0.06660347823992478
0.19583710482856187, 0.13632807644153727, 0.2469090523696441
0.2711934470984755, 0.13366263845876203, 0.3558073104482446
0.1761628915157658, 0.13702397533823948, 0.2469016568000991
0.1733151417158174, 0.13712470342898248, 0.19995731073172768
0.2949277230820493, 0.13282313061118506, 0.37038001848500723
0.24990113991339022, 0.13441577114278697, 0.35926149334102697
0.18925776680604756, 0.136560794975087, 0.2057504762032396
0.29704425448709243, 0.1327482665316822, 0.4030606429906151
0.21053333560253937, 0.13580825434655974, 0.28837596052088277
0.2145289109835527, 0.1356669263831423, 0.29434555622153064
0.21661009688282676, 0.13559331251365175, 0.3364232613909962
0.18486094390429594, 0.1367163155114194, 0.2835599436761087
0.2901145290745794, 0.13299337865852293, 0.34341171643524093
0.2400184400711764, 0.1347653332730381, 0.3031873587083761
0.2321464585383658, 0.13504377405114942, 0.3395948665444801
0.17424002279201894, 0.13709198935242567, 0.16049565892568518
0.19691770235217648, 0.13628985450033398, 0.2292371721787273
0.26806331231942654, 0.13377335482157857, 0.31252310854613885
0.17723658709304205, 0.13698599752658616, 0.15544894268240877
0.2489598499361123, 0.13444906562050002, 0.34337114161350313
0.17776953735434414, 0.13696714648065408, 0.2824323454380114
0.17436173468065194, 0.13708768426699897, 0.25444845071866773
0.2712652782665055, 0.13366009771012893, 0.35043323402316057
0.19947725443435954, 0.13619932028472267, 0.20157804864948106
0.20477258027666395, 0.13601201869595003, 0.25686659430439296
0.21664654659675048, 0.13559202324656386, 0.3318379753365154
0.16835089496328806, 0.13730029438060623, 0.39410526720964834
0.2168310762332866, 0.13558549622723998, 0.3050950834042513
0.20465960313651455, 0.1360160148235681, 0.32474838463536443
0.17845961655417872, 0.13694273760868714, 0.28871526000834313
0.24791014815293172, 0.13448619474486032, 0.38481788629861263
0.22315396664905754, 0.1353618485319371, 0.21993715592774055
0.17803610020163496, 0.13695771785505254, 0.3539800697738319
0.24918973917914744, 0.13444093418123745, 0.3348320245306191
0.22202761114944242, 0.13540168898385324, 0.24391659618507827
0.23477611063144307, 0.1349507603198663, 0.24235063476767704
0.17344849327494602, 0.1371199866354113, 0.14977810718666196
-0.07117810794508528, 0.13744062185287476, -0.032711975667017265
-0.12637459233301843, 0.13744062185287476, -0.053813824531199816
-0.015893531957839213, 0.13744062185287476, 0.04133316429935452
-0.03753752164301792, 0.13744062185287478, 0.03904230975649052
-0.0026611531515980786, 0.13744062185287476, 0.08855444631989937
-0.03323709581276453, 0.13744062185287476, 0.06284100719020698
-0.034270351778351936, 0.13744062185287476, 0.04255915144239419
-0.1316879352040252, 0.13744062185287476, -0.02883356832228858
-0.092854472511271, 0.13744062185287476, 0.0022293423874418117
-0.12930627022644445, 0.13744062185287476, -0.06158000826645909
-0.003084799152682268, 0.13744062185287476, 0.08195614550172776
-0.0009425176329122145, 0.13744062185287476, 0.08596564941878704
-0.0007304584016989725, 0.13744062185287476, 0.012256355890884307
-0.05030156609318977, 0.13744062185287476, -0.04184576025027461
-0.06401303329869071, 0.13744062185287476, -0.04162368366109624
-0.05725080491545089, 0.13744062185287476, -0.03597188145658434
-0.0007165413478768115, 0.13744062185287476, 0.03849846396636271
-0.08769785929824264, 0.13744062185287478, 0.011613216745473021
-0.08283669242057022, 0.13744062185287476, -0.026001121522214277
-0.0752174877100502, 0.13744062185287476, 0.004130578734974929
-0.09236245574750215, 0.13744062185287476, 0.007997775326450296
-0.07779641660337255, 0.13744062185287476, -0.0007780417710322764
-0.053194890762135266, 0.13744062185287476, 0.04815712902753034
0.021483194195731335, 0.13744062185287476, 0.3624945335173809
0.035505766685691206, 0.13744062185287476, 0.29972339075715715
0.0957503356921336, 0.13744062185287476, 0.37755669333333886
0.06234244070916197, 0.13744062185287476, 0.36119505370033034
0.13580867100329622, 0.13744062185287476, 0.39105024913671227
0.000326952251706088, 0.13744062185287476, 0.3425282381292175
0.12509542119503828, 0.13744062185287476, 0.36222348843745966
0.022351175066515763, 0.13744062185287476, 0.2649469094349205
0.031862382438343995, 0.13744062185287476, 0.3627705459807399
0.07639344295405491, 0.13744062185287476, 0.26041564278084856
0.02320909592536635, 0.13744062185287476, 0.3498624485272219
0.015851441338600496, 0.13744062185287476, 0.3483757337897474
0.10457407116878802, 0.13744062185287476, 0.3371468617751835
0.07959957231360912, 0.13744062185287476, 0.3629119053885955
0.015061962945580053, 0.13744062185287476, 0.32983004681406936
0.0241906988595092, 0.13744062185287476, 0.30067897825888906
0.08253552532179113, 0.13744062185287476, 0.31271884368923425
0.12540013033604971, 0.13744062185287476, 0.36711333628601744
0.036563733883392596, 0.13744062185287476, 0.4025281793998453
0.05251882671257125, 0.13744062185287476, 0.27030093655721493
0.0766208151090782, 0.13744062185287476, 0.3687567717902397
0.11732249460483173, 0.13744062185287476, 0.33022762458334043
0.025518171140924882, 0.13744062185287476, 0.4022693705145191
0.022964292620884796, 0.13744062185287476, 0.22402696323468596
0.07030260576502603, 0.13744062185287476, 0.3554089104663771
0.04442675548824761, 0.13744062185287476, 0.32684963343567786
0.1611686404299548, 0.13744062185287476, 0.4046107186534938
0.13631985730360252, 0.13744062185287478, 0.37973153418003835
0.05199032319280414, 0.13744062185287476, 0.26326658679863535
0.07594944163149303, 0.13744062185287476, 0.32571848945550697
0.09943158628300504, 0.13744062185287476, 0.2983640252006584
0.04043455562023862, 0.13744062185287476, 0.2072584867319051
0.12294389217495565, 0.13744062185287476, 0.39566954001729854
0.10491290771977, 0.13744062185287476, 0.17494090489112368
0.15727795150550203, 0.13744062185287476, 0.2866062742285236
0.16056770078800126, 0.13744062185287476, 0.2734437475193032
0.16380820280339267, 0.13744062185287476, 0.3275025702971866
0.10985211853157921, 0.13744062185287476, 0.1502720409105098
0.09117065307915181, 0.13744062185287476, 0.17068311472810913
0.09942839819891916, 0.13744062185287476, 0.22580501701365716
0.1572720929475317, 0.13744062185287473, 0.12934283862993406
0.14774009983468206, 0.13744062185287476, 0.33221986610007903
0.04684903796867867, 0.13744062185287476, 0.19849389681021393
0.13212992054174147, 0.13744062185287478, 0.3378100046889143
0.12530340727314387, 0.13744062185287476, 0.26055283158502623
0.13910083237012066, 0.13744062185287476, 0.2539391954811892
0.13055346395129075, 0.13744062185287476, 0.23589983855639268
0.15396432282821398, 0.13744062185287476, 0.2785087664087597
0.043873084657184896, 0.13744062185287476, 0.18266983268624967
0.04610825162386524, 0.13744062185287476, 0.17057578863392778
0.03444732050646391, 0.13744062185287476, 0.1264695149708058
0.10688445957370793, 0.13744062185287476, 0.3057671848591513
0.04286545527551532, 0.13744062185287476, 0.14344638595345657
0.15048831977681298, 0.13744062185287476, 0.14868208140476524
0.01993482527870359, 0.13744062185287473, 0.1361915097106631
0.10114142672772675, 0.13744062185287476, 0.1808171596801744
0.09713647281370437, 0.13744062185287476, 0.26557821272053594
0.08301073843695644, 0.13744062185287476, 0.2433048359628832
0.11703750326303919, 0.13744062185287476, 0.27076136380869725
0.10351619502277248, 0.13744062185287476, 0.19280269678927153
0.12205965835314175, 0.13744062185287476, 0.31876003032005373
0.14184720768400177, 0.13744062185287476, 0.17232891397027683
0.1062465216999005, 0.13744062185287476, 0.23190125580167012
0.12015822446956965, 0.13744062185287476, 0.2567634786447936
0.07731583160866885, 0.13744062185287476, 0.14910200672130536
0.06791149965081247, 0.13744062185287476, 0.20209444842335553
0.08249653449163123, 0.13744062185287476, 0.2485560199263742
0.366785052650055, 0.15615706956554995, -0.057327166054460525
0.3671616586014267, 0.15192230880151933, -0.038864340399811986
0.3736386700548876, 0.15310481811481125, 0.37328961881598677
0.37475436208296625, 0.21228431957398985, 0.3698612611177816
0.3742952676155541, 0.1700105134382794, 0.3983673888014413
0.37223340763852575, 0.17917209650523486, 0.22550686057804617
0.3721867822779205, 0.15434972934812213, 0.2594386091598329
0.37463345336902104, 0.2138097691748821, 0.35823060065443774
0.3724851426776806, 0.17667677244599406, 0.2486930816905383
0.3718474140501207, 0.17035067985243316, 0.20907579689606348
0.37447367484531713, 0.21603762845118885, 0.3425403869609777
0.3736395046961232, 0.15007590976160035, 0.3779332140390952
0.37379989860160834, 0.17795986336077607, 0.3481466099070064
0.3736181055745979, 0.20187222495614432, 0.2979751266213537
0.3734390005889723, 0.20219850980253434, 0.28366934362964286
0.37164258368354675, 0.15572486885337622, 0.2153912774100537
0.3724221824581587, 0.1569492340891015, 0.2736625221549297
0.37423659422576455, 0.19705806222006594, 0.35295092917464826
