0.7154436591139346, 1.1372571794222142, -1.1933445191367449
0.440839592611511, 1.3480912631766888, -1.1910209150905517
0.4039321406999289, 1.0300364108676363, -1.1933458163260178
0.3651000885345952, 0.9653103948589518, -1.1933457838894983
0.12645210287603312, 0.8991458462060962, -1.1933435240046864
0.5389744031490735, 1.0051057177147855, -1.1932969189860836
0.06537909563557881, 0.11667596840243086, -1.1914843254789713
0.6648347419238441, 1.2886997119095696, -1.193345456764818
0.7359374933427857, 1.2698700839524084, -1.1933456867807724
0.15734305045543356, 1.3285547246480092, -1.1920355763807071
0.479407548318533, 0.6225176810317521, -1.193345078691246
0.5892256216113626, 0.6806629744170322, -1.1933456786917167
0.7659473052375767, 0.7755903411555081, -1.1926866130827227
0.11462955389427205, 0.992704736930589, -1.1933457829177052
0.4031836835446235, 0.8557417208328674, -1.1933457201371074
0.17588274165828932, 1.16569980325547, -1.1933456965219544
0.08888861138558526, 1.2038233886551963, -1.1933444143051601
0.46941771396707793, 1.1699195886963814, -1.193345603524533
0.49232417274861595, 1.1439639431115447, -1.193344707172764
0.2770977124430757, 1.135898663502876, -1.1933458544085058
0.20862896198167516, 1.1672279821220268, -1.1933454606723832
0.26168913702875285, 1.1694423276539856, -1.1933455666039698
0.50616918231035, 1.1947708659357297, -1.1933451193018103
0.4168413820875042, 1.1462055836928922, -1.193345645521121
0.6235602926124871, 1.1033777593735015, -1.193343222685707
0.6503743750783, 1.1577892244327608, -1.1933451109226123
0.7608590358635476, 0.8550972198554374, -1.193334426871704
0.7695298845594691, 0.905259996392165, -1.1933305713225992
0.02711742462979022, 1.2185745205993326, -1.1933448330172913
0.5772959932444484, 0.8955047615600845, -1.193316262510917
0.5435798755152097, 0.9103496799022409, -1.1932174455619242
0.057919534504359035, 1.4134163199459233, -1.156385352031223
0.012191595191309646, 1.2821781168690047, -1.1933438472850848
0.1427725549823758, 0.8650564612132563, -1.1933458699758148
0.1852359150182527, 0.8600532087386343, -1.193345873527487
0.7774044005183154, 1.0625744769822734, -1.1924931994367503
0.5714489425886646, 0.9248517353537321, -1.1932931777797018
0.6597026913843591, 0.8981072469655103, -1.1933450444947369
0.7108944280468963, 0.27459104406834844, -1.1931935562284437
0.6800379541724293, 0.11965306461448999, -1.1933457849138134
0.19160549327872217, 0.7646007671895549, -1.1933458286568168
0.09185712362986444, 0.7485518634759064, -1.1933458653208153
0.07841762903260038, 1.028384491256416, -1.1933459043502808
0.7171252285055489, 0.7230680643537812, -1.193341135512808
0.40236188432146486, 1.07248821577237, -1.193345896969295
0.8018109358679235, 1.137301093937118, -1.185237112933704
0.5626790290980402, 0.13242717209662583, -1.1933457112635883
0.5071839189696962, 0.18440938916847563, -1.1933457194281525
0.5197880366698037, 0.14258866841113962, -1.1933457851409912
0.5675047472343682, 0.2485183153441144, -1.1933458424986991
0.2090780899693302, 1.2286674728950822, -1.1933430771329094
0.17140075909166247, 1.2302241015577893, -1.19334341988183
0.3102453590711903, 1.179007183481037, -1.1933454127540808
0.7757808299883246, 0.7527322649135156, -1.1920083902530714
0.16594756160184473, 1.2927465259559843, -1.193280831474567
0.2060134561871303, 1.3271402310298863, -1.1921206617157423
0.6606108453084959, 0.899130281516234, -1.1933448938327396
0.6859678647105513, 0.8801464146033995, -1.1932943683008137
0.31188161011596466, 0.1140548423193793, -1.1765412898153251
0.25108555901731744, 0.7764807138396908, -1.1933455750867827
0.35382995565122394, 0.8159133760346329, -1.1933458679941802
0.8317883299585044, 0.7339613990052422, -1.1583424850308257
0.3799133432805587, 0.6476866287659291, -1.1933456685644914
0.43693004724351203, 0.6640065807088747, -1.1933458528709904
0.10421786847160537, 0.9580962206496616, -1.193345601521693
0.140257775668135, 0.7322293697422914, -1.1933455263659638
0.42311118885769666, 0.11405482614807681, -1.171227959190973
0.4739692630930867, 0.7664626318266241, -1.1933450165521697
0.548037779670782, 0.7706926105559717, -1.193345794566459
0.8323463664248107, 0.7472960147370133, -1.1525998371629143
0.015636211489678593, 0.815316566315552, -1.1933443266284083
0.7617846342062939, 1.3471293847818948, -1.191468554193226
0.10691540427838521, 1.4234986501703344, -1.1205606287944256
0.31988418989100353, 1.4058114379414366, -1.171765751666055
0.21861517895393445, 0.9027066681489876, -1.193345427819008
0.14981503379726693, 1.116859584815887, -1.1933454761946223
0.1045299960545015, 1.1344088905364962, -1.1933458547877884
0.09272282210602574, 1.1416039986979392, -1.1933452439562744
0.2803766741160065, 1.2982198456700524, -1.1931244108762997
0.3871600276611049, 1.33742202228158, -1.1915932837060685
0.08464006714473724, 1.0136951119684539, -1.1933458832142767
0.535144976687701, 1.3454681346465214, -1.1911772590856529
0.05739402876028091, 1.0696003282353517, -1.1933452515132377
0.3066487934836105, 0.8552309997020764, -1.1933457287003248
0.21325382966910517, 0.8341919872276736, -1.1933459043502808
0.3060984065418306, 0.9139585525485393, -1.1933459665542714
0.7829846545339736, 0.9092016114979572, -1.1919698896625
0.47528683342260625, 0.8003124889724683, -1.1933449851874536
0.23409937001298753, 0.6222863369449174, -1.193341404304276
0.1809980340621989, 0.6406679435293459, -1.1933458451848913
0.2370078526848063, 0.6736259186222723, -1.1933399419849557
0.501351887165049, 1.0593972784555648, -1.1933453218743406
0.4341109744450421, 0.8336280819566805, -1.193345718435317
0.40045311327778654, 1.0947116168407356, -1.1933456886505012
0.3626196281891623, 1.0956894060542548, -1.193345749440119
0.2019844258400867, 0.11405486603020305, -1.1761542761251407
0.5481409576963737, 0.888909733670637, -1.1932381123374038
0.16891110636038803, 0.9546618060156504, -1.1933458356837308
0.12249952355476582, 0.9518182293981252, -1.1933455455248596
0.5952546145243397, 1.1062897709831185, -1.1933449723645306
0.22048032926016528, 1.2953709354735887, -1.1932033434447942
0.22086640987516962, 1.2631046607059835, -1.1933419262713698
0.6288530036193514, 0.7575619078370395, -1.193345215923487
0.3887823528269978, 1.0618423563156232, -1.1933458965634784
0.2831921011839732, 1.0102049449874986, -1.1933458888186887
0.35723411021431695, 0.8600697556483077, -1.193345901863524
0.3762666099783629, 0.9458531925657087, -1.1933449120342252
0.42763441811105357, 0.9411891316899181, -1.1933454819317182
0.48917362727826696, 1.0479510241765515, -1.1933445659795943
0.5316170137407146, 1.06120675372702, -1.1933457301837387
0.019742508451017316, 0.8882908400460702, -1.19334586404018
0.0201272439868865, 0.8428122514795485, -1.1933456121005257
0.03206197062787944, 0.6257848675625086, -1.1933456282635606
0.03512105890739308, 0.6443047100301181, -1.1933456132156355
0.1841098387819696, 0.7224735251021366, -1.1933456410413237
0.8265040622148807, 0.7867454277477774, -1.1609279781466222
0.3905877238451061, 0.7271567371752687, -1.19334587199661
0.43312933020804595, 0.7605416480338489, -1.1933458940015218
0.0790641804484434, 1.401336026815497, -1.170446894482216
0.04473892681295936, 1.3894729822645746, -1.1810370862578625
0.552345366881111, 0.7973505546210478, -1.1933458709865012
0.6006127873503606, 0.8096689050159522, -1.1933449940658447
0.7730138281301893, 0.7052063030015341, -1.1933281716930473
0.5894149145927788, 1.125227439231804, -1.193345884219306
0.5601333966002505, 1.200877171288667, -1.1933440514097922
0.6488179459184662, 1.2177369957970439, -1.1933455956782986
0.10045525168603806, 1.3255840357255542, -1.192186737829679
0.1391313222217435, 1.3383815800499863, -1.1915086093265521
0.559483614089564, 0.951041536541112, -1.1932379403486841
0.33185740064645525, 1.096730174646053, -1.1933441573379913
0.3435823095729418, 1.1305414917892471, -1.1933445949827157
0.7784047614212666, 0.9632147656527725, -1.1925788155141892
0.156703584720618, 1.3999375236843088, -1.175483038076063
0.09619386445761988, 0.9992162015508463, -1.1933458444829421
0.03990059290266863, 0.9833394526768426, -1.1933459043502808
0.03276582082192846, 1.0127039723932154, -1.1933454769692555
0.06195308843921494, 0.6187045017768679, -1.1933438324189534
0.014657218109110384, 0.6345312159882441, -1.1933457933312983
-0.22365660311416358, 0.7710521861495753, -1.1034061233048489
-0.6916754354846009, 0.7932994592327351, -1.0838068524946882
-0.30940237637544676, 0.8920192218398889, -1.10034786035251
-0.15349455723437655, 0.9187939192095472, -1.0841129840503103
-0.22675727099481624, 1.0471957660451785, -1.0808129826813442
-0.08439819443713166, 1.01963289554937, -1.0981677600857604
-0.38978856001455925, 1.0162953528253802, -1.0989344247981396
-0.023518145251011896, 0.8770702620464763, -1.068195285983522
-0.013893908352046293, 1.1856732079643306, -1.0696519568417024
-0.309616269795733, 1.1544799218320083, -1.097286058020181
-0.6198546041177532, 1.1600989920149898, -1.115584244116092
-0.37150893821018893, 1.2962906977634057, -1.0860339118421871
-0.5479256920474381, 1.2940024759513693, -1.0995025913349732
-0.05712750936204275, 1.3085027347474443, -1.0731212568625752
-0.03903396704274994, 1.315386022080364, -1.061219161526537
-0.10110115842472862, 1.3200263394444707, -1.0673235877099332
-0.18072058396645274, 1.1385532013665092, -1.0798538768274115
-0.2436189958599067, 1.0170352583441495, -1.0986897367558552
-0.2180078796906984, 0.9977912304334268, -1.0713495771825032
-0.09520547387351734, 1.0192673018433052, -1.0773874182647245
-0.6498635438777433, 1.1427136169253274, -1.0777401593020477
-0.462287336950173, 1.194463989680526, -1.0763336651081896
-0.495658558241143, 1.1410074061530868, -1.0695877577844644
-0.05610313943497906, 1.0458807997326853, -1.0771200545403166
-0.6632491082327328, 1.058702649524196, -1.0731153322651448
-0.42169195284230904, 1.0263340349744834, -1.0679562316219409
-0.29559732110792014, 1.1378025775545977, -1.0724323178173099
-0.31699360844275043, 1.2048302882453834, -1.0634064852841285
-0.5223494540733334, 1.063698354307733, -1.0675213020616592
-0.001499804184989423, 1.1346054689283123, -1.0689314651340256
-0.5057780969262127, 1.3212701731158765, -1.0664309456822774
-0.6725440695511521, 1.3079895716141405, -1.077081546618012
-0.7251549684214423, 1.2971654322496402, -1.0791105739832028
-0.012286200260631198, 0.936830411573362, -1.0713931078875207
-0.0740414299422943, 1.0389063048297056, -1.1015600067504034
-0.011329194601490842, 1.104182355182814, -1.0560659640090961
-0.4672997879818013, 1.1082587142715048, -1.0597245086794227
-0.6399360482526446, 1.1146117785828993, -1.064453706777317
-0.5959277692226079, 1.200731160111404, -1.0669762403003635
-0.0692948177448961, 1.2471510020959002, -1.0562764701180214
-0.8364601370963236, 1.4199836295388741, -1.1210498431982692
-0.8315628496731458, 1.091008984283515, -1.0979321106305728
-0.6222682839651372, 0.18383427196815091, -1.0939479160229748
-0.8444783956434313, 0.9021066434317104, -1.1179471849578948
-0.05448024543229954, 1.3020088698744792, -1.0733554693684273
-0.39844290161199025, 1.2882372741466073, -1.0987642150545036
-0.3515383700898115, 1.273439667033553, -1.0594726168247695
-0.2724824825412556, 1.2892843656852802, -1.060557168286677
-0.6353874115084484, 0.6184185734575305, -1.0645488536711176
-0.3643851384076777, 1.039604505157938, -1.0764512779275746
-0.6632765362672516, 0.8170980056304838, -1.0609058585065956
-0.17944308712768892, 0.9203428111838929, -1.0743686622479753
-0.4443929521307075, 0.6027368980015928, -1.0631801804586194
0.025907156893444465, 0.5949366596928842, -1.0702538277747289
-0.12471484493025237, 0.5978320890654611, -1.0619322832037301
-0.5091785938300001, 0.8119290141033709, -1.0660903430399913
-0.32202221847665574, 0.8788342390380212, -1.0698757925220155
-0.056129419396509034, 0.8683112028082756, -1.0584604063894263
-0.016704319589809634, 0.7544942265274475, -1.0539602203230625
-0.4937664663572693, 0.9209722887888985, -1.0665749061277245
0.01956287677733979, 1.1936744378898936, -1.0652452015983849
-0.7662801217324183, 1.2281487673714127, -1.0628236163624947
-0.7198173478390937, 0.33021517670209266, -1.0937401027551918
-0.716402443433273, 0.2234990855641255, -1.0938625107801667
-0.637341846039986, 1.0293099790720381, -1.0630741166623958
-0.7575905349707426, 1.2726105797600649, -1.0699189799090076
0.028757109740735216, 1.242702020309318, -1.055145425268161
-0.025482362818069537, 1.2820063208255477, -1.0569431283064616
-0.817671829754298, 0.9499649244079023, -1.0812939690800951
-0.8095126000365288, 1.3129366284640211, -1.0804015070993387
-0.14701524904114913, 0.9951532089832928, -1.0548539310905747
-0.41452999886130576, 0.7757972622679641, -1.0777726883337235
-0.19989842937684663, 0.8087679496852104, -1.0595267570903935
-0.47894618944026934, 0.8667752829346779, -1.0581002667713002
-0.5049032381083692, 0.9790657094272568, -1.0540680426522706
-0.7407663487657608, 0.2865818250721135, -1.094347099011963
-0.7547248203267646, 0.17872517664985843, -1.094192467967128
-0.7629336376577057, 0.2507961336480274, -1.095419417514372
-0.7905696676149737, 0.2446153227712913, -1.097102296497889
-0.7679717191036237, 1.2986421577330745, -1.0718553955121073
-0.4666081991875936, 0.6029904135607744, -1.0643760205573007
-0.6617296703134394, 0.2939700413506048, -1.0939760155493725
-0.6769937712536284, 0.21605894637793732, -1.0939677323408392
-0.4747931025010501, 1.3560675199102894, -1.0581043720510603
-0.027868695128027567, 0.8215300401106779, -1.0559136193435608
-0.11383765500687829, 1.1823897186739065, -1.0589579600264523
-0.6744601245268491, 1.0540105103164008, -1.0786519144441162
-0.671243180075418, 1.102142001496131, -1.0615542495367374
-0.5685843193360292, 1.3553527815653152, -1.0633004430133055
-0.011182554956378111, 1.0081630132208923, -1.0535140541542514
-0.6991548102885796, 0.693841419055589, -1.053793890105431
-0.5418341156720132, 1.248627402262843, -1.0648073826522095
-0.011232940174660186, 1.0874436437601667, -1.0540820621142633
-0.3545209403534429, 1.1211981203440804, -1.05577236056492
-0.3714340760356375, 1.1200642975575321, -1.0553692696725916
-0.8308782625965192, 1.311373464618466, -1.0972109652776183
-0.31761692825134413, 0.2441368646712089, -1.0938151716626663
-0.30358415053544124, 0.18734043248619633, -1.0938849148599867
-0.3589405726032107, 0.200885544111877, -1.0939452406610335
-0.6937574358766998, 0.11405479431655895, -1.1045291295075568
-0.15427801797391527, 1.1866536941828265, -1.080932177186801
-0.2961664862783047, 1.1486278742034737, -1.0741258710124701
-0.4327034338189617, 0.8373618284926145, -1.0538368208127562
-0.3412587248613506, 1.0472482744152414, -1.0656428115161656
-0.752693559304485, 1.4222336530643194, -1.1072514653771428
-0.3084753262739841, 1.2418009832961485, -1.057685296094193
-0.2824048016926104, 1.2058025494176245, -1.0580189221044762
-0.6132230479858642, 0.1427986260489939, -1.0939447876061619
-0.6366757528343905, 0.6046911160831265, -1.0641081253464055
-0.14026291282189537, 1.2906422763717762, -1.0523801568342703
-0.08541769006243097, 1.2460752290739636, -1.0552480539270563
-0.5857379315872597, 1.0585043838323676, -1.0547139668644216
-0.7750882726955435, 0.7777868060026472, -1.073932721943753
-0.4265790238149027, 1.4240921996587064, -1.1145513094815864
-0.8458365990770582, 0.7121024222125311, -1.118601707881423
-0.6555441430750324, 1.4232041121153558, -1.1028556346167466
-0.06807430070174736, 0.9455749038852109, -1.0542999035722402
-0.6066806055342859, 1.343060965215501, -1.0565260341135991
-0.21724485065386348, 0.8273826260073065, -1.0583325259175664
-0.5946883822221027, 1.1000546628155135, -1.056774508265418
-0.4573644780345272, 1.314900536609078, -1.0531665597328588
-0.4944300547460463, 1.3362483981366775, -1.0614379933728026
-0.8225999859883145, 1.1527208019968693, -1.0823903607243575
-0.834690157390358, 0.7187891879070579, -1.0964158741265713
-0.14752717728115283, 0.29387643459378526, -1.093911678250506
-0.12425014838185189, 0.12150625450441252, -1.0939446997873294
-0.8293185226292479, 0.7623075141679068, -1.0987956100793799
-0.18916505794420352, 0.9615280450560973, -1.0593594745212402
-0.8301161631516298, 0.6833558072536452, -1.0851380385701739
-0.569264307301184, 1.258299890697602, -1.0592623700596255
-0.5186398775424975, 1.3117574571006183, -1.0749106388451724
-0.571856768226498, 1.3242978012899242, -1.0624294892298796
-0.704806305413308, 0.8304689322812225, -1.0611534789429617
-0.47608332376603, 0.9267775804006693, -1.0753918022121316
-0.46564115468948675, 0.7911282288527455, -1.0574557728342828
-0.4774929938973309, 0.7867105298573027, -1.0607282713192947
-0.4093317715908598, 0.6001498652952311, -1.0570280345536598
-0.3263757280800677, 1.3120794331892554, -1.0541200992295363
-0.7765218618468889, 1.3503628967362924, -1.0727466500533345
-0.358227342985761, 1.0392965189418324, -1.0732524367163678
-0.5471042573698466, 1.4035199867989232, -1.0774239376029202
-0.2779345737139939, 0.11481034227368017, -1.0995785104795184
-0.07388597111821514, 0.6455416717350566, -1.0568785374773777
-0.625610497309357, 1.2869974880148427, -1.0638474525243677
-0.625707655809039, 1.3225204919156064, -1.060053921570947
-0.3173517983174819, 0.9307498430288011, -1.0794394824617877
-0.3923344773301857, 0.6548273348029328, -1.0555362631298482
-0.6179211349392225, 1.0271738199396947, -1.05709924966104
-0.07063809100052172, 1.3375845522956595, -1.0647564195060069
-0.324715733084259, 0.1140548594068169, -1.1202288551365696
-0.7198144579498303, 1.0865103390136823, -1.0661909221377932
-0.5341233056862698, 0.9632999000949674, -1.053872557471797
-0.20708796383572214, 0.11405486518581995, -1.155053691090008
-0.16970116751271336, 0.11622077927314706, -1.0939856421134373
-0.8208036864232084, 0.2427719580866199, -1.0966402447280597
-0.20849873231387883, 1.005448012986771, -1.0717682712603978
-0.2661472417896351, 0.6844946902547406, -1.0582482594603921
-0.8093042657751484, 0.6869571986122895, -1.077234341365792
0.019831418596022513, 1.3094296609333507, -1.0594277129429817
-0.40251557490130374, 0.7587800033200193, -1.0821067639942337
-0.15650172598933082, 0.11405488130668953, -1.140850821582497
-0.17071924303047853, 0.1140548810721625, -1.1165132343356903
-0.5898705176412105, 0.7551643977161037, -1.0623536002130245
-0.7956111147288473, 1.0207416576872566, -1.0777100138143183
-0.8402128857740986, 0.9002571300399606, -1.1039702124932118
-0.8421501171355582, 0.6309965292846879, -1.0935178859341854
-0.7158357266196496, 0.955033762975589, -1.0543088661058453
-0.40411960707869327, 1.2318457179656574, -1.0535152489401078
-0.8314191268317657, 0.3176039294292127, -1.0996732091621
-0.12154952844409617, 0.11405488931026941, -1.132706790365522
-2.679045660649333e-05, 0.11405490338802338, -1.1129070216358166
-0.27211862198905246, 0.24320038431107097, -1.0939082649954175
-0.22165285641120439, 0.12885474797637456, -1.0939447226163117
-0.3079106684601159, 0.6769219954486826, -1.0624425675999456
-0.3886959238404265, 0.2239281800425385, -1.0939658788560787
-0.3899178362502226, 0.20089149646065302, -1.0939600865766865
-0.4274098639269352, 0.16090633831157392, -1.0939311046929623
-0.42354648929355443, 0.14659054022757678, -1.0939404842590619
-0.8075213547064888, 1.2068571212084165, -1.0759895900312855
-0.23278250919038704, 0.19619145237950242, -1.0939563737079625
-0.2246904420399905, 0.16322519937476043, -1.0939497395531796
-0.1792291324607237, 0.183417370279715, -1.0939479574161368
-0.16985791556272317, 0.13034528477945384, -1.0939447771933348
-0.8396489806205938, 0.13660198443243896, -1.1275777095702408
-0.7604213920894486, 0.8867823902364738, -1.0582718779054703
-0.4665277558941275, 0.24000235437181774, -1.0938002948679864
-0.47302653193718924, 0.12571836623068824, -1.0939447130874465
-0.5647730119624348, 1.202434690413772, -1.0584759072599956
-0.5006822491318059, 0.11405482143163681, -1.129583255223032
-0.04852838068898696, 1.0324614119303623, -1.0720235103737932
-0.798516781318674, 1.1132733463853581, -1.073907597441155
-0.2215524077983495, 0.8015804907144409, -1.070180154137159
-0.12261241977075696, 1.4109829727561776, -1.0862342433968017
-0.10821508946738533, 0.9642538413710686, -1.055549727528641
-0.1014332260465463, 1.186150592582442, -1.0566366764344097
-0.8370538586124028, 1.3281324704416755, -1.135711244979427
-0.7836415783439945, 1.1509484637380987, -1.0651004903283945
-0.743539135299365, 0.11405478609388087, -1.1091847082028479
-0.5220221212747747, 0.16490667331722836, -1.0939247667651317
-0.5271081368733863, 0.2177959703402163, -1.0938801685153452
-0.6521715930772203, 0.9062692830675804, -1.0606431877036981
-0.6957038759509875, 0.9123303455901175, -1.0505984443025993
-0.6956792911551501, 0.8669657780086157, -1.055208885549737
-0.5271861056573004, 0.927854043326311, -1.0513485998999832
-0.47075143498852345, 1.4095320997572984, -1.0805691952648386
-0.44137312448969157, 1.042236599357135, -1.0590983209557152
-0.5111867037146379, 0.621030817941352, -1.0592664381380814
-0.03321530858865909, 1.3528950702116014, -1.0620613434924537
-0.08547157229814063, 0.7949307477026779, -1.0792912221841415
-0.030235744362244913, 0.780501409024611, -1.0602984795074244
-0.1892487727060334, 1.334537663482258, -1.0595436743961786
-0.39458942609467335, 1.2832607879612659, -1.1049250435167386
-0.5447426911980792, 0.7598494955796639, -1.0915365776088655
-0.610293117848812, 0.8186971710574092, -1.0539709570600202
-0.827659381847603, 1.021899074274292, -1.0916926423460485
-0.8270250642510721, 1.2997550022071438, -1.0914607420681701
-0.19994852200743307, 0.11405488135272876, -1.1253367325907973
-0.23052077729384665, 1.421533883028516, -1.132365814612304
-0.8318849080530777, 1.170623166811739, -1.088692266351732
-0.5844124819126413, 1.4222232796556797, -1.1025454649125848
-0.7954892936296077, 0.750075792063123, -1.0768890979241843
-0.3424266281842375, 1.4196369991586852, -1.0974326312142277
-0.00964450260940624, 1.410203190603903, -1.0852544558128432
-0.2695733392757855, 1.4166572905440564, -1.0917448705170414
-0.23924751077008047, 0.876327264920755, -1.0560255445647675
-0.547577829406797, 0.11640388586979314, -1.0969428580747502
-0.829455731298096, 0.6665085486766001, -1.08306577227459
-0.07448476614226032, 1.3905491228183802, -1.072355468598413
-0.8410232465780543, 1.2305617212544335, -1.1271512835133173
-0.1986037174576201, 1.3833076499730788, -1.0679588573556555
-0.821749842770563, 1.0362750486262655, -1.0858228850663678
-0.6743534284774587, 1.1187102351092477, -1.0613725359281982
-0.6611515160482532, 1.1819663251474368, -1.0679563174479791
-0.7396532224712609, 1.1686858129618007, -1.0559214411888567
-0.15342281061781257, 1.3470964958198515, -1.0581206441377002
-0.1397452599087213, 1.3399619209270188, -1.0589095999553202
-0.5562498750266164, 0.7980778010416578, -1.0773458465296744
-0.7847197774529715, 0.7423315262653345, -1.0732640763191383
-0.8168992165076969, 1.393445034773366, -1.0789890033756517
-0.6269610221563828, 0.714369262806686, -1.0592719830348536
-0.15143016222769284, 0.9600686855551717, -1.0546407726033635
-0.749554492313613, 1.3502785975782554, -1.0730976011769306
-0.3827182182432584, 0.703245973270701, -1.0567350062641203
-0.42484219385439104, 1.3729541708748885, -1.0641178970060106
-0.6059632981692409, 0.7844187233950718, -1.059004022264312
-0.45265998831166343, 0.9277848241207153, -1.0750965044034058
-0.7921625024337087, 0.8995423476384972, -1.0687635003841696
-0.831803498017369, 1.3485512147023062, -1.0973099736860623
-0.4163486388314303, 0.8022824475580119, -1.072045993053432
-0.6634100701265946, 1.0087909996308322, -1.0737012339681375
-0.7032071883843265, 0.9946793973493101, -1.0765281585883124
-0.5670282654844905, 0.6366414247878349, -1.0626877162696338
-0.46491362023232136, 1.0955274977274747, -1.0539710795908448
-0.24506313249741254, 0.8040453265704666, -1.0711531776203722
-0.1987639728162136, 0.6186362815632742, -1.0600779401820577
-0.61663469121683, 0.7459818607152909, -1.060436943094855
-0.7153710621324012, 1.3015558627206367, -1.0823061954739686
-0.3443794492240714, 0.9725778039245312, -1.0592291690887832
-0.3318893366175149, 0.931545262715671, -1.08140413116742
-0.7213892410025957, 0.11870682951958117, -1.0948301021604387
-0.009196380337923695, 1.2487754862633915, -1.0557838477453547
-0.041613367419178766, 1.1897928107670759, -1.0590218397846982
-0.18376656743737496, 0.8851307882979201, -1.076090233731215
-0.23375523906084714, 0.8812436718070261, -1.0554598524256265
-0.377259089006292, 1.1040756573697417, -1.0550717008823964
-0.4554098050898741, 1.1907386356745644, -1.0773759597622805
-0.3103705586585794, 0.7899289717872815, -1.0565858266784323
-0.35269092591584306, 0.8267929394078849, -1.057869381959815
-0.025307681931311363, 0.7204127249536156, -1.0558191268487955
0.014934973692859281, 0.6798222834484489, -1.0708310251656852
-0.5440407856473817, 1.1612730677927108, -1.0560010207780839
-0.5140556831485226, 1.2023900925116573, -1.062069509969717
-0.8131260487574361, 0.7542636118083375, -1.0837520800733993
-0.2470373309580005, 0.8501509550386221, -1.0579345984691602
-0.2441962080510522, 0.6674936222938503, -1.0561456550489186
-0.4033244334707853, 1.3718095623139248, -1.0657430636475804
-0.5928639500057671, 1.38811631096981, -1.067000396735476
-0.5966667383726432, 1.4151531288764554, -1.08672287230744
-0.12826322421588024, 0.7223807552379152, -1.0597825935515282
-0.566786647074597, 0.7213975669687012, -1.059704043096772
-0.5702772304135109, 0.6575040321312093, -1.064419943542975
-0.14030563525848333, 0.7978526766624061, -1.0552886527816279
-0.47990090986403816, 0.6720186648161809, -1.0610045893981692
-0.4218718388447105, 0.6271114548587553, -1.0624851257531929
-0.1761095758593851, 1.2911324234604513, -1.0559591424107726
-0.5273794700619414, 0.8255764626917508, -1.0631023500209962
-0.5002311657220063, 0.8747459879561497, -1.0599872894010782
-0.12947176415497114, 0.7324088165117274, -1.0597066009050045
-0.009431557142663307, 1.4013402607309702, -1.0771900310255502
-0.8391279822924461, 1.1975193084480837, -1.1045325170388225
-0.315979687666163, 0.616370103390338, -1.0631620868358196
-0.35119623180113246, 0.6087572905565203, -1.055091428500329
-0.255225549502408, 0.6009326729669365, -1.0554275893223135
-0.13839911995813897, 1.034273498907051, -1.055257291584625
-0.13360954665631164, 1.0633088955822336, -1.0554921929748877
-0.7254146222164344, 1.026475783888758, -1.0853069580083372
-0.2236364882548054, 0.759365754784752, -1.0800883231752065
-0.4134126516022545, 0.7120267465847151, -1.0592444834401686
-0.5802435749371707, 0.9547638949798484, -1.055849044329076
-0.6212692460222756, 0.9252630637040353, -1.0702847328851521
-0.5935004245601441, 0.7035253249049662, -1.0584121856181
-0.5887275860495996, 0.6831712320047713, -1.0600768034996664
-0.4842725382598174, 1.034933889759401, -1.0583123603284592
-0.4979863957057061, 1.0517882493660464, -1.0614405805321512
-0.7093204134692983, 1.3881610715546073, -1.071682538743983
-0.07670358163918786, 0.939416240108486, -1.0531058804040383
-0.2995794867633764, 1.2767483867112561, -1.0559063389882315
-0.32991510285515074, 1.280943590586945, -1.0537341330962586
-0.09408700194946303, 0.6894288309352913, -1.0588272302026702
-0.7365870069434579, 0.6558957120377382, -1.0540939985132582
-0.684542832494429, 0.5953030172183635, -1.0545072158485933
-0.5198736564657885, 1.4235918599008024, -1.1182788191266433
-0.20948949974488532, 1.1073044483988497, -1.0611128904096045
-0.6166183446364806, 0.8370272700455306, -1.0534014019042723
-0.2866005442855022, 0.8491998514368474, -1.0531992590310253
-0.295678713444815, 1.0422439804007437, -1.0581266213845073
-0.2549416746619436, 1.1266905655977641, -1.0558798625316954
-0.21299080762417932, 1.139690977708191, -1.061843285478385
-0.22794620309817026, 1.0959456470266398, -1.058514499276132
-0.5148740260314595, 1.1224206749185726, -1.0556821985215499
-0.3406740088099664, 0.7442334356351556, -1.0625058905065268
-0.3103231424449775, 0.7534432859978836, -1.0631553797306288
-0.2619802370536266, 1.0468691523161908, -1.0697751214977094
-0.144666071783099, 1.08842257278617, -1.0548646933550563
-0.1415369089788424, 1.10776292519413, -1.061403167317807
-0.42819146919615814, 1.2600911968279551, -1.0551295496238475
-0.47990349045089303, 1.265999091224539, -1.0636029783253744
-0.7715097825771304, 0.9705927163672146, -1.0657310413018497
-0.4650324654792204, 0.7385370655994143, -1.0571519141671917
-0.5174820181124112, 0.7018596783077763, -1.0554277010363684
-0.0995274770280459, 1.3906022056335994, -1.0719032345117552
-0.41810319876211544, 0.9188557363148102, -1.0586448994520217
-0.40336637196693664, 0.898168875818516, -1.0560562707979415
-0.07216083064520355, 0.6584238812721912, -1.058100438797946
-0.321371995942792, 1.2826692255287677, -1.0518326690244308
-0.28176833983910277, 1.295460458094645, -1.058214328602772
-0.5968824917648291, 0.86923182713097, -1.0645214559795053
-0.09040622347938404, 0.8524983080544846, -1.0536882966498018
-0.43979531487956613, 1.1819098989922572, -1.0748148546638145
-0.3646833429591318, 1.185764044235178, -1.058329508407323
-0.17356150347248367, 1.2462865256661595, -1.0558987948244762
-0.20109991226668503, 1.2324008688280728, -1.057329438918283
-0.18147129268646534, 0.652163130381457, -1.0641680931946174
-0.5626344849897309, 0.9665395411433759, -1.0550587913429372
-0.7491515040071768, 1.4147299013662837, -1.088768110901209
-0.42207205196087894, 0.8346552599502362, -1.0563702235536212
-0.6657430887659913, 0.7391007327847874, -1.066170946997604
-0.8115906602871218, 1.4248915122729815, -1.1332039886957677
-0.7495756287096538, 1.093001556637194, -1.065801164739192
-0.36537430063359033, 0.9908061495063731, -1.062822752496756
-0.4032086620953896, 0.972390463915263, -1.0559565999936331
-0.24101530909397162, 1.3635264992191098, -1.066489995290468
-0.8136271945338778, 1.4043200798435271, -1.0804993368031703
-0.05504676506807171, 1.102289923137342, -1.0595818768784975
-0.30036358886213244, 0.9823004684477015, -1.0585919827789447
-0.193837254115525, 0.9392046466712891, -1.0637426898081126
-0.4090811236132943, 0.882673386749186, -1.0576781014802492
-0.37335353063371235, 0.8592888513095603, -1.056412549207079
-0.7570485591766221, 0.6805930037396013, -1.0604763750601645
-0.587935364139534, 0.1140548076632216, -1.1471981281466155
-0.0660522224146175, 0.11405489508898531, -1.1284246218133793
-0.5477268697266583, 1.3999735342868544, -1.0753310088734456
-0.11210034732409682, 0.2805824876117644, -1.0939608555337843
-0.11232966013324668, 0.2969799206161939, -1.093962698217218
-0.024443979724946597, 0.16331544295395176, -1.093945203108493
-0.05086623604449815, 0.21502762501097095, -1.0939491603246938
-0.059442191619694044, 0.2263083769723722, -1.093949810073202
-0.044935869625132095, 0.6357399716625284, -1.0669092451536213
-0.08380779186273668, 0.6384559223700712, -1.0582265989703927
-0.13095221169554583, 0.8484164732559754, -1.0547700900454022
-0.10280472750906523, 0.8268988902644876, -1.062074178692883
-0.3313946574944399, 0.11405484894087586, -1.1462834892877725
-0.39294708734563305, 1.4216283463173258, -1.127723393681398
-0.7831684869211069, 1.1212462975129065, -1.068936371440127
-0.5498534910089361, 0.2289840427471278, -1.0938177761648915
-0.5605397642650153, 0.2872742144507558, -1.0937333042991073
-0.6001866155844188, 0.26886884516316834, -1.0939668503218116
-0.6047626152301142, 0.19302677935627893, -1.0939535820509045
-0.34060987706858353, 1.3582788879338692, -1.0607956881900582
-0.3540898555031817, 1.3431219545392077, -1.0612878950457834
-0.013809684189227404, 0.32740814899081117, -1.1933457851409912
0.02129747267460829, 0.256256378994197, -1.1933457851409912
-0.2737701896360157, 1.2218416093488726, -1.1933437419758577
-0.7212107806684875, 0.6381929532780513, -1.1933451577401888
-0.809044334357575, 1.2578450289882637, -1.1780612717971364
-0.8046227552630872, 1.3706666463128794, -1.1810641612130337
-0.7503073316158294, 0.16982799526665562, -1.1933022427593356
-0.8346684157600042, 0.6521514239651269, -1.1601267170333087
-0.8079427599727336, 0.6655500248007706, -1.1852303463830198
-0.7616315310819783, 1.4258134623964345, -1.1267998909509982
-0.6800389147341156, 1.4209343677817219, -1.1437165745792943
-0.7423048963669908, 1.3156241231222163, -1.1926869631893453
-0.7440310346243225, 0.9808881827817397, -1.1932780624025308
-0.6923238048154599, 1.1648593313272895, -1.1933443758609423
-0.3427797813531249, 0.3226953520861434, -1.193345769045985
-0.7303453443180146, 0.9576668704318533, -1.1932225667968732
-0.7377607252262988, 0.12488926911933154, -1.1933457477480576
-0.6351524546026149, 0.3531700107303823, -1.1933458987755887
-0.655521008023702, 0.14085955886563153, -1.1933458015233587
-0.5706396634369473, 1.410933782089843, -1.1655858940399808
-0.6466641833408097, 1.2996458152583914, -1.1931382397362444
-0.4359089076906805, 0.6912168026390011, -1.193345892578179
-0.22523394556139434, 0.3192967070568107, -1.1933457851409912
-0.6505515507897194, 0.6766608986579089, -1.193345785140991
-0.6412786684643796, 0.6322864179360244, -1.1933458706255
-0.6102790657406614, 1.4222822976292777, -1.146155590021873
-0.8179709790930946, 0.9452130152797895, -1.1774425805108246
-0.5280270087477021, 0.7124085382033756, -1.1933450746759844
-0.7481617741066846, 0.6032270600791358, -1.1932900239336608
-0.050427648551357965, 0.28464424983005976, -1.1933457851409912
-0.04403277392360983, 0.278823899492099, -1.1933457851409912
-0.15683389600419173, 0.14585842024293097, -1.1933457851409912
-0.17029304944399268, 0.24543965796307407, -1.1933457851409912
-0.4884424179318004, 1.1082187601507842, -1.1933440746688848
-0.42840578758381576, 1.3773688730836964, -1.1879078151117948
-0.4735331606901945, 0.9425473067803207, -1.1933365748631675
-0.4286878302979736, 0.7988015151143047, -1.1933458903141287
-0.0835238666299398, 0.23355191504281408, -1.1933457145818391
-0.07260836439201794, 0.2985422489260735, -1.193345754744787
-0.1212563889580896, 0.24764764259858907, -1.1933457851409912
-0.1213347344086757, 0.32676037011201453, -1.1933457851409912
-0.6634717054985585, 0.6133277096343948, -1.1933458270796327
-0.46644475249466777, 0.11405482222190164, -1.1469717525233327
-0.45933798570918927, 1.410835498481107, -1.1661068280511415
-0.3989886531825085, 1.3890251967127798, -1.1834074525965954
-0.4105238178362588, 1.3245941584482839, -1.1922924896381961
-0.4715472120580587, 1.233553031949148, -1.1933431083336377
-0.8258473490635567, 1.0419227298751539, -1.161052444228742
-0.42488093655898296, 0.9536995699803429, -1.193345183978574
-0.4043201977540077, 0.8022052140401255, -1.1933458927489737
-0.46535759121436526, 0.8052550390666205, -1.1933449680823052
-0.4316210768121724, 0.6700179742015824, -1.1933458705452231
-0.5831609718315203, 0.27864304678972707, -1.1933458140131705
-0.46001138459416724, 0.9667701105469628, -1.1933454709995852
-0.5897647917608062, 0.13988631376308958, -1.1933457307383057
-0.32732854721824467, 1.4162567788832745, -1.1604311313349018
-0.3187257514249401, 1.2552423842676037, -1.1933420567329145
-0.3099899024301749, 1.1927259834640196, -1.1933450802785097
-0.35971431215367283, 1.0224764101026713, -1.1933458985538303
-0.29616715815894407, 0.9038518578880584, -1.1933459396496904
-0.6473453480274585, 0.7571168475507696, -1.1933452625932093
-0.5729224829424248, 1.3145525599509789, -1.192663264750754
-0.36138442165434115, 0.7854866196133863, -1.1933458473582934
-0.3295700247899419, 0.602817977185865, -1.1933448953654209
-0.3185740477635542, 0.7117639158101661, -1.1933458236570247
-0.050219434431560434, 0.9688552423907606, -1.1933459043502808
-0.8282827374760925, 1.206273273352933, -1.163594453611044
-0.27717678494004994, 1.4241358633478904, -1.1199282056895181
-0.3562134793239819, 1.350417102761205, -1.190886893911081
-0.27757668056416285, 1.293673381767636, -1.193260376169699
-0.15250344829043808, 0.6982518106167697, -1.1933454541673796
-0.2369831511041858, 1.0724122382666104, -1.1933458917536361
-0.21520506692984015, 0.9909778200694714, -1.1933458184659742
-0.25999096406515665, 1.0063141426579263, -1.1933458578254181
-0.27534560550746934, 0.9146340789559488, -1.1933459043502808
-0.2542714280198102, 0.8356718732050328, -1.1933457319528125
-0.2969220786927236, 0.7120662831171253, -1.1933457586005645
-0.3039180267637561, 0.7553640228667229, -1.1933459043502808
-0.8160971005909687, 1.2421197422787664, -1.173456172227075
-0.1628753583785073, 1.425255494952071, -1.1160951420027891
-0.1495692259056658, 1.4127915412980139, -1.1624092842591156
-0.5901825239458847, 1.425377966474353, -1.131550941707574
-0.46938224691640007, 1.3478147403808154, -1.1910361025563803
-0.401605258403478, 0.11405483009409773, -1.1621798212377592
-0.14436130470687583, 1.1086882374576712, -1.1933454604692038
-0.17930730405644485, 1.028318846102371, -1.19334581260334
-0.07077697503469949, 0.9098349945646389, -1.1933449573315387
-0.15219228426807202, 0.8923264309734611, -1.1933457675767225
-0.42645842138175083, 1.2095188048130474, -1.1933439660075285
-0.17939011925677295, 1.166612747483105, -1.193345675349443
-0.5276901128244448, 1.3427023477297904, -1.1913273047425363
-0.2693528738513463, 1.0373415544546014, -1.1933459043502808
-0.721431489509816, 0.6802028987324624, -1.1933440388933745
-0.7644023378772171, 0.6891753725926484, -1.1933383871350056
-0.29595749767594937, 0.6366635027673422, -1.1933457870449207
-0.1673144018809213, 0.11405486722857053, -1.1889668182994275
-0.266120727413772, 0.6702545617048339, -1.1933431173338371
-0.17098099034029154, 0.11405487660410737, -1.148656846163477
-0.7950959571331996, 1.1499182577429117, -1.1897657885632562
-0.6448919765968778, 0.7047120984188591, -1.1933456792747266
-0.6090224360934567, 1.2841164500622346, -1.193343735529706
-0.7105572154255497, 1.1282739011061302, -1.1933450204340517
-0.31072079756186466, 0.8426431581062055, -1.19334570744137
-0.8311002888383496, 1.0899408890456719, -1.1600553536155755
-0.08811911842757465, 0.7976883737295695, -1.1933457851409912
-0.45424602641943734, 1.2341194160720133, -1.1933431118259972
-0.47506392277223586, 1.3062309038033353, -1.1929002727257687
-0.14386261883935306, 0.8707451246925649, -1.193345882365506
-0.06942253186308449, 0.12836566940838734, -1.1933457851409912
-0.5713854092789722, 0.6965785108712972, -1.1933447671767972
-0.5967175461092806, 0.7038296874417869, -1.193345710936985
-0.012345490249964846, 1.3121580878446162, -1.1926185886735396
-0.010950641202060934, 1.2411408511375934, -1.1933443604014216
0.01134937213367318, 1.1727087940051197, -1.19334562438048
-0.01674150836748631, 0.7139619185663291, -1.1933458201361613
0.026283745748905733, 0.7516542056010374, -1.1933457851409912
-0.05525083145362996, 0.8016611471206017, -1.1933456289643871
0.026076135649116372, 0.90389558402476, -1.1933458915724395
-0.5710150135995382, 1.2346011522337077, -1.1933443303720508
-0.6224874997592476, 1.2724651514615677, -1.193343940600113
-0.3480125938229349, 1.222229487505961, -1.193344061844422
-0.6434828328944499, 0.11423025194379374, -1.1863562022375855
-0.4539941231659518, 0.23684506159656205, -1.1933457851409912
-0.8299175199966234, 0.14410914947085393, -1.183778989390102
-0.27708298289283206, 0.32435893951223543, -1.1933458793133445
-0.2504831758916003, 0.15148538993666663, -1.1933457851409912
-0.31460028142514757, 0.33195049692698714, -1.193345812114008
-0.27600762874985035, 1.314904201552524, -1.1926155915501975
-0.2105706809656677, 1.2115402093311807, -1.193343910717818
-0.8377897900914416, 0.2054578535747576, -1.1770551906774331
-0.816604940243467, 0.11467771851336485, -1.1810994100117345
-0.04804868920868786, 0.7507482609409357, -1.1933457851409912
-0.3939847491969334, 0.29612429776084714, -1.1933457525154363
-0.39860337718218397, 0.3137026479128452, -1.193345763204889
-0.411223057675983, 0.27454963012351175, -1.1933457851409912
-0.4199660044491588, 0.2356242976712039, -1.1933457851409912
-0.5425602690431138, 0.11405479797825097, -1.177028821687365
-0.6542410182332246, 1.2539280797790568, -1.1933451412779341
-0.8162788432727139, 0.8554524010711533, -1.1790184382322468
-0.8320365250251387, 0.6498448736755611, -1.166625581548703
-0.27629343710722426, 0.6612243442168264, -1.1933447017303083
-0.28154963050677956, 0.5977568563241689, -1.1933458932629706
-0.0307848167896334, 1.4245787566853427, -1.1140235376380585
-0.8089023543125423, 1.1893369951443773, -1.1807312522721465
-0.8329372121093304, 1.3836531768006284, -1.1531966778947642
-0.77230949654949, 1.4230996215318714, -1.1380764719553695
-0.11538946025359306, 0.12022890464337084, -1.1927346034660125
-0.7812037414863167, 1.2501174199697367, -1.1916329239383907
-0.2625592975042991, 1.3916193291065115, -1.1813519625194335
-0.8167674378553066, 0.9903241936861661, -1.1741899262673448
-0.8151293572606115, 0.11793380716982681, -1.1873059803028494
-0.7954187030875297, 0.6700471026184812, -1.1919862735274926
-0.8330969946097366, 0.6853194843338846, -1.158496176682003
-0.30518951536163663, 1.3733674007325976, -1.1890484023716645
-0.21110955169018597, 0.7006703287753985, -1.193344861472596
-0.22273895553201734, 0.7212617980759259, -1.193345519517064
-0.7075268376377815, 1.20145357360026, -1.1933456148032482
-0.5662140328524339, 0.8837639019037086, -1.1932996838449856
-0.8387491804163318, 0.8405984850452932, -1.1420703041747247
-0.5458416800646657, 1.3957698780242154, -1.1785899829595008
-0.7966532846653784, 1.0069760912557082, -1.1863837593065178
-0.48758697681793606, 0.6266216534019848, -1.1933452457531575
-0.7034797111921836, 1.4129655642821826, -1.1569674242492518
-0.16306658346969796, 1.3954261047963246, -1.178695560548563
-0.7585192540662287, 0.21409327927126176, -1.1928777585682657
-0.8037736723601234, 0.1354727598678103, -1.1933457851409912
-0.064321450895432, 1.3523762536155224, -1.190756694808851
-0.12197310164552147, 1.377631917329278, -1.187601016566046
-0.4393312229358218, 0.6129608260744125, -1.1933458612566574
-0.6411588553195203, 1.3741164440247764, -1.1878893258138308
-0.7227437348682639, 1.3666155820664492, -1.1896251285494306
-0.7227085683988157, 1.0886525705601084, -1.1933449028763954
-0.7488300299223893, 0.9950972043226438, -1.1933083253418273
-0.7452571511316595, 1.046331228113714, -1.1933419113517012
-0.670107277112429, 1.1122217659247968, -1.1933457301726622
-0.3480384549751437, 1.1715477501030351, -1.1933455771560408
-0.3650114444692975, 1.1803818541641544, -1.193344195648259
-0.12329114961350313, 1.1138347699597257, -1.193345779893308
-0.6675497321774087, 0.7654910169809708, -1.193345303735156
-0.6677822508556168, 0.7933641226148436, -1.1933455297420534
-0.8206041455468428, 1.134083977030621, -1.1762067074037257
-0.7085024004195813, 1.372983848368106, -1.1875719918954954
-0.8364141625754673, 1.2707926310075206, -1.1348491417531177
-0.16167909656131474, 0.13452775240545062, -1.1933457851409912
-0.22307076397411918, 1.299983374286862, -1.1930605758895987
-0.1773627946820368, 1.3591635120309171, -1.1904025846950508
-0.39505932149952855, 1.275592878238904, -1.1933400752320615
-0.380561484043584, 1.2710315810895927, -1.1933413288718446
-0.02106427292730651, 1.3814436705512572, -1.1858259049073792
-0.09643204698726843, 0.6084520767086555, -1.1933456316000253
-0.6720476834971502, 1.2180165777208525, -1.193345693306508
-0.5648613698686187, 0.9991187615313213, -1.1932762483070467
-0.5843418483940441, 1.3558153185164137, -1.1906156101422227
-0.6139782423657303, 1.0336560574357874, -1.193344373069674
-0.6084813777869946, 0.9873311687985424, -1.1933427197944266
-0.6678458785993315, 1.0873012249833156, -1.1933457049410063
-0.3154316770041785, 0.9529502150676195, -1.1933458234855032
-0.3136836838949248, 0.9724503756345695, -1.1933458809321382
-0.7394712181946613, 0.9284347443392437, -1.193270530941328
-0.8424527746994602, 0.3156024899125451, -1.1552929984341669
-0.8420483713409275, 0.22189197995987164, -1.1482033881529197
-0.8352685139922372, 1.1289625460059438, -1.155220278297997
-0.14300102206784865, 1.0470903144130745, -1.1933450107478285
-0.3889744867936575, 0.7750780362090386, -1.1933458163492423
-0.7596167304974111, 1.2114356373239736, -1.193343727733588
-0.7433693758244317, 1.1844953004944367, -1.1933442415315318
-0.5299407096058915, 1.361622386479146, -1.1902931916687998
-0.3717289364651461, 0.9821164584299031, -1.1933458828087757
-0.3722887713197083, 0.9652008048557974, -1.1933456148311696
-0.4368625305561727, 1.0482554110448927, -1.193345512192707
-0.4910929048485772, 0.9676263305032531, -1.19330141984504
-0.5471887632162126, 1.0244135592582866, -1.193340461805959
-0.767055782363216, 1.2611222175567693, -1.193342648632091
-0.7158812572157375, 1.2675441996547179, -1.1933457523490458
-0.7589146118830832, 1.3135457186774528, -1.1927590792228955
-0.5037941453603006, 0.6223650212729682, -1.193345262773014
-0.5338252526012814, 0.6309156935270696, -1.1933451601519813
-0.7601379182402138, 0.7909033544345043, -1.192856893399186
-0.4462754092626146, 0.8765302278513779, -1.1933459043502808
-0.43339919743418315, 0.9211867137897118, -1.1933459010653955
-0.15034116523678445, 1.1556152832926276, -1.1933457701798926
-0.17068635521815173, 1.2193003804509694, -1.1933440051740976
-0.4954202748041444, 1.1282177528247634, -1.193344648772407
-0.521651664847685, 1.1616785479657792, -1.19334516495157
-0.5186406889074019, 1.1876012112076306, -1.1933447670813675
-0.2298664926900173, 1.0937699837255792, -1.1933458061925482
-0.21991107646584, 1.1175616422536927, -1.1933458316479442
-0.4229679852878274, 1.17276945352478, -1.193345473957021
-0.41892881657137854, 1.1249359844443736, -1.1933457244375383
-0.6871308626946039, 1.1481919559888185, -1.1933446242498822
-0.40280910084668964, 0.11405482473392847, -1.1835942325604534
-0.7139247799628696, 0.8708242451781826, -1.1932899241155166
-0.03803806514824361, 1.1832515990070611, -1.1933453336028752
-0.031322744081757774, 1.215629023537772, -1.1933448697545703
-0.5466305451535749, 0.8794645307647793, -1.193251960448337
-0.5323761089394965, 0.901600841209266, -1.1932410271968599
-0.05150649408099489, 1.3489526230222089, -1.1909370780282522
-0.12038145212646173, 0.8710979869375299, -1.1933444528894193
-0.14508652131783442, 0.8274669533026886, -1.1933454980288545
-0.7751358025866042, 1.0542873374602346, -1.1926434987209205
-0.6652340832139183, 0.8400580420546147, -1.1933456947485466
-0.5963911708502632, 0.9469394286637572, -1.1933418757194256
-0.6958006240565702, 0.1711650941979037, -1.193343063148954
-0.6924197954104295, 0.172845173596537, -1.1933429060279144
-0.6505217118812253, 0.20181679044349182, -1.1933458534780832
-0.6670447919212179, 0.19811610215461326, -1.1933458971743065
-0.15198491158090943, 0.7298668956233261, -1.1933453521700343
-0.1344098462249924, 0.7712108179098552, -1.193345471631974
-0.026877343071122318, 0.6843409599069071, -1.1933458614949473
-0.7156547613197315, 0.7524559290935287, -1.1933429261001756
-0.3888975706209235, 1.032918642292795, -1.1933458215944996
-0.7618032606750729, 1.1814058318031526, -1.1933414482219018
-0.7951445586045053, 1.2124834200087409, -1.188475000498559
-0.49865552917665673, 0.21778950290493937, -1.1933457047145568
-0.5400763270293223, 0.14130689187979767, -1.1933457851409912
-0.5313901157931247, 0.31352337410702713, -1.193345791195612
-0.17656105565552987, 1.2762236219779854, -1.1933423166737427
-0.1585133364899798, 1.2350702446293287, -1.1933430878616886
-0.258790613978735, 1.1401643977794003, -1.1933457889539787
-0.7844445544544839, 0.7786414944576565, -1.1901763254412516
-0.15028975294535862, 1.3131844457803077, -1.1926222133424835
-0.17494356544572626, 1.2973539362595206, -1.1931338118458
-0.6945623490035746, 0.8444967714004803, -1.1933316852875309
-0.7456624128127316, 0.8811880542176684, -1.1933041389908956
-0.32986261196231637, 0.1194534131149513, -1.192555906367868
-0.34400895162903866, 0.7982181158956583, -1.1933458227335347
-0.3154058092725849, 0.7737722705769876, -1.1933457796496345
-0.023287891674779425, 1.0813852715176944, -1.1933446287782403
-0.04089338383705749, 1.1261468170606599, -1.1933450212548917
-0.3565396749161074, 0.6178819573937102, -1.1933457085553636
