-0.1241407435078598, 0.23087665722373973, -0.11781578169431536
-0.12248665040699291, 0.24663790855315448, -0.1195412124492633
-0.12162333820864576, 0.2146869427581661, -0.1209803020818085
-0.1264440140553121, 0.19258057396222558, -0.11559530354081186
-0.12661885770924558, 0.19315071112069496, -0.11538583739473676
-0.11263207221166557, 0.17854876881757156, -0.12969260127484655
-0.11791682677915585, 0.18015474436916817, -0.12505897645449032
-0.14174721700717482, 0.26776851767216814, -0.09519281719662363
-0.14042446253038843, 0.2830538232970738, -0.09709669319399095
-0.1409485541857194, 0.2396113118490059, -0.09696524065574841
-0.147266112562954, 0.2745227862476804, -0.08607425477363294
-0.1422773209358503, 0.29620508075057944, -0.09385398826262081
-0.13866921360328227, 0.27950887902055765, -0.1000200645492563
-0.14090555030292604, 0.2824491870604342, -0.09632170202760253
-0.1439378937672477, 0.2475580232938647, -0.09195467666982561
-0.1445655766904103, 0.25417928744133717, -0.09082007413151269
-0.1408429872190493, 0.29930437640073976, -0.09614297434183754
-0.14114800610941058, 0.2634744266411932, -0.09624218490984199
-0.14186003068295494, 0.2785054663244366, -0.09482983526453381
-0.14433947638769645, 0.3009723396157172, -0.0904094255497502
-0.14202320021732007, 0.2723811557370059, -0.09466560255476539
-0.1490567713152296, 0.2850197397279404, -0.08297727349743889
-0.1414219918931185, 0.29564020292349624, -0.0952591715461234
-0.14157418917049353, 0.284721885016018, -0.0951927161101615
-0.144676963007667, 0.264881852770149, -0.09045999429465734
-0.13856455148765157, 0.1902804921321508, -0.10142305377888282
-0.13809081315153643, 0.19922561215381485, -0.10190325175246977
-0.14638412053248154, 0.1972843039306051, -0.08878403834036139
-0.13952340304103256, 0.19278215667024498, -0.10002630970193581
-0.14556660299484633, 0.1987652187366501, -0.09010278094108876
-0.1392407614669963, 0.1783827618124576, -0.10147787925894988
-0.12395253646007554, 0.17602869109628702, -0.11958412446792337
-0.14938992854916722, 0.19674572316732836, -0.08388457635850574
-0.1487223214206656, 0.1896214207355254, -0.08504782179909401
-0.1555106824434851, 0.2987743996102238, -0.06966434869123177
-0.15352771347946942, 0.26816974027960105, -0.07514784900403679
-0.1585883882213479, 0.3007216456322948, -0.06218982659786726
-0.1545872822645612, 0.22185230168135928, -0.07364346242260827
-0.15239273680556312, 0.28355193988433436, -0.07753800426504656
-0.15396184863352785, 0.24510374271386812, -0.07462446375053004
-0.15365882215378251, 0.25238316415474377, -0.0751904400098479
-0.15404883738818925, 0.26187197239335247, -0.07403300913836358
-0.15355674936117417, 0.21214155084064895, -0.0763522857850259
-0.15594128591801376, 0.28120848968746315, -0.06902437304667397
-0.15927409940674866, 0.271772794271548, -0.061192907960349804
-0.1553848044627035, 0.299087705916641, -0.0699611173569716
-0.1530643124945044, 0.2018793956318605, -0.07777457609685097
-0.15741358891185023, 0.26544775409142607, -0.06582845242430775
-0.15325081494078713, 0.21872270216723402, -0.07694116674781823
-0.15507579458288567, 0.2345215009562675, -0.0721758910861319
-0.15622007699655024, 0.2979430372373799, -0.0679706336844624
-0.1551657850579804, 0.23449570364668365, -0.07195922208393093
-0.14385326504362275, 0.17936100034337926, -0.09393242252955511
-0.14765232436736309, 0.1764736236444293, -0.08804696729779937
-0.15812669214993105, 0.19451117719049002, -0.06567440406503046
-0.15446570425600098, 0.1991144733139221, -0.07444766587982818
-0.1576965959049886, 0.1912047105821657, -0.06675949783271405
-0.15942042362132325, 0.19479284012508905, -0.06254707964197756
-0.16442499125221247, 0.27842852636204063, -0.045541551769761025
-0.16322710040761798, 0.2282030568461626, -0.0524041093693029
-0.16623108635226763, 0.3007015530130748, -0.03718801595875579
-0.16360128902981416, 0.2797212630959972, -0.04892431954618006
-0.1654828971721405, 0.25111439618492604, -0.04215362300703689
-0.1656453272215041, 0.2782210379358187, -0.0404662110123806
-0.16418629061656526, 0.2741631638180308, -0.046694874716884036
-0.16499736393712472, 0.262952545748537, -0.04373456037424243
-0.16386044242072148, 0.29250839056548467, -0.047368017304409794
-0.16578947324107607, 0.26299086534147936, -0.040433750166910525
-0.16696666641768848, 0.28722220938053916, -0.03462675806569995
-0.16334582635476066, 0.22770229283241777, -0.051928253045062066
-0.16681434765880326, 0.2889351978634395, -0.03519733352346435
-0.1663060594322832, 0.27574437199360435, -0.03780641413425335
-0.1638892750545235, 0.21113765658440548, -0.05028233635260521
-0.1661261177280704, 0.2778876020323989, -0.038476003493991655
-0.16468386636131366, 0.2788276729299065, -0.04444837188054525
-0.16485978748262373, 0.2641274902780598, -0.04426379388488717
-0.1610900751431597, 0.17756218884611347, -0.06013856527314815
-0.16079882252120278, 0.18380628733670074, -0.05991448397863403
-0.15781706925485578, 0.17714787860873765, -0.06810181605469745
-0.16351438228034695, 0.19168385672063382, -0.0524536607381607
-0.16620171668592182, 0.19686614120859627, -0.041139963325517455
-0.16697219688728815, 0.19341604180071076, -0.03801063484836804
-0.1674326345039148, 0.19245196596812986, -0.03611513412301871
-0.1704294717268518, 0.3020424089030913, -0.005176115254597785
-0.16987295855318144, 0.22939249769772607, -0.020307929544022336
-0.1700888423616031, 0.28662294826647655, -0.011215020715610643
-0.16922070061593192, 0.25315691781445804, -0.02595887388134235
-0.16947928823543226, 0.2879098681132023, -0.01881730094655535
-0.17014846584803078, 0.2799579833720466, -0.011196932343000992
-0.16925469104854138, 0.2839663787148007, -0.022108599663285808
-0.17053645228652853, 0.2894823959001491, -0.005210372796758977
-0.16977913153050572, 0.26266445269762295, -0.017808499161104697
-0.16974664169474518, 0.23371598990294495, -0.021433224162725993
-0.169520345110651, 0.2454617902355712, -0.02300534918073783
-0.1695120251000694, 0.26497660674427337, -0.020945845895989593
-0.16976428665609583, 0.2922909878980672, -0.014709980767302596
-0.16945617355353632, 0.27388275132466855, -0.020667342987736575
-0.1703677925220264, 0.28952190471541356, -0.0073490002274822705
-0.16934821842974576, 0.245171036406426, -0.02522467114081224
-0.17006460104992865, 0.26396793139794367, -0.01403666521997007
-0.1700372386348002, 0.27229314144855005, -0.0134606321764058
-0.17057842907039006, 0.19768344317878433, -0.014770356690327488
-0.1714655056576039, 0.19863486640268213, -0.003433457080290745
-0.1674299946385321, 0.1769007880951624, -0.03889237612912292
-0.16809451871863884, 0.1802568943360562, -0.03530752519899527
-0.1707080546755238, 0.18974419057132236, -0.013670970201869206
-0.1708999767246207, 0.18816164172862934, -0.011341500527302246
-0.1701727618302613, 0.2887398572049484, 0.00992674051052878
-0.17128860435895696, 0.24661650524485818, 0.0004224563363343717
-0.16988633198297198, 0.2941063477904742, 0.012970718594375747
-0.17060830190239762, 0.28420427317817165, 0.0048959596251721416
-0.17088517656021562, 0.24430461814024657, 0.005804965996277868
-0.17060515957537253, 0.266060363344662, 0.006949016523683797
-0.16967198844107606, 0.3013556883755715, 0.014889851419772032
-0.1703095310820022, 0.266541413434234, 0.01065193029139731
-0.17009783318528476, 0.2574275238519739, 0.014353004781315609
-0.16968229478080782, 0.2861329048176903, 0.016447918928499176
-0.17120492917003127, 0.23369692797022845, 0.0029191146431541163
-0.17048665071419775, 0.2811095531620933, 0.00678504291271362
-0.17057245730116588, 0.2924894883920832, 0.00443213149007262
-0.17098256497353648, 0.2817812301557672, 0.00040937721263390646
-0.17098650837360493, 0.2516438653985404, 0.003703117788554822
-0.16984310459838872, 0.2729929985481061, 0.015862570286900968
-0.16997504761162774, 0.2925811636757108, 0.012012712621213183
-0.16976401470817826, 0.27397807962869775, 0.016758196892574597
-0.17175402385102218, 0.17593904990316986, -0.009120646164872527
-0.17188418036848205, 0.17569182104683867, -0.007645922323783815
-0.17086577538736417, 0.19850554223208897, 0.01107542154828298
-0.17125710860366317, 0.1989670455144127, 0.00607129182543235
-0.17111806387652423, 0.19430179473850206, 0.008159734636680715
-0.16916138851507573, 0.2231966058361125, 0.027885460655387734
-0.16789066938116498, 0.2887224231705222, 0.030734901739913806
-0.16780525393274606, 0.2622003535485965, 0.03207970638054869
-0.16895427814788824, 0.23707532172932572, 0.02823059383897878
-0.16838582220196013, 0.25426630791574023, 0.029957326050493387
-0.1658001112962614, 0.28326922066747473, 0.03964607212926077
-0.16509871740654028, 0.27459717243678744, 0.042890978993333065
-0.16570820028757513, 0.27365037593588293, 0.04038760192670966
-0.1660124961562079, 0.2731569103470437, 0.03913851765977034
-0.16621029122712289, 0.30158227534133086, 0.037254642364545454
-0.16786467529294297, 0.27645658626343145, 0.03130057513142872
-0.16749297779725913, 0.25929271902827916, 0.03348885986658844
-0.16829708128075238, 0.241863167789929, 0.03078947941408379
-0.16792819636544748, 0.24546915658934731, 0.03219152916772086
-0.1686130964746968, 0.2704871479502668, 0.028405774475672496
-0.16547299058386075, 0.30010368468926496, 0.040380863784533344
-0.16439772656878074, 0.2856568471373927, 0.04539839987539187
-0.16629261747041216, 0.2852050749597915, 0.037522443338806485
-0.17146939175053405, 0.18928047053104585, 0.004042041758974488
-0.16995487142973104, 0.19603847959419884, 0.022819622325602716
-0.170431505218013, 0.1776204085049241, 0.024719874859190184
-0.17073829790693784, 0.1807684808609933, 0.018541973591364832
-0.16640431824763674, 0.1995170968006263, 0.04024748942191911
-0.16634342854931786, 0.19697744904696007, 0.04056000513984941
-0.16592079402370105, 0.19450404430939172, 0.04237775961002502
-0.16426757240926426, 0.19110552833814715, 0.049342652350250316
-0.15466873140560583, 0.28665191033256293, 0.07198562422346773
-0.15893546179381868, 0.2746867484666793, 0.06195702163045853
-0.16072097756879278, 0.28685728425968016, 0.05736954790376001
-0.1623863276209646, 0.25941815380541566, 0.05397323678399301
-0.15839038539623304, 0.28643978096692346, 0.06300558867528544
-0.15810687177896657, 0.2814959421689883, 0.06380251510176041
-0.15954045458631194, 0.27771799143431275, 0.060427484892768696
-0.16146199447172027, 0.2454791509959483, 0.05652186303340891
-0.15714036927315683, 0.26386563695274545, 0.06653691838757968
-0.15305957789807986, 0.3008647037012971, 0.07554714317416228
-0.1609992802946629, 0.2635455883808617, 0.05722797028016328
-0.1601028440801018, 0.24312714758731102, 0.05985664435861371
-0.16209868770494396, 0.25156463683399843, 0.05484631553417314
-0.1585455776654991, 0.2493478508055516, 0.06347470425217523
-0.15975382038305574, 0.2647198746054886, 0.060208061204351127
-0.1564989220756465, 0.2711707583383174, 0.06791932788379389
-0.15713749506025418, 0.28700002909061556, 0.06601758661109364
-0.1623153281570409, 0.29142561163863345, 0.05341652562167301
-0.15838317860983428, 0.19871952778625573, 0.06500850205063752
-0.1601143054873331, 0.19628847083790635, 0.060863564082881974
-0.16416400397443634, 0.18535660570279977, 0.050450766324562496
-0.1644192285204863, 0.17771569532629294, 0.05124770990515304
-0.16899415086435216, 0.17633224052060031, 0.03252833583549195
-0.15452528536963553, 0.1879068341230154, 0.07447518972348294
-0.16211186886649057, 0.18876211780713945, 0.056147421685150065
-0.14848021852622906, 0.2934595819202871, 0.08379037513916326
-0.15086816982992593, 0.2249510984093493, 0.08103500797700722
-0.14952924919306496, 0.23708370348078972, 0.08301778881404295
-0.15117901024568353, 0.25273712586168484, 0.08006481937746734
-0.15192495850322568, 0.2829676345554274, 0.07834387115352562
-0.1471596412117984, 0.24832984051622167, 0.08669726959471778
-0.15196713048460203, 0.2661415497522941, 0.07855539185364602
-0.15156118844815875, 0.21590764337399132, 0.08005477617005465
-0.13931255649101487, 0.2985804926030039, 0.09866533496028017
-0.14730712010041727, 0.24868680418581665, 0.0864506583212349
-0.14483209287405774, 0.28855061249267805, 0.08982536918299727
-0.15144876865364437, 0.22487272001758402, 0.08008886175070498
-0.14375557187515994, 0.2649169024197806, 0.0919758544368787
-0.14834357952552857, 0.27492940815357714, 0.08432208092931523
-0.15028836038564786, 0.26900152645374154, 0.08124724828971361
-0.14986395108771822, 0.2905784462445407, 0.08158032920209812
-0.14990333747732204, 0.2805020413492195, 0.08168393924782319
-0.14503846201487697, 0.25998876363792467, 0.0899644736281201
-0.15177798767016934, 0.19114226620530314, 0.08005855837835034
-0.142393203618404, 0.19710465114599038, 0.09531137519618448
-0.15685698870774128, 0.17638734894301145, 0.07054546058994118
-0.1619299219675971, 0.1761870646691137, 0.05832804969882033
-0.1414840567772132, 0.1954972440189991, 0.09681159268647278
-0.1458654766507902, 0.18938222485365067, 0.08972507895431517
-0.1383227497615554, 0.22779580913551614, 0.10126489216570218
-0.13042059539501508, 0.2723227110661133, 0.10992027792623307
-0.13316371604753133, 0.2840610620250892, 0.10655115690401123
-0.13775139195846697, 0.24592491857543736, 0.10169086188272938
-0.1318862271586395, 0.2853991055889039, 0.10802896792594473
-0.13005103184153607, 0.2706081632548105, 0.11037596286392827
-0.12910497397900744, 0.273822102605347, 0.11144057364985441
-0.1350626017109906, 0.2644276774515295, 0.10459101627806744
-0.13543850619381384, 0.2838038344555016, 0.10389116963251462
-0.13858409778196423, 0.2491643692873099, 0.1006724674989316
-0.13830596079779703, 0.2576707536958192, 0.10088410366671596
-0.12773477075347456, 0.28793780652573164, 0.11285566648700583
-0.12512687665262012, 0.2887966763277608, 0.11589760364835963
-0.13496895961653327, 0.22671926041661794, 0.10520610325220248
-0.1287969813683526, 0.29482922683495505, 0.11151960545364792
-0.13442363354563508, 0.2595304540450256, 0.10540479407025755
-0.1306652983623347, 0.2767182221880579, 0.10957485002924222
-0.13492290689000214, 0.26063327622762883, 0.10480543820073623
-0.13700067246747527, 0.1983610656387052, 0.10319969243738014
-0.1340836071219686, 0.19695930805312978, 0.1066268065047683
-0.14741928980305816, 0.18053701202259007, 0.08799818463415178
-0.14584335639497195, 0.18097441133936698, 0.09052229047058835
-0.14483468591122542, 0.17796251827853315, 0.09249586041189915
-0.11287168602572478, 0.18681359986156104, 0.12888314457792727
-0.10218988093651774, 0.1780106598023965, 0.1386641180671297
-0.1268985385202091, 0.179721266859991, 0.11582453644456461
-0.12994364845928888, 0.181684220574545, 0.11208742807553351
-0.12615428323913452, 0.18932688653849028, 0.11597443101191163
-0.12202326122649786, 0.19943161749082083, 0.1207270776714469
-0.10861467067824386, 0.19409297012642954, 0.13239885167921298
-0.11048258367064218, 0.19665640108856652, 0.13078525714277817
-0.12061243986275524, 0.19608498782789083, 0.12213758975686843
-0.12024940495164652, 0.18888906003996062, 0.12249884940037778
-0.08268087598681294, 0.17966133924291547, 0.15071650339487191
-0.08462404936831652, 0.1842767825282491, 0.14921814699087352
-0.08088667479761102, 0.1983735611841373, 0.15120504271816132
-0.08234141173363738, 0.19761822538287344, 0.1503183718852928
-0.08241393853371974, 0.19323407369992346, 0.15030175518609237
-0.11937096689177604, 0.29402770554981833, 0.12209306341954008
-0.11101066515261965, 0.23821473367518994, 0.12987240922603438
-0.11569372884566141, 0.25365544643210963, 0.12569591939651242
-0.11742293381849947, 0.26775446559858007, 0.12405762699298947
-0.11505671127488254, 0.22338376294563211, 0.12658654368643635
-0.11941456098407266, 0.28739379328696985, 0.12213177746449001
-0.11831624911259853, 0.21176752830444123, 0.12393561741146952
-0.12035678306722551, 0.2214562779645519, 0.12208191461096438
-0.11806404552031843, 0.271303259260728, 0.12346943745084321
-0.11217463028434153, 0.24930594933395894, 0.128751312166488
-0.1102990849129038, 0.23212504726604105, 0.13054987355678138
-0.11693950200570119, 0.21550865652278825, 0.12506864269095855
-0.11683059468806192, 0.26808063805045074, 0.12455979901653771
-0.11775490740456362, 0.27356659626965557, 0.12370755538092428
-0.11710092539646699, 0.2015930367301077, 0.12509008398348548
-0.11354510971177045, 0.24098444271941785, 0.12767607751239152
-0.11101130121278144, 0.23449617907624312, 0.1299144370809353
-0.11305642152749118, 0.2364953777629531, 0.12814484938537568
-0.08851308329479898, 0.19070771938807507, 0.1465802238486357
-0.08993418379382077, 0.1907805362665505, 0.1457089086494781
-0.055901339311784266, 0.17772381931916065, 0.16281086310964676
-0.05722429699383329, 0.1825213376672879, 0.16196781458197276
-0.06981530412646422, 0.1971362852734734, 0.15637176349900295
-0.0632511894452447, 0.193876574521977, 0.15910979490338703
-0.0910838526370377, 0.2174134025682632, 0.1447676057270502
-0.09170084387250751, 0.20578782524270586, 0.1445082091013457
-0.10089654193030637, 0.2069304965119986, 0.13886140330659583
-0.09760704033728669, 0.2055705956765193, 0.14089109992027138
-0.09256448916252527, 0.22259761213365942, 0.14380733863118478
-0.09874312769264901, 0.26227550932729504, 0.13961594899438892
-0.09608130031002604, 0.2596981442215659, 0.14127343605771547
-0.0995468233830411, 0.28016635850684923, 0.1389407781405327
-0.10082494422591316, 0.2136860773637299, 0.13883630431431745
-0.08269542198856823, 0.20829387087408965, 0.15000116009787817
-0.08489364785868171, 0.21198142518252897, 0.14861643383459663
-0.10026283313177128, 0.27218890337541024, 0.1385834556357946
-0.10037990216057127, 0.22579123416175167, 0.13898543371511485
-0.08478528429073842, 0.22016536349845486, 0.14859928155775265
-0.093614432506616, 0.24176731100843457, 0.1429682098031865
-0.08830402419590515, 0.21799506340063557, 0.14646515051980588
-0.0940574479452888, 0.2593610996145904, 0.14251709738714013
-0.08693492953443802, 0.2344566154565354, 0.14713606229381845
-0.04802142688104493, 0.18642080653626705, 0.16464657289464382
-0.03078740224327115, 0.1868396337937786, 0.16875961516477742
-0.05606678589683361, 0.18784064525267813, 0.16212101894418504
-0.07753626275667357, 0.189773417626139, 0.153216776615068
-0.032304635159221794, 0.19215058132113932, 0.1683137381196327
-0.031440546833464283, 0.1970822732841154, 0.16849374511125106
-0.03935449455020504, 0.19764313470971256, 0.16659065523306382
-0.07270040259631164, 0.24572423189477152, 0.1547286539062407
-0.07037455986358723, 0.27231607802213886, 0.15544147598370545
-0.07253793441683705, 0.21946111589102613, 0.15504342440555935
-0.07610821873751011, 0.24467722241310186, 0.1533269587776466
-0.07516032647645998, 0.29170415398696503, 0.1532764588798389
-0.07255407045330563, 0.2513128489233799, 0.15473660569951878
-0.0751578534640327, 0.22550944296219017, 0.15390122783460253
-0.06398444418178523, 0.23836750266234494, 0.15840823675322227
-0.065528699399005, 0.23928104065644035, 0.15775997836332914
-0.05702631269917698, 0.2103284053131766, 0.16155459263928873
-0.06597822937620612, 0.230705476812681, 0.15765458378632974
-0.07458748063595663, 0.27622725121019054, 0.15365957589014334
-0.05859753795015176, 0.216139044936145, 0.16084901813202765
-0.06343221384268276, 0.23309664012593198, 0.15868664430057472
-0.073334798896809, 0.21667328110647532, 0.1547396223839943
-0.0754978834781076, 0.22354519152549898, 0.15377889195908706
-0.07639063109177888, 0.27407629256086463, 0.15293295615992175
-0.0707048970215025, 0.25347439690543094, 0.15548218895221427
-0.05177954041344676, 0.1897802958717727, 0.16365142206046043
-0.04205364662363764, 0.19370379931523493, 0.1659645670813317
-0.001217087836073809, 0.18134339338918717, 0.17202235673637029
-0.01490567462865764, 0.18286596177822997, 0.17085826544394164
-0.0028734645658627426, 0.19554020401775282, 0.17148070587076414
-0.0005843706998944268, 0.1931547438195816, 0.17167380520787093
-0.043974471653159646, 0.22397669579949786, 0.16525330712772476
-0.051176855223924775, 0.22430182536618998, 0.16352125858137068
-0.05007019237059498, 0.27873123218390844, 0.16329964824728704
-0.05112382448120004, 0.21189540227603787, 0.163645062518183
-0.043126870526368176, 0.2517832408201714, 0.1652078511525946
-0.0496987930812672, 0.2723725997550613, 0.16344574089690198
-0.038809483238183895, 0.20287691307268968, 0.1666822124203058
-0.03137156914908874, 0.20503773499802813, 0.16844855052891788
-0.048215088493586994, 0.2531100522816155, 0.16397440052334125
-0.0347301757688123, 0.20065404379704588, 0.1676814675302828
-0.04879475291954702, 0.242303205611963, 0.1639319872191295
-0.043600945547857504, 0.23110680471604583, 0.16527914819299613
-0.04148424604258545, 0.21803952921482134, 0.16590431119889393
-0.05061326673387722, 0.24622671372206167, 0.163460274643362
-0.03387234598606308, 0.22275719709778555, 0.16768952863898887
-0.03129350366604981, 0.2045745785168714, 0.16847143892965125
-0.03591544736267771, 0.22528717765458267, 0.16717637340194258
-0.049836561224928314, 0.22143041620128134, 0.1638687415969896
-0.018973622060114003, 0.1885720667929424, 0.1702514217662397
-0.011501694496968683, 0.18793873442827003, 0.1708429064627845
0.025926519505930286, 0.18344429030983414, 0.16994896083705868
0.005894016627311985, 0.18600762526519118, 0.1713794263337279
0.02531356264227016, 0.176558998744227, 0.17038966392875793
0.00938537359780273, 0.19568867942409593, 0.17095842239299003
0.014399357318210276, 0.1988378648228235, 0.17054672142710647
-0.006921060512796935, 0.20262294772385117, 0.17111464177256258
-0.01950713748113937, 0.21275590488300994, 0.1700356135556243
-0.012290500548678071, 0.24030727567451032, 0.17036298056393956
-0.021959974200759284, 0.264481518189702, 0.16939087753494905
-0.011220125612960265, 0.20977584047760878, 0.17071383656838082
-0.015832425790773118, 0.20316802356349578, 0.17040854481697038
-0.01288507045960852, 0.24576376256734134, 0.17026853825780766
-0.01565464067050979, 0.22509940780616228, 0.17023102078540744
-0.0034175051133507, 0.20558854176853836, 0.1713644794762772
-0.005782587838000206, 0.20717826626236885, 0.1711644618332639
-0.01136939602585706, 0.22003534006183326, 0.17061249762055877
-0.013995750727053882, 0.24944220919901988, 0.17014900408468855
-0.02426122852917163, 0.25891338257215685, 0.16925838934268858
-0.01517382268182676, 0.23128364870711737, 0.1702148579138784
-0.009988610131587299, 0.20881803599165133, 0.17081912261675244
-0.008722239982728055, 0.22792091515761811, 0.1707519717108833
-0.011257644690430309, 0.22745064951277583, 0.17055653836529402
-0.026762738094807274, 0.27195059891561735, 0.1689476694080624
0.014653205913658799, 0.2156440072128469, 0.1703834181205401
0.011321277911717127, 0.22414050123115944, 0.17057145074684035
0.010585325691479956, 0.21065028834610283, 0.17074717376536858
0.0019659724295787696, 0.2704579990285222, 0.17090326260950395
0.0018429240242546037, 0.28034445141924424, 0.17082661385439316
0.0006286145632681204, 0.24773245327412297, 0.17120696414531666
0.014441422609163446, 0.21693318228555802, 0.17038882814169753
0.012885774303368366, 0.2141839256757952, 0.17053526772233218
0.006852889690045744, 0.2670032643238276, 0.17054882312885297
0.019086072419161937, 0.21380537685662374, 0.17005060058381366
0.01168954176265001, 0.22230846943126667, 0.17055846593483284
0.009309643816228149, 0.20664072149196486, 0.17088258514983476
0.007936444389265678, 0.26324126405648945, 0.17049639718391266
0.015305548756712509, 0.2174753066100664, 0.1703160860453617
0.009243846337108733, 0.25106536458051204, 0.17049982799147667
0.0014781779456940855, 0.21303256987452382, 0.1714431168694785
0.009052673628733422, 0.23436468033272093, 0.1706607112902485
0.00010076973407414748, 0.23663330643318634, 0.17134542895880636
0.030115017912060768, 0.2179835528070224, 0.16860690094430575
0.027171804639906788, 0.23860693321219323, 0.1691288610668432
0.027160943978260847, 0.2701966210480318, 0.16884864784751832
0.04604303203035343, 0.2822688956786318, 0.16420739615241084
0.03205970961091898, 0.27137691856144797, 0.16766199605279378
0.031577582037859236, 0.2373064078361775, 0.168082775443086
0.03035360243014699, 0.2170786619494305, 0.1685577235433652
0.03927225606287611, 0.2905558057589565, 0.16575871663316805
0.04225119294027252, 0.28973700385348194, 0.1650508708377888
0.04679332133870198, 0.2837011494511899, 0.16401444549487396
0.031167321961549803, 0.2984450052473241, 0.16763389948446764
0.028732360479229557, 0.22270239183846238, 0.16889659874900015
0.03816518588876292, 0.29716659833313186, 0.16596531351809096
0.03331273424375228, 0.23517041725530663, 0.1676853273935642
0.02867441302005768, 0.2607115113479953, 0.16857021722705912
0.034075916433804254, 0.2871583297825477, 0.1670366595939501
0.037344488948477084, 0.28928178684743466, 0.16623293685270166
0.034738576540117694, 0.2863444687371365, 0.16688485609283948
0.03137966172199246, 0.19129035634227992, 0.1685131766072487
0.03584974813479596, 0.19723012269165963, 0.16740695231142755
0.0013203601995290483, 0.1891137778999381, 0.171628824177165
0.0024102004276779676, 0.196793243470013, 0.1715013810952627
0.07939156947987035, 0.1957896034073622, 0.1520676733490116
0.08846189175771076, 0.1958282684915395, 0.1465091233696583
0.07440343324295243, 0.1856565071088817, 0.1546118807995924
0.07640520241529455, 0.18511929522628343, 0.15381576698568894
0.059515563255373216, 0.17861900575154313, 0.16121145343256688
0.04932363129590231, 0.1939083172870522, 0.16419065017795356
0.049996189722614784, 0.18784362113614067, 0.16406293050358367
0.053334577775946745, 0.2644213526400153, 0.16252676154156637
0.05686360073678573, 0.24827114934446662, 0.1612171710982318
0.05524361224136287, 0.26759473578151566, 0.1617061115795851
0.06574602234262153, 0.3025557551540675, 0.157026442413431
0.052945053780163405, 0.2300924286269871, 0.16301157961375973
0.06347116182968099, 0.27389785408324674, 0.15823875604869322
0.05307359139780979, 0.28648315404187635, 0.16242698341309803
0.053426074123325916, 0.29813094016188685, 0.16217122641274925
0.06910875504046672, 0.28420966892098787, 0.1558064228558787
0.05701525142948022, 0.23693698991496814, 0.16126115395948223
0.07255317302899685, 0.30201205616685567, 0.15421195109654035
0.05858722121018865, 0.2827574728541342, 0.16017826897965193
0.06375832244619573, 0.26690282084268224, 0.15818572247257623
0.056524789667854944, 0.22549903112195618, 0.16157208660939448
0.06146253432152457, 0.27431992151985596, 0.15906677987027407
0.06989672839546622, 0.2949019913543767, 0.1553792827803186
0.06607973969980165, 0.2931721071640262, 0.15697663165631928
0.05974548427981982, 0.30178977064565443, 0.15951916459021212
0.063323547949495, 0.18860763862232596, 0.1590633881896989
0.06078935802727454, 0.18890458452941486, 0.16011134245048714
0.08164754813263983, 0.2279815266770469, 0.15037232000758607
0.08997853085098441, 0.2906542752873809, 0.1446271957937753
0.08839492960409488, 0.29421921334433093, 0.14556122745597627
0.08279513635538857, 0.24346715480911402, 0.14951096711543246
0.08528066898068154, 0.25471021976343344, 0.1478730396793904
0.08453514403163453, 0.2505305378851802, 0.1483725724774519
0.08086757116242656, 0.3017244583658046, 0.1500973604043404
0.07963578123656467, 0.2333829067894921, 0.15154998102675366
0.07810152605701247, 0.21266071627640853, 0.15270174960009777
0.08935714803340493, 0.2826755708167934, 0.1450894430697867
0.07839037502340651, 0.22078007371480943, 0.15244184287152063
0.09229630319839047, 0.27059916811843915, 0.14341163204755586
0.08108354467507439, 0.27684232322332725, 0.15021906319811087
0.0784285227285807, 0.23851610963760866, 0.15223737769591858
0.08040117229851444, 0.2749353199165825, 0.15065669164226772
0.09364927249835636, 0.2757493527881619, 0.1425299485231771
0.08022415932128732, 0.2827983135596155, 0.15068488249085288
0.07861684854663033, 0.21497582330031434, 0.15236232245883688
0.05625950858853282, 0.199335493125814, 0.16192657335823732
0.05827024922735456, 0.194116878250453, 0.16112426216544898
0.04371705926255244, 0.1798155925997574, 0.16603853748287722
0.03814581699184653, 0.1788425294973967, 0.1674329420497741
-0.01873509490766008, 0.45765844341215367, -0.14746085357359678
-0.013536360590755851, 0.45770252723405125, -0.14770662315372593
-0.012959191043762436, 0.39687453897787817, -0.15775355991444642
-0.012260221818807076, 0.4019270753439145, -0.1574782630244832
-0.009976016902904679, 0.4054505888804505, -0.1574276865494971
-0.008288430668412243, 0.3925130062623758, -0.15840629138681941
-0.010889793016992283, 0.393174475892442, -0.15815831562310986
-0.0012471952217037127, 0.3134491457020984, -0.16412921358418603
-0.011364688702002383, 0.4177884391556761, -0.15651181410473042
-0.010491705316345853, 0.43593624253700947, -0.1553941155646006
-0.013112380371401321, 0.42678383438143697, -0.15578619749305536
-0.005080496395769458, 0.3992646481735228, -0.1582173769143247
-0.0031197171975145977, 0.36288631730360443, -0.16074991047717918
-0.004897789128738447, 0.3802690559757506, -0.15947358424688657
-0.0040147432317621185, 0.4161002197442617, -0.15720063628412131
-0.006347049751835408, 0.359150617230605, -0.16074013248729743
-0.004155105278771789, 0.3346291784050941, -0.16251572048957566
-0.012907497314461738, 0.4070261331988163, -0.1570939726215037
-0.002752295133606761, 0.4436272610335884, -0.15550042614360096
-0.014481268453211014, 0.40714006458587026, -0.15696266542710163
-0.003340808300655592, 0.34357227244601063, -0.1619951567509987
-0.01218667420014571, 0.37703159599283104, -0.15911158161699704
-0.01023766456229518, 0.36302127189476086, -0.1601808909762626
-0.0014103658598037226, 0.3333416073553222, -0.16281591140544124
-0.016520601335786582, 0.4130437644319878, -0.15641621419022655
-0.015170709812892862, 0.4140789127453104, -0.15645478105975186
-0.004178964320498748, 0.37117393377193, -0.1601247465520995
-0.004182864506693938, 0.3323011717561023, -0.16266572812099334
-0.025813148471687208, 0.4568082194195543, -0.14973787375244488
-0.013714989581211218, 0.46079067683397934, -0.1453289526042072
-0.03149824213625502, 0.45780904382197396, -0.14457016241801313
-0.035252291394924334, 0.4138161880400161, -0.15319207879382918
-0.026585561682052453, 0.4174493886641073, -0.15502927072254147
-0.03247671881290129, 0.4469788931622062, -0.1516357303055772
-0.03758137044536117, 0.4196583112496956, -0.15224135037880338
-0.046235468666332886, 0.4525434530036617, -0.14795957509346006
-0.027860839627135953, 0.33878789589754466, -0.15999533315523706
-0.033240347379692475, 0.35110569682202936, -0.15787823148153385
-0.02833027511547548, 0.3671745335163969, -0.15798003709911226
-0.035531300429424484, 0.4534178721633254, -0.15047081972223453
-0.029021166849259983, 0.36145238132027624, -0.15819769129919634
-0.03037631377525124, 0.4173100900427068, -0.15412852503649865
-0.0294104562528292, 0.4240698918565966, -0.1539073367732211
-0.03632359003057664, 0.39266927724145223, -0.154352238546568
-0.027806134134324534, 0.33232165094191624, -0.1604418622938422
-0.02751763565575316, 0.36206043755013295, -0.15851790386336745
-0.02471835715172694, 0.42938711855835876, -0.1546774305020257
-0.02778047963262424, 0.4218235074840535, -0.1544492231500055
-0.026015621890763254, 0.33268730395691043, -0.1608472200439458
-0.031602499106116136, 0.4549466683727047, -0.15131157811868304
-0.027746925353413172, 0.3358350539706942, -0.16022059377298667
-0.03933600304872442, 0.4387458110369846, -0.15054077286871262
-0.024927347585189615, 0.395674629780281, -0.15688681174975405
-0.031815693984213585, 0.4534774173689493, -0.15135886989047825
-0.03199855998818715, 0.38683973680153244, -0.15578131063708758
-0.045284293085527325, 0.4383517295154783, -0.14913912307511104
-0.02932859053620382, 0.4345195280711337, -0.15322661162441722
-0.051802908455795965, 0.45623118394585055, -0.14497913095558346
-0.05425645208329296, 0.45675337256787185, -0.14187454689054638
-0.0646381992600376, 0.4577378076092904, -0.13363738764470265
-0.06566115251982887, 0.4559777069781339, -0.13997763197586685
-0.0582764149780141, 0.3831463872544145, -0.14817422940516053
-0.06378898377545075, 0.43380502342514626, -0.14231723701900995
-0.059741150014772676, 0.45127490897557265, -0.14276152692494076
-0.06464114600902056, 0.43705742270141, -0.14173482587954103
-0.05163544617731362, 0.35375257342597316, -0.15299853636559468
-0.06010769812941953, 0.45315517228278934, -0.14247705832453936
-0.051430168227755146, 0.356507815872096, -0.15288920225615368
-0.05748308023098115, 0.42488725143930084, -0.14555831427412824
-0.05532507477940874, 0.3586676551734398, -0.15112351748688377
-0.0564372445804073, 0.3602291056425834, -0.15055269225431991
-0.058083698987605605, 0.43908915890438216, -0.14430768486746337
-0.06107509556002309, 0.3864306188266199, -0.14678329835161452
-0.04905748234562746, 0.4375577073721173, -0.14815449970306074
-0.05978156334842066, 0.42351552171289986, -0.1447030172218701
-0.055942345538593403, 0.3531552776735926, -0.15125669510998505
-0.05152081652432826, 0.38639075986637195, -0.1507436224183681
-0.06372829102093176, 0.4514157028305162, -0.14110006688376703
-0.05014212670649961, 0.4085268157711276, -0.14975315102087033
-0.051369299577278836, 0.4332994783600811, -0.14749730175622527
-0.056691503299882706, 0.4115553735037174, -0.14682666667296812
-0.05374436609270031, 0.3798300480496969, -0.15028541014871527
-0.04858823124948388, 0.45578492973250806, -0.14706306720788945
-0.055904303962759944, 0.4444712571263308, -0.14483075064632708
-0.05360672527162586, 0.45209051580098525, -0.1452449537297787
-0.05946377601549424, 0.43316391877374066, -0.14415402232386512
-0.0661676341691029, 0.4591541918659564, -0.13054014042971607
-0.08127042878638398, 0.45690730265769663, -0.1276201455739843
-0.07697461170651514, 0.31247891229835373, -0.14495144006089697
-0.0795359774902836, 0.41914136211414593, -0.13522895657907785
-0.07471010133424114, 0.3443954178846244, -0.143899552871788
-0.08898123462697448, 0.4447288606886019, -0.12748509295943944
-0.07386238042528422, 0.39854868486581474, -0.1402797625286903
-0.07482281728239715, 0.34918800267648387, -0.1434641532905809
-0.07664659978449373, 0.4306584406412818, -0.1361192439213425
-0.07502796746346418, 0.378212914300617, -0.14111988148268703
-0.07504037489833582, 0.3769425440705487, -0.1412093805658299
-0.0729725076377994, 0.45221342286052285, -0.13672314417544867
-0.07644902434209012, 0.3241511952099208, -0.14438133413326265
-0.07947165057543873, 0.44280002631034393, -0.13345999616694765
-0.07781059547032944, 0.3731366909615519, -0.13980269541040447
-0.07220970094620122, 0.4192786653092478, -0.13970800174858738
-0.07722991063579006, 0.34347653947158535, -0.1424256501063107
-0.08864337867086101, 0.43921416369131194, -0.12811365383126322
-0.08044107978413505, 0.39883013230322995, -0.1362268247042408
-0.07412307276343937, 0.38779157500405204, -0.14094224364078778
-0.08595865231690827, 0.44430186902808366, -0.12936996815839594
-0.08693840894084474, 0.4366881001210094, -0.1293515416452328
-0.08379959180909505, 0.43873676230674347, -0.13111841577525135
-0.08065816689595072, 0.39098472387907324, -0.13669346750346412
-0.0838980098589786, 0.433614520757577, -0.13144963023578382
-0.074209426637985, 0.35988344567926206, -0.1430225191812714
-0.08389709738711777, 0.4467766653125562, -0.13044412422876883
-0.08402861609123266, 0.42979358389806827, -0.13166165291748314
-0.07917927781251664, 0.45786940282509264, -0.12473258356748729
-0.07687217776272696, 0.4601347507268744, -0.12408232581697395
-0.09525328268403675, 0.4570913017697401, -0.11670571888816368
-0.11781903145436012, 0.36270983718436944, -0.10926426835263824
-0.1248297062181047, 0.34731639411156134, -0.10260055263103242
-0.11764054342818256, 0.36042766430280326, -0.10970227004013358
-0.12276376787028556, 0.3513123105523567, -0.10461846668798354
-0.1240618594277389, 0.35079674709701025, -0.10315033055211112
-0.12066891976054969, 0.32924312016229856, -0.109285892071289
-0.1288014476960054, 0.32436406380008037, -0.10025352165076304
-0.12669708612711408, 0.31916740420596285, -0.10323890878507831
-0.12095643152295443, 0.33169735537198886, -0.1087029730457207
-0.11824995452720545, 0.3851359464525892, -0.10650923623812335
-0.1212188846756692, 0.302918598831322, -0.11128365917671017
-0.11675085170772137, 0.3716950009429088, -0.10961327796693365
-0.11483868346881179, 0.39887061773259463, -0.10912504139987239
-0.11900156378538926, 0.3574043216014807, -0.10841211199142811
-0.11955843948438885, 0.37351002523719296, -0.10614386764110896
-0.12017344572011412, 0.30772809964315717, -0.11202507507283792
-0.12115226458974038, 0.293771080324771, -0.11227962504566963
-0.11538063088037917, 0.37967099052846953, -0.11041720482127848
-0.13094451577613106, 0.3049514605680126, -0.09969238161906119
-0.12350477656079081, 0.34945687191352487, -0.10393705026837176
-0.12072604714614585, 0.3366826621248476, -0.10847243808544696
-0.12106786139434009, 0.3783372416260194, -0.10389214101433648
-0.11984964155279937, 0.38735147499472566, -0.10441390825279231
-0.11775378195895199, 0.35863322139605747, -0.10974975877287207
-0.12489628460619885, 0.3002213747229489, -0.10724863639351542
-0.11815982130503253, 0.3472021174102504, -0.11042147057973332
-0.11991811231610625, 0.31445745435504435, -0.11164873459932909
-0.11598708678069058, 0.33285247968549536, -0.11440542381364455
-0.09774033605664448, 0.33382990351571123, -0.1301273609869209
-0.0990993698195683, 0.4483261249469836, -0.11915343481405431
-0.09611090925334154, 0.3580772478720294, -0.12944084237550085
-0.09811094069885197, 0.32367677506396386, -0.13068103488935306
-0.1058563427747908, 0.44829169955223375, -0.11338537731394831
-0.10021086777997716, 0.37810028545999863, -0.12422301502649927
-0.09561676622740341, 0.42724699144741624, -0.12393450599376807
-0.09742024333896446, 0.3684633730975124, -0.12743239368039444
-0.09383699467096793, 0.4450458652401679, -0.12392907725499325
-0.0967675377039831, 0.43919303906347673, -0.12192778549119862
-0.09297643492416022, 0.41207797852665523, -0.12748966524789948
-0.10266986413806903, 0.43840701261786785, -0.11695408402699262
-0.1017991633497126, 0.4372074832336651, -0.11780054259834208
-0.10307873174639672, 0.38114237795979944, -0.12151289389365046
-0.10079972325101949, 0.44610146979076276, -0.11789186372226607
-0.10434013854083374, 0.43369057202166217, -0.11593176791916016
-0.10027637884700125, 0.4374025549749786, -0.11908440607930672
-0.10266941965662926, 0.392115285566485, -0.12092201798926777
-0.09463765822290397, 0.43340838722877206, -0.12424266573139808
-0.09313522860444348, 0.4256544279037009, -0.12619043710987807
-0.10509754637256076, 0.431188383980011, -0.11549933624421979
-0.09934078994496899, 0.40961290838771724, -0.12226526040982083
-0.09746536430106918, 0.3217896723321868, -0.13139414908673744
-0.10656578601673401, 0.429253949097981, -0.11441113523458549
-0.0990342331560047, 0.4448211498070306, -0.11950946997861028
-0.09909062895264287, 0.34685718580813263, -0.12785756279515673
-0.09904314212924234, 0.4575165021469382, -0.1114028610612404
-0.0941934506523303, 0.4601544796128301, -0.11151657613370164
-0.11548828897233276, 0.45628309454376353, -0.10128741482213495
-0.12714763721144828, 0.4274703416729197, -0.09172470472079736
-0.13202354094353508, 0.3516573776035278, -0.09322431655248331
-0.13367757819629655, 0.35009625272708933, -0.09071989716954167
-0.13303284048969014, 0.31256361205794897, -0.09645356377136821
-0.13356456202615147, 0.310133114858037, -0.09588903596387913
-0.13900649825451505, 0.30219289853276865, -0.08799901054705209
-0.13698672560330516, 0.3644301426575798, -0.08353195478897378
-0.139461089567564, 0.3349215950971433, -0.08317484387739413
-0.13864919638889467, 0.30261783897940764, -0.08852907005518143
-0.14034974760915153, 0.3406000798047381, -0.08101639293176194
-0.14231342607783484, 0.31784675293958276, -0.08065004736076056
-0.13370394568344401, 0.351200609790917, -0.09053911982693194
-0.14333153918601568, 0.31928929420539576, -0.07880870599132223
-0.13759515918495357, 0.33626684391678735, -0.08605196815808733
-0.1417614545129574, 0.2971859193138194, -0.08412786604902589
-0.14259616488387453, 0.31968431395511787, -0.07995945558463616
-0.13326241835973193, 0.39100895058070556, -0.08629422181857278
-0.13242345494916002, 0.32926665673000277, -0.09536457318623073
-0.1358559965591981, 0.33359427122183377, -0.08922338035087982
-0.13541085662259886, 0.2938639533776238, -0.0949054554536794
-0.13463898126443774, 0.32442142551130027, -0.09235352285979058
-0.14286274052404718, 0.29412988456338857, -0.08271191875498173
-0.13664247433657303, 0.31355446332669246, -0.09043958648768607
-0.12965005253029235, 0.4126056511494003, -0.08949524919854032
-0.141348895833264, 0.338770288565038, -0.07961416655741203
-0.12984852294962823, 0.3759394655816589, -0.09374485017971157
-0.13242838816703772, 0.36235025314859226, -0.09122991401478181
-0.13315035387889776, 0.31800152604478316, -0.09558351327642589
-0.1180713077927315, 0.4582887225129687, -0.08685310424838949
-0.1168394214553777, 0.46113905099956054, -0.0880185440427442
-0.12401458379094013, 0.4575749738157821, -0.08247307483527133
-0.1278275155303239, 0.45824586851243154, -0.07150688893280333
-0.15340420655916878, 0.29916675933421844, -0.06004202207981242
-0.1446629206976116, 0.3625586826431644, -0.07034938095215171
-0.13904087591775777, 0.4420804049403007, -0.07037927747738251
-0.14585231359126027, 0.37121087440228506, -0.06600443732105306
-0.150081210140131, 0.3470503884949019, -0.059909640171311854
-0.1558965133324506, 0.30632598753478285, -0.0528058336812284
-0.1470662819043894, 0.33425899466717923, -0.0693667255995961
-0.15603936245315556, 0.29821184168526693, -0.05384283906844104
-0.14947754280201858, 0.2990068637990406, -0.06954902855164016
-0.14704812937029552, 0.30501150935937693, -0.0743915173015069
-0.15071621192615306, 0.32621325244315436, -0.061925265456922264
-0.14037161778579382, 0.4335126832388777, -0.06862571079016591
-0.14160535548360106, 0.41409088595020993, -0.06895482613786962
-0.14935992940318782, 0.3154717939594177, -0.06702892581577655
-0.14375687072574714, 0.3678686531696539, -0.07163246237466003
-0.141507601348409, 0.4201371421505237, -0.06816112232350682
-0.14828020663596508, 0.29506781370490437, -0.0731104813558587
-0.14719164181315453, 0.34231221430343517, -0.0676925843231498
-0.1421648889137483, 0.41243626160419344, -0.06788578648809117
-0.15148226614054605, 0.2960435804618261, -0.06521387264741024
-0.15154154908642395, 0.2934690832748659, -0.06550919891927126
-0.1385728351240292, 0.4510616016390017, -0.06997968946474849
-0.1539227661282216, 0.3192590493483122, -0.05536831229403092
-0.14382691804420925, 0.36177356887207607, -0.07250137178198651
-0.14439451110926502, 0.3950672519972069, -0.06546103317064925
-0.1410059712758715, 0.4242838878535475, -0.06866595275716818
-0.14837121517567703, 0.32954311147929033, -0.06701948215039473
-0.1496490020408678, 0.3556083987982674, -0.0594956150428967
-0.12607433390033787, 0.4600783938871288, -0.07365833106457607
-0.14260617292141853, 0.45644679874910576, -0.05553982048580777
-0.15397037874207728, 0.3591590526241831, -0.04747056303638427
-0.15424905254936122, 0.3569325184764929, -0.046931400182607955
-0.15977096034956795, 0.2958426801754556, -0.04098594388580881
-0.15577040390759755, 0.36783113307264936, -0.03755178085896206
-0.15222016242975905, 0.4032926020884909, -0.0424395463778667
-0.15715556227257454, 0.35541041952858726, -0.03524976383648115
-0.15271176295940903, 0.3792681532842803, -0.047099036629105986
-0.1608901781888218, 0.2994616184367815, -0.035313691407433206
-0.1604854414254253, 0.29713861529543817, -0.03764809266289271
-0.15461612758663557, 0.3584068756034767, -0.0449907983543798
-0.15322072938868608, 0.3966713391304067, -0.04012038377874006
-0.15927050047972627, 0.3245771067011674, -0.035048419447555754
-0.1596229710981904, 0.2940984464532555, -0.042089325134776596
-0.15220525825899928, 0.3842680818730817, -0.04781291172602802
-0.1553149103193348, 0.34372299175184895, -0.04617959774074826
-0.14967155808573537, 0.4237972859722725, -0.047330811059638184
-0.15521729600412, 0.3617100157263288, -0.04156455845856045
-0.1594560894512846, 0.3216931980819633, -0.035080512283131284
-0.15772448352037471, 0.33188476044443366, -0.0394479350280988
-0.15329982320336186, 0.39308709485620563, -0.04079158468722129
-0.15745565313021287, 0.3478747360540211, -0.03610360546641678
-0.15402646404515155, 0.3875826207421036, -0.03930162903790957
-0.15980200807607703, 0.2942184516411007, -0.04131007354494451
-0.15437678857245302, 0.3470677229579955, -0.049153400713809144
-0.15336985045419482, 0.3786416283058879, -0.04453279771212002
-0.1538156696692203, 0.36343875205803544, -0.04692016690402148
-0.15804966001645676, 0.3345653410375141, -0.03734509985638951
-0.1627338788852258, 0.2971017806888298, -0.028292888078070382
-0.1404971298334312, 0.4575402369196555, -0.050074645304477666
-0.1367801978400551, 0.459532430351392, -0.0512229788044707
-0.14306171101107917, 0.45750751326597194, -0.04275471522284355
-0.16250591454373403, 0.3157240431799645, -0.02072619502739808
-0.15847857956931816, 0.37415011546516774, -0.02336623018176915
-0.15862252931519094, 0.38302573105073356, -0.014164874634815285
-0.16234932608432148, 0.31689812067849626, -0.02174055228351566
-0.1617799195392831, 0.3349856803271724, -0.013951237599231784
-0.16173815891964732, 0.3283419580792518, -0.020000319237928173
-0.1611035736754898, 0.3480827067538636, -0.011665962723360965
-0.16059805077793823, 0.34223538400572595, -0.02294600240810275
-0.1647108450912682, 0.300892191987836, -0.0050305735115539416
-0.15976601805531235, 0.3552482748313582, -0.02270873961798662
-0.16121766974262491, 0.3453455785983041, -0.01248982322265434
-0.15797701968731542, 0.3915011120671066, -0.015326681055036751
-0.16288524703757534, 0.30408285324564427, -0.025576000672752605
-0.1616701877696365, 0.33149163747522487, -0.018247726940033876
-0.15672483826405745, 0.4060665011357499, -0.019138192008251963
-0.1620934450963573, 0.3198939025468386, -0.022503337274741665
-0.1619589594959836, 0.32986206125569784, -0.015932226411983642
-0.16328201834424522, 0.3028228205865663, -0.02158132459571134
-0.16089551251834586, 0.3414064354003796, -0.01985506242726289
-0.15831340741905056, 0.38094866912232644, -0.01981778772457505
-0.15416391779180205, 0.4411796171190411, -0.022510710648864184
-0.1605365108474135, 0.35675080803563713, -0.011670960238139464
-0.16094945439661051, 0.34035227915502597, -0.020045302084472198
-0.16015832674784575, 0.3539895736217262, -0.018769658691909396
-0.16052224659397432, 0.35499553012098595, -0.013310186693012899
-0.16393773000951778, 0.3117912260196586, -0.005800549097167866
-0.15878334614131356, 0.37542883864047716, -0.018431779632760534
-0.16264903748559612, 0.32691928886657406, -0.009608588786490964
-0.14456876521397946, 0.4576811254038601, -0.033729665596037094
-0.1428798795757509, 0.46070878468559195, -0.030321156336625694
-0.1521258909764773, 0.45642016397317764, -0.01851550470923584
-0.1452466425466981, 0.4611152857894054, -0.015631159844710276
-0.16428918317454977, 0.2950214483392063, 0.01527743728658455
-0.16246505778994966, 0.34024168629389484, 0.0008928626420272747
-0.15685770753829234, 0.42472076155889305, 0.0019673983054522212
-0.1646564044362058, 0.3076536968097683, 0.00011879754919674054
-0.16182871343680408, 0.3418781534238591, 0.007618820195355173
-0.15863878090495262, 0.3899444219260245, 0.008223906745596065
-0.1635249967219119, 0.29880833470861146, 0.021841515972317673
-0.15892408964523652, 0.39543778041253735, 3.5849503152733015e-05
-0.15629040829696877, 0.4324647552961451, 0.0027429515563651362
-0.1609679109701268, 0.35790105154084745, 0.005246812539107086
-0.1595406935834238, 0.37213582635397485, 0.011556840531475121
-0.16492589036946217, 0.2960515521784597, 0.006331920018471433
-0.163413627627563, 0.3183962223655755, 0.006986147456923857
-0.1584868555438232, 0.399085119811655, 0.0025616488089131835
-0.15729100085073608, 0.4154170682365054, 0.0041900403957920405
-0.1597735553018831, 0.36575497086020964, 0.013898312963529641
-0.1611913424841918, 0.3540677939827077, 0.005591977039969551
