-0.05493011030422146, 0.41727563519056743, 0.14716560703084608
-0.06372394095695114, 0.42689883477464463, 0.14284423797084148
-0.05283985871574913, 0.33569367438318976, 0.15378641540048305
-0.050815258715089275, 0.4367449448919363, 0.14749662019240786
-0.05043587493177971, 0.3880554277834267, 0.15108844772854707
-0.06098793219528708, 0.4129671829091955, 0.1449603039434827
-0.06517570329149426, 0.41242588353764803, 0.1432638568356349
-0.060914497580041194, 0.4169260248344511, 0.14471145484312165
-0.059690673853227474, 0.3715653842985226, 0.14841823351848213
-0.053318546263407714, 0.334442878955156, 0.15367637078025187
-0.06422360535023108, 0.4259995639962741, 0.1427007070185373
-0.05938314673689603, 0.4326055430431892, 0.1442396883366978
-0.057359759460636976, 0.3571933226332117, 0.1503975715154862
-0.06228555821205664, 0.3919207792015303, 0.14590747612071367
-0.050366588132676804, 0.452530606307172, 0.14656890518949017
-0.05162068466650747, 0.3806436985856423, 0.1511205255382319
-0.06478764379208762, 0.4357422884682465, 0.14177979821415373
-0.0524010495511944, 0.37661299305025314, 0.1510816239487919
-0.05027766483431619, 0.45468048906900066, 0.14645408026436696
-0.06282179134119552, 0.4357139888833549, 0.14259607735544144
-0.06607598547519615, 0.43997287897192655, 0.1409477130217848
-0.06499617886106988, 0.4423335499868592, 0.14122845590398575
-0.06023087130599737, 0.43011735552035, 0.14406407233022692
-0.049678986566427816, 0.4471165497781831, 0.14723564034151737
-0.06325484769503156, 0.4443442549109282, 0.14180789874376476
-0.061992722089739605, 0.2931364122685982, 0.15290922792396494
-0.014620700080915473, 0.2921305405667374, 0.05979853157917048
-0.014324079772314301, 0.2921305270207453, 0.06637759565599331
-0.013888447606329245, 0.29213054462960586, 0.05802241973669366
-0.021331036461815653, 0.2921305018724414, 0.07677729123423353
-0.017020227545366307, 0.2921305460218368, 0.05660168492614225
-0.03689585848634466, 0.29213040587553896, 0.1191599718936935
-0.08125902112504, 0.36364647227558666, 0.13842781355621242
-0.07315781116386928, 0.3920089582407808, 0.14122429189196384
-0.0787340972771276, 0.336038552776736, 0.14208532771281643
-0.0831098087117094, 0.3981999824625828, 0.13465251324673938
-0.07703046253512033, 0.3219113588554008, 0.14420914123450362
-0.07520625057361321, 0.40447385083165466, 0.13901624306569474
-0.07615773819399506, 0.4522346087029903, 0.13478251852413778
-0.08170554267333885, 0.38705164622553423, 0.1363651815231993
-0.08063848061625997, 0.45370836240898826, 0.13192408227987407
-0.08161197323910176, 0.383831382083021, 0.13666866569517233
-0.07289916789813092, 0.38474172127814177, 0.14193826850162145
-0.07596185505382996, 0.39487271937848484, 0.13928708538435886
-0.08142409498260322, 0.4104975564012131, 0.13474553352968133
-0.07710137576494012, 0.3205011321641039, 0.14427347828096312
-0.08091787320360048, 0.44471127854966264, 0.13244057492080483
-0.08380682280991761, 0.4287636432619114, 0.13188921179822144
-0.07821321359677799, 0.40351119279400594, 0.13724716550597746
-0.08237787309603911, 0.4069968106946416, 0.13442864466217416
-0.07498503154884056, 0.3796854112547039, 0.14104654196056687
-0.07922427768688495, 0.41783511309630555, 0.13553272054720916
-0.08277251401390782, 0.4085123878448091, 0.1340709645765073
-0.07359500969876316, 0.4237605711852193, 0.13852940212621936
-0.07391563884071636, 0.4554855530864847, 0.13590798137698493
-0.07392200655032, 0.42935690256974557, 0.13790125643423892
-0.07286200568358059, 0.4269113946410504, 0.1387377479269111
-0.07414652443838432, 0.4526215717610897, 0.13598540736295656
-0.032394777693642365, 0.29213051742645774, 0.06492266640562863
-0.038132660366747236, 0.2921304811334572, 0.08089721496564785
-0.050127542612116334, 0.29213043683468926, 0.09832808299446655
-0.06745997233642395, 0.2921303553869686, 0.13233212869445105
-0.020022165019631166, 0.2921305535773875, 0.0517681457855289
-0.025255715240673382, 0.29213053148333534, 0.0607720152199208
-0.09122363803535946, 0.2924074542394088, 0.13678450106548162
-0.09793866245398387, 0.4384897826261119, 0.12100074065717427
-0.09848918752997479, 0.43132386365242686, 0.12114471686106813
-0.09764125751035801, 0.3675782279963029, 0.12733237502100164
-0.10285332108031334, 0.3706892085173531, 0.12261420656575217
-0.09584670696201451, 0.43728639016863324, 0.12289058373520996
-0.098649786468944, 0.33621096155870495, 0.12915940589914804
-0.10395676821729924, 0.3923745712690653, 0.11981318084360515
-0.0985622466291957, 0.38718305918189, 0.12486549999231154
-0.10137069857392889, 0.35311828804594075, 0.1253864425108567
-0.10415828514491379, 0.4523995109690313, 0.11449650333263339
-0.10089218722916915, 0.40773510970773474, 0.12111407990911341
-0.09656128099183911, 0.3294971529801751, 0.13151858432921634
-0.10741752586446714, 0.45410836753035533, 0.1115663798288034
-0.09797148844408927, 0.4185283307915516, 0.12268354328392236
-0.10461299467749194, 0.42595670351579173, 0.11637448075834105
-0.1001390840702131, 0.42370210980844214, 0.12038880681072744
-0.09341886243762412, 0.4140266075743477, 0.12695769384714342
-0.09600975502605957, 0.4183925771651692, 0.12437066163338031
-0.09772830341198988, 0.4309122847721838, 0.12182985034737422
-0.10165436583325702, 0.38018314931067054, 0.12282451552263451
-0.09893641690678409, 0.3522053565780837, 0.12754376600092876
-0.09891554961334573, 0.43885746661662506, 0.12013488473567381
-0.0949579499372076, 0.417052615277958, 0.12538383483809923
-0.09994143832650518, 0.4301916973109734, 0.12000140877355736
-0.1017836402847897, 0.35540741782197677, 0.12483756124415331
-0.10740622955224173, 0.43898204135103835, 0.11287246182336824
-0.033030104523671944, 0.29213054907269254, 0.047315841639806976
-0.05388642549667356, 0.2921304754918137, 0.07484923430454087
-0.07460668443115852, 0.2921303970103063, 0.10515101109267937
-0.04411228650438628, 0.2921305074779428, 0.06331398433948364
-0.08817567256748933, 0.2921303519949563, 0.12149934256453679
-0.03061899929161907, 0.2921305439075995, 0.05162327756224659
-0.11916826783712284, 0.34521372716002524, 0.10945316791035581
-0.11939376421776894, 0.39584258763613506, 0.10410848774283525
-0.12239272646196134, 0.4285459635971612, 0.09731532937558875
-0.12076459765718732, 0.3950310629857918, 0.10258488168789101
-0.1148577161413749, 0.39435723288101704, 0.10956858654013797
-0.11380631760665508, 0.426550126411464, 0.10756902949956532
-0.11811688380796087, 0.322229141467863, 0.1129907095966075
-0.11321838762551642, 0.39756783899045267, 0.11116581040577728
-0.11775142581743445, 0.33110574349929256, 0.11252783092542121
-0.11759075989239785, 0.31204562944026326, 0.11462864865634155
-0.11561162350055887, 0.3969052356179771, 0.10843017779140476
-0.12066797253484776, 0.4356703090919074, 0.09861982607738863
-0.1174901213077024, 0.3084562385777254, 0.1151066805609311
-0.1148153150192181, 0.4246285187385179, 0.10658047791036507
-0.11683828064252841, 0.4507202022242852, 0.10159355736164952
-0.1200674175340069, 0.4525349816053431, 0.09763060032971625
-0.11583770597082613, 0.42309806203484956, 0.10553699207185918
-0.1116947670321362, 0.4554183764484739, 0.10714438515462131
-0.12270245011905653, 0.44775288277065384, 0.09502525502719625
-0.12468119109907316, 0.44855937716300454, 0.09262750923688275
-0.11838725736606467, 0.4257484014853986, 0.10228587992918614
-0.12286669029004331, 0.4086941500330238, 0.098752537296884
-0.1212354320300516, 0.43788191829876905, 0.0977334776537931
-0.11931263300295594, 0.4148727065321824, 0.10229378877416481
-0.11441882645676923, 0.4406020347328313, 0.1054417489765976
-0.1220737938245665, 0.4136199207934361, 0.0991865958161376
-0.04442090318721562, 0.2921305264876878, 0.05169579609261133
-0.05142241540354466, 0.2921305073512337, 0.05747234501184558
-0.09849288537180037, 0.2921303734471125, 0.09953383227652052
-0.10721072429615428, 0.2921303484373252, 0.10745275812202104
-0.04297720221488538, 0.2921305372072476, 0.046343317833848596
-0.04083954094264415, 0.29213053659892935, 0.04854276716346038
-0.12246762102091857, 0.2922394478385824, 0.10934832154409183
-0.13444056210821098, 0.3305528386960383, 0.0919254259753725
-0.13001314351786572, 0.41332531149169593, 0.08882587415008819
-0.13328427506421633, 0.41866698407026803, 0.08282159783185747
-0.1285462943891052, 0.3969577453774693, 0.09326112212593685
-0.12666954948997824, 0.433063706111689, 0.09182009397232575
-0.1292777606594068, 0.408619435962701, 0.09061288500018741
-0.13241257341213192, 0.45036282444389336, 0.08029057633460404
-0.13116827123393132, 0.41947490588736525, 0.08617382382597927
-0.13676388341843773, 0.4144207696624, 0.07767304167752094
-0.137759168094165, 0.4516558344029013, 0.07140445667800303
-0.12808908622532172, 0.43712937138124947, 0.08899650196031367
-0.12761663547337485, 0.4222747856278733, 0.09162032310439086
-0.13597492667514086, 0.4072097953004785, 0.0798599447856921
-0.13479220214843485, 0.44077571400317056, 0.07760320596944914
-0.12715790523555887, 0.43111042398782645, 0.09126680892890897
-0.13465928317307296, 0.3535696826381295, 0.08869755308794211
-0.13413024946622348, 0.39235841878567695, 0.0847226329935895
-0.13164227335741874, 0.3981556345908042, 0.08805953376055894
-0.1330673386421208, 0.33553145381317195, 0.09354532422353996
-0.13674986423757135, 0.4054241603468718, 0.0788180902010578
-0.12874755940866642, 0.40454420556070897, 0.09198640823462527
-0.13215649689538828, 0.42899927802967247, 0.08337318744922216
-0.1368700182823562, 0.4094219345264051, 0.07812336370859134
-0.1306769228745587, 0.37380394706163156, 0.09267229229357604
-0.13521621022935884, 0.4518886253372354, 0.07552514511926052
-0.13218228469004606, 0.33091966103278575, 0.09556484061117937
-0.07613797416188439, 0.29213046589652003, 0.05939507633345497
-0.10571700724980568, 0.2921303930499949, 0.07716147242541806
-0.06147719798923311, 0.29213050909054117, 0.045490885023893035
-0.04532364553912838, 0.2921305518356744, 0.03365740152574212
-0.05933463771324066, 0.2921305106201082, 0.04689927591638893
-0.07576437949452278, 0.292130472352737, 0.05518849491445034
-0.1422136514856468, 0.4219449525993533, 0.06616158630467445
-0.1463119654677753, 0.380873452310904, 0.06326203713787791
-0.14464406256452153, 0.44122864137125983, 0.0570099326257642
-0.14388046193021073, 0.4369466589086187, 0.05958267501959236
-0.14523105074017595, 0.4269649529735529, 0.05802199124974212
-0.14260040346147593, 0.3841008707949475, 0.07167291707667547
-0.14660492113747928, 0.423575911958634, 0.055282337066735326
-0.1465063610424478, 0.3337720214487613, 0.07081433096514764
-0.14669128454516997, 0.3165887400143062, 0.0732942831398406
-0.14259944578666806, 0.3789721915876544, 0.07254866863340137
-0.14337198807614968, 0.382826737180771, 0.07002713374140616
-0.14283753472839544, 0.45141595920711075, 0.05963633655036829
-0.14691506329237836, 0.44822821211680564, 0.05033517678124694
-0.14584580093100977, 0.35541977460960184, 0.06872234827040566
-0.1434035802041611, 0.36488021831901063, 0.07300724463023239
-0.14585749777669343, 0.426722254883409, 0.05655094329580086
-0.1412813002595079, 0.42289035041208134, 0.0682514808644862
-0.14100246636363595, 0.40821944886101924, 0.07142317442648113
-0.14679058251596608, 0.4235197916199497, 0.054843667321001315
-0.14182059290576834, 0.40362273607103105, 0.07023088038458093
-0.14464095179878173, 0.42255357902264795, 0.060197898488068155
-0.1465149133270603, 0.4227634893696242, 0.05563799527509146
-0.1425166704120287, 0.4558132128133513, 0.05966209932552495
-0.14647208094451308, 0.3465014638485602, 0.06872920343636522
-0.14152230190514076, 0.4158188860287172, 0.06887395547112818
-0.1413124078583233, 0.4151339635599226, 0.06949733146442708
-0.13143442741257166, 0.2921303574894063, 0.0670826840578603
-0.08539570905002672, 0.29213046401637865, 0.04696804428333291
-0.1088184356071826, 0.29213041157638564, 0.05563086747534544
-0.0846867286685193, 0.29213046956800615, 0.0431614354696006
-0.07566626531657554, 0.2921304852572339, 0.04385415419600425
-0.06677124749207358, 0.2921305090863028, 0.03706455759061267
-0.14854539958080476, 0.2929215413929359, 0.07205375327047256
-0.15274491844875115, 0.4217326946672517, 0.03511872741856485
-0.15255167600583783, 0.41698296476572716, 0.03724965486486839
-0.15164094433020436, 0.4535100775362626, 0.030845552639308396
-0.15281639173242204, 0.42506522748848974, 0.03389065240179924
-0.1540577218786255, 0.397178323034754, 0.03650556613575324
-0.15726620799433472, 0.2973950811972602, 0.0509985772509772
-0.1535214767952145, 0.39469493851924375, 0.03943248255282535
-0.15405389532354552, 0.369393898639486, 0.044278295955419184
-0.1542171487194588, 0.34978478004513497, 0.04907272809885317
-0.15462854341924678, 0.3570183818397702, 0.045339693840133616
-0.15263609581324453, 0.396504632341678, 0.04261511607366643
-0.15039818133308874, 0.4249861546748204, 0.0439852510348494
-0.14997227348054779, 0.4364973834321627, 0.042545598329584995
-0.15015793327229654, 0.4133106533189255, 0.04824549084617141
-0.15492872224684803, 0.3710740880760359, 0.040165325531252745
-0.1535384586822319, 0.3927144443702123, 0.03991465800152617
-0.15152180422528957, 0.4549230398932713, 0.030947336975477413
-0.15350271804916524, 0.4391333916338367, 0.027104393732145824
-0.1520882620018979, 0.40896016072706964, 0.04141969173933667
-0.155608873651024, 0.34533572209516855, 0.044517881835900504
-0.15142551365962048, 0.41241132366608035, 0.04321673645197637
-0.15301802880915222, 0.38398277595292885, 0.044520081044769955
-0.1548382114624573, 0.35276234969139314, 0.04565455692733771
-0.15033735163302744, 0.428007649719947, 0.043395089787067145
-0.15088066275056417, 0.4403342706727297, 0.03769072944621643
-0.1522188126993479, 0.3981576215169279, 0.0438917393742755
-0.10412682804779255, 0.2921304357596147, 0.03751219157423391
-0.06518425390301347, 0.29213052515900007, 0.022395529088015176
-0.09669276770826812, 0.2921304554237625, 0.031455019752967696
-0.10968072524585847, 0.2921304237553456, 0.038757847463725306
-0.056105599450353344, 0.29213054086157075, 0.025144770380940103
-0.07173856493771874, 0.29213050667597995, 0.02913476808046815
-0.1621234674284543, 0.31925908334536934, 0.0226619769516113
-0.1535103626949384, 0.45345468633022235, 0.020631385322811002
-0.15558325950514945, 0.4354751816909332, 0.009227486151181508
-0.16136697221655935, 0.33281790589104376, 0.021011429292730165
-0.15620158318456331, 0.4318585509790252, 0.004375099351425523
-0.15888964135240008, 0.377284622201271, 0.015552313627656793
-0.16057407775103974, 0.3402800957897946, 0.024887605793870303
-0.15523830031298005, 0.4270016599557494, 0.02064923583759777
-0.16059737713430527, 0.343424634973685, 0.02197951649248736
-0.15759201061656442, 0.3867279770682387, 0.024196122077577792
-0.15919484008052545, 0.37528387439292454, 0.013336322370759369
-0.16006367273529618, 0.3595072176533159, 0.015401747476618854
-0.1558439188841347, 0.43119345476149235, 0.009472140113418901
-0.15540361388103552, 0.4468560851265267, 0.002056452365549002
-0.15503643692060026, 0.4352224823533309, 0.01638545807161575
-0.15553333437892608, 0.4323702590990813, 0.01244098091502233
-0.16031654589039596, 0.34882270089779155, 0.02106387365625114
-0.154505364689311, 0.4336751371778139, 0.02441871198325044
-0.1570044784200246, 0.40321507433744075, 0.017966288641053017
-0.15785207857465341, 0.38304117560745765, 0.02395411026082369
-0.16201811362621718, 0.31949683674823165, 0.023803136632131263
-0.16105829229322824, 0.3330585234487882, 0.024733722487425305
-0.15485462634793373, 0.4556798211094661, 0.001702505000559154
-0.1537852994204242, 0.45228717415081987, 0.018107775524413
-0.15478218771227714, 0.43816952365322204, 0.01716802423672031
-0.16058401119725618, 0.3495023550780606, 0.01710083120126403
-0.16430155216971284, 0.29317872532992384, 0.016173628682990174
-0.142336499915793, 0.2921303655064519, 0.018854449458220682
-0.15725977644269776, 0.2921303348067712, 0.01202518827581481
-0.12331160155046236, 0.29213040673591223, 0.015104975263243269
-0.11932575686480679, 0.2921304162006612, 0.009396223731194309
-0.12612588722384482, 0.2921304005897949, 0.015940580828675013
-0.15066915912860343, 0.2921303474473748, 0.02050326272869805
-0.1324807317282337, 0.292130387531554, 0.012944691456000067
-0.15511436950022733, 0.29213034088534956, 0.00309316277863608
-0.10434412522589437, 0.2921304487116023, 0.006182993759259549
-0.1523479695579088, 0.2921303464038243, 0.005386013466045351
-0.12474641690497858, 0.2921304057656803, 0.002651314847843247
-0.15759449440874695, 0.2921303342377676, 0.011160129561053667
-0.14393401894404306, 0.29213036311118057, 0.012817971546809017
-0.12637959468319138, 0.2921304004649936, 0.0134601092382892
-0.15337600712082733, 0.29213034401222576, 0.006563297697104778
-0.12229983781114875, 0.29213041030564363, 0.006706522919954059
-0.0878895659683829, 0.2921304839287265, 0.005572113207882092
-0.10896898346615724, 0.2921304389563766, 0.005502114571875305
-0.0593175561896261, 0.2921305435450875, 0.010824314527937268
-0.09726156781178656, 0.2921304602082367, 0.019543140284524554
-0.06887228348305052, 0.2921305230818773, 0.01197534532663205
-0.067768398050151, 0.2921305249594067, 0.012816195488035403
-0.14974884681611877, 0.2921303484640893, 0.024531313367328358
-0.11766442028936193, 0.29213041677832546, 0.021467598133089662
-0.16035035113128432, 0.3697895479206119, -0.003205606318933512
-0.1614355001066035, 0.356387640663042, -0.0005499299319241701
-0.16298921625174034, 0.3277810052031234, -0.004570556794251748
-0.1622990371768033, 0.34226581260058764, -0.0013081216696448441
-0.15525065487805229, 0.4337358548385173, -0.014885651287361534
-0.1544707939287703, 0.4439995406385267, -0.016269073239895297
-0.15556546654114006, 0.4408031759231452, -0.00501500211229178
-0.1550043291303587, 0.43473456972295044, -0.017185929369285844
-0.16180794711657906, 0.34928550420658905, -0.0017170216732785516
-0.15711869677927806, 0.4051526017132131, -0.014892955081676902
-0.15793292881773036, 0.41008675573695996, -0.0004484948849094085
-0.1552434140613051, 0.4396815679081295, -0.01003876025590564
-0.16227858462816885, 0.3403883669136009, -0.003127524838745676
-0.16142218421602955, 0.3528086036781278, -0.0036921049871534934
-0.15339315471900802, 0.45468273498900236, -0.021087667847310112
-0.1575924940207691, 0.4141154890898546, -0.0014276159193710907
-0.16244010731013078, 0.3393559342630599, -0.0019327834806265771
-0.1559004684241193, 0.4308571462900779, -0.009020202814743156
-0.15489878418632586, 0.4485146069123448, -0.007080417333140961
-0.15921992208387262, 0.3786259374383759, -0.010229037345089094
-0.15782778578033074, 0.4098915298659936, -0.0019466353791718852
-0.15605484595645142, 0.4254698801839147, -0.01153365639230191
-0.16242556169012157, 0.34164059487099224, -0.00021981652456835987
-0.1542037370492678, 0.4458170133970694, -0.018152652814440493
-0.15371035623072718, 0.4510060263961926, -0.020111340055113527
-0.15966150840165566, 0.37929744099402574, -0.004060338861415223
-0.163306442926841, 0.29221746461935055, 0.016907750256733977
-0.15425072007195323, 0.292130340924437, -0.013820777574626356
-0.11690149168579783, 0.2921304217140594, -0.007359473145395874
-0.1517544146715034, 0.2921303458593361, -0.016156415967749686
-0.08741362240081015, 0.2921304847851715, -0.006507451626749326
-0.14650736115356028, 0.29213035658228304, -0.018981053715587493
-0.14864613897878173, 0.2921303540611755, -0.006816747571704217
-0.14455623253961156, 0.2921303612389067, -0.016046677069787112
-0.08980359455849543, 0.2921304784922902, -0.013608027345575606
-0.16060682920243427, 0.29213032873631023, -0.005628303984538328
-0.11514936028862982, 0.292130425139739, -0.009225531301963732
-0.08110844532908863, 0.29213049785640505, -0.008794942055661628
-0.14683589548305054, 0.29213035636176343, -0.016119750678125235
-0.1401176145785998, 0.2921303723674846, -0.006184574042413635
-0.14772677281837557, 0.2921303559337286, -0.007349032077820294
-0.083858738343111, 0.29213049156251164, -0.011323438944322984
-0.16323848849700687, 0.2921303213324656, -0.016272568132745913
-0.13351319208190615, 0.2921303869938909, -0.0030149477713955607
-0.14100725310806256, 0.292130368488733, -0.01797454433934577
-0.08902053197009596, 0.2921304810296965, -0.008450071893921168
-0.15382826138210617, 0.42831284938483316, -0.028756302888876657
-0.15402332508463973, 0.40134932317184924, -0.03547136731171688
-0.15328453263894437, 0.40355834053437456, -0.03793193919684249
-0.1595475206526078, 0.34077278277702583, -0.029373051687417964
-0.15488823307592792, 0.423717466434709, -0.025624145332884197
-0.15269051461569322, 0.4084418877839244, -0.0390428219018862
-0.15165172038961724, 0.4527447506190649, -0.031001409471624906
-0.15809524857301213, 0.3583601419139814, -0.030512206381079446
-0.1543236498242686, 0.3905371272927178, -0.03723893277763892
-0.15193707996963376, 0.41740053024559237, -0.039680051906580374
-0.15199017715407498, 0.4271166973264552, -0.03674637051113862
-0.15314966656205012, 0.43772162794760094, -0.028956137218522755
-0.15171124345162337, 0.4507047711428056, -0.031322991908680785
-0.15219404189917995, 0.44965050545151986, -0.02960632759747132
-0.1553924391792259, 0.39692763610209614, -0.031003054171859286
-0.15111908176248728, 0.4341096387473754, -0.03842246597747482
-0.16030668712068874, 0.3373363220019384, -0.02717028860687492
-0.1498392458361429, 0.4497931566897677, -0.03937488224568952
-0.1559746421000225, 0.37379439328273345, -0.03503625455795527
-0.15128447885941856, 0.4326731586296826, -0.0381345713618084
-0.15426890702079954, 0.41406492372532794, -0.030898564811350532
-0.15469061507551116, 0.407280477396023, -0.03103608562770962
-0.1568444689725939, 0.3724715582555031, -0.031782487409316225
-0.1572468045811889, 0.38287248386427397, -0.027202963133396083
-0.15444671317632255, 0.4278637104438829, -0.026305668095466295
-0.15243046733393906, 0.4319643331596501, -0.033559097973546434
-0.13115768766811542, 0.2921303814100475, -0.03602751203462168
-0.098347774738577, 0.29213045305340235, -0.02932365224991182
-0.12701127132324097, 0.2921303881973004, -0.0397165276422807
-0.10695684382022555, 0.29213043367422875, -0.03224437449424537
-0.152103572225426, 0.2921303328359626, -0.045984292483515404
-0.14321648773486179, 0.2921303562848724, -0.036077465237802905
-0.13821368020091446, 0.29213036707636963, -0.03532057584458179
-0.12725700662602504, 0.2921303916929927, -0.0316975598467492
-0.11925537926096227, 0.2921304055559988, -0.03728528571040345
-0.15292410089308095, 0.29213033936845034, -0.029494032881247967
-0.09444228951000944, 0.292130464598801, -0.022487356926993943
-0.12604698494953245, 0.2921303963195322, -0.027479348344312874
-0.10610946161369611, 0.2921304355640363, -0.03199224184867376
-0.1153429266985106, 0.29213041903125503, -0.026616083969089592
-0.14836747986814242, 0.29213035103374196, -0.02513002696613353
-0.1371232109587986, 0.29213036475969545, -0.04449877380802891
-0.1191841893583484, 0.29213040663382384, -0.035424931193905024
-0.1166619006300634, 0.2921304123206221, -0.034551046941553795
-0.09715537212740774, 0.2921304571378649, -0.026116826415527396
-0.1305569061370235, 0.29213037496006755, -0.047911141584008374
-0.13131759940474008, 0.2921303586950517, -0.06592977354416633
-0.10100157870732886, 0.29213043844851083, -0.041761876391224244
-0.1386086689815887, 0.2921303458829167, -0.06396772093473099
-0.14751892653574938, 0.29213033295489194, -0.05823808565508953
-0.14557873291663997, 0.2921303338790853, -0.06179392584184566
-0.13464437227252604, 0.2921303656648083, -0.04939010917423299
-0.11376523927037577, 0.2921304130058783, -0.042006222387803036
-0.09485742301460404, 0.2921304520215874, -0.04002614355969084
-0.14865495790540278, 0.29213032604786626, -0.06392704757025641
-0.1540410633473308, 0.29213032212942397, -0.0557072216377288
-0.11245481173177786, 0.2921304102613125, -0.04852022186718408
-0.13654112669176674, 0.29213036456557356, -0.046152817356499454
-0.13082029443736037, 0.292130363455803, -0.06131880458255451
-0.12075678407901749, 0.2921303845995877, -0.05980345023828518
-0.14791175538160783, 0.2921303301933912, -0.06066074755502116
-0.1379250315269626, 0.29213034701481555, -0.06423642550301921
-0.12177367276668834, 0.2921303858999638, -0.055761071357688353
-0.1394148989580404, 0.2921303426608678, -0.06595454997261836
-0.14739716648780832, 0.3924856712148051, -0.05865163421910024
-0.14655781156262856, 0.44862132844404884, -0.05111779458975094
-0.1520603530185723, 0.3405761903761601, -0.05623416126680885
-0.1478583096178753, 0.39093491785100987, -0.057802435567326935
-0.14833572794158725, 0.38705088442011937, -0.05731131610499567
-0.15387122982348858, 0.32534794789833477, -0.0544557642090121
-0.15000192814133514, 0.3978626282119605, -0.051447439969097085
-0.14801936405982585, 0.37771713333149365, -0.0596646798547603
-0.14642249645355904, 0.4060314417723523, -0.05869777895668196
-0.14650304368085776, 0.39334918063507046, -0.060663182634605704
-0.1388913703271385, 0.4523028321509258, -0.06899928811929311
-0.15697371237426186, 0.3017582812811481, -0.05098314574661921
-0.15216823881709957, 0.35030710943871224, -0.05431646944942377
-0.1413780104185163, 0.45079518269112684, -0.06325275357768659
-0.14823358329820424, 0.43609739762336186, -0.049205010966673235
-0.15048984026454063, 0.3578835349295205, -0.05707818354867293
-0.1461626732212788, 0.4486079796958492, -0.05207401880068961
-0.14185672281899742, 0.4245545057746464, -0.06656597557312988
-0.14738945511634133, 0.4550121938153936, -0.04802162286076902
-0.15336573856650582, 0.3495896186746227, -0.05154763456470315
-0.14125987660712483, 0.436142902092868, -0.06603332267460282
-0.15013791570303908, 0.3669597228051696, -0.056382079553429984
-0.14599919336064174, 0.44253623738831255, -0.05350274795101942
-0.14639024333975517, 0.41044668662016814, -0.05802370334051983
-0.14842280272913405, 0.43501209782357414, -0.0489330264841646
-0.14738121108533517, 0.45307523402481564, -0.0483714012155145
-0.15748405635113813, 0.29304722456506915, -0.0505473890093121
-0.11969168729214544, 0.29213036225993433, -0.081966967283622
-0.07746567478520187, 0.2921304770968701, -0.04820083670742025
-0.08451235091721156, 0.29213046154061084, -0.050610152131922215
-0.08564922065202704, 0.2921304481938043, -0.060687986535176625
-0.11491093494762539, 0.2921303829433878, -0.07127590459619865
-0.07494671019827404, 0.2921304835476984, -0.04654389563323254
-0.12440192220523777, 0.29213036461344793, -0.07217634084847686
-0.13536081803847247, 0.292130341760342, -0.07472541348266538
-0.0763429977830965, 0.2921304787587505, -0.048547035616395486
-0.12583667951871444, 0.2921303457388347, -0.08671033718758747
-0.11254416748441105, 0.29213037674171805, -0.08068287503186714
-0.1150739832360026, 0.2921303836720978, -0.07035831281062106
-0.10420516807801034, 0.29213040958620323, -0.0649254803382838
-0.12240027721538585, 0.29213037652225, -0.06479537549724673
-0.11307940637888392, 0.29213038455963, -0.07281964883908201
-0.0626466861468206, 0.2921305110091874, -0.04206310931694873
-0.10024093861495778, 0.29213042467598327, -0.05790313287133356
-0.1369542389561741, 0.2921303314059537, -0.08138277897709192
-0.10309458276989118, 0.2921304137644293, -0.06300214703993065
-0.12968285361234663, 0.4471248683065684, -0.08513604426714032
-0.1387333516667201, 0.370859440281651, -0.07987977630655217
-0.13731076531161396, 0.4454432932104854, -0.07289817284258937
-0.14170076815909563, 0.3739228777817071, -0.0746552821599741
-0.14338394187637776, 0.3527863667874117, -0.07454500892159883
-0.13611756161008506, 0.4323689576132665, -0.07647610261014878
-0.13998304944679413, 0.41320216589610526, -0.07255892823584374
-0.13951248360909996, 0.3579739324229253, -0.08021559421974
-0.13009258260564152, 0.44996545678914324, -0.0841131128360865
-0.1267560676160025, 0.4518861050383404, -0.08931824192074696
-0.13639628698093081, 0.42026977383607644, -0.07753042932047882
-0.141136593025232, 0.40195100398200717, -0.07207990541382608
-0.13559506708776203, 0.44895737623941445, -0.07525961609978729
-0.133610214265156, 0.45338570633672953, -0.07794624308706358
-0.13568267211508944, 0.40831705772670496, -0.08018583859254962
-0.13607721896341718, 0.4154483391935754, -0.07865249199991312
-0.14316371558114885, 0.3513452506007675, -0.07508413999051854
-0.139111518216247, 0.4243856915465538, -0.07258618525118582
-0.13079505347889706, 0.43842333920590415, -0.08440646539242141
-0.1460848779852765, 0.3115953105463459, -0.07527535828035345
-0.13580878971950155, 0.4303902279901395, -0.07722678497139987
-0.14134509510850501, 0.3600852583855012, -0.07696169282316774
-0.13017934292595515, 0.44057944418944417, -0.08514227654949466
-0.12860439053612155, 0.45442256659871005, -0.08598567346379561
-0.1457653271269014, 0.31271090202899793, -0.07565766696794406
-0.1441535068100089, 0.35111404147344927, -0.07349778707083907
-0.12393415341556363, 0.2921303438442538, -0.09121304510488436
-0.12901121498838045, 0.29213032249079907, -0.10062825800639857
-0.09031634949365905, 0.29213040705761306, -0.08510465029030109
-0.05331883799545168, 0.2921305118354952, -0.05305572689706567
-0.09943121252558594, 0.29213038850020556, -0.08778098326956879
-0.11928688123274094, 0.2921303551306302, -0.0885359351760094
-0.09787904286465239, 0.2921303979933434, -0.08276985968125526
-0.06420913648314971, 0.29213049148695447, -0.05494166501673842
-0.07561104377604116, 0.2921304547189395, -0.06803923209172748
-0.06562479417749938, 0.29213048392462, -0.05872378297534138
-0.09117128305317235, 0.29213041017937497, -0.08185814478828565
-0.11170335848894877, 0.29213036202201387, -0.09245808649977641
-0.1088360304270293, 0.2921303703512453, -0.08982402335984446
-0.10554448719019954, 0.2921303630154986, -0.09895458490384995
-0.11660761883346898, 0.2921303503026287, -0.09514576797172777
-0.10879353106605241, 0.29213035070491294, -0.10400553265469598
-0.1150199400880396, 0.2921303355659657, -0.10760489106204732
-0.117667187299627, 0.2921303364162201, -0.10389376551456418
-0.12082658641990615, 0.2921303213955915, -0.11099902738825708
-0.12264925516485826, 0.37473791414176016, -0.10240175985944137
-0.13288438006474876, 0.30241459533482073, -0.0976756645461293
-0.12104304916518566, 0.4157901205131215, -0.10016276031257258
-0.13103492272549777, 0.32804494382731053, -0.09726907422076353
-0.11814743246032611, 0.43370937617330385, -0.10175488249999938
-0.12370651690486667, 0.3653265848995448, -0.10210829942986561
-0.1222273878674128, 0.42055601281061317, -0.0982978140175664
-0.11895132457888329, 0.39865389744051616, -0.10433149496414854
-0.12116107913337824, 0.40227082983792833, -0.10138123842942251
-0.1158199616883117, 0.4284112544243077, -0.10501167616560353
-0.11859226530078837, 0.4052107985706568, -0.10409390872320608
-0.1251294185950496, 0.43004287436780747, -0.09394795207932245
-0.1234427405301501, 0.4369723375790048, -0.09522742302719403
-0.12611227766580696, 0.35591995183257125, -0.10023547593853956
-0.11903539512499269, 0.4480261581207575, -0.09927850762136825
-0.12080095245240827, 0.4200661449889542, -0.10001711644095086
-0.11490139180701386, 0.4473009460270709, -0.10419158639345817
-0.12420773634790838, 0.3768232432546183, -0.1003677454249511
-0.12611222553535645, 0.3990214115824841, -0.09591026456605063
-0.12837940073573256, 0.3368260172275116, -0.0994971064714665
-0.11515743338357387, 0.45039933253059294, -0.10358087375999157
-0.12206477654984113, 0.3800315192458147, -0.10255487909190907
-0.1297089595084309, 0.3393207883112012, -0.09769003824216585
-0.12294772344365064, 0.3955244222411394, -0.09996635207112722
-0.12000482201557311, 0.4476503327099114, -0.09818116734868419
-0.12503044119943063, 0.3731547741954553, -0.09977261475494192
-0.1266255136400338, 0.29239384467049023, -0.10469824546206988
-0.08417369642719538, 0.29213039668166463, -0.09747661411724814
-0.05826834046938391, 0.29213046465660625, -0.07784174061856328
-0.09183512115444879, 0.2921303610880172, -0.11279994542383312
-0.11030398045512739, 0.29213033386718756, -0.11374907391537063
-0.07155632034156728, 0.2921304178132367, -0.09527076483299539
-0.0648186386794843, 0.2921304559691778, -0.07758435088880536
-0.10787287881208016, 0.29213033941086197, -0.11241969570905384
-0.0677998491741772, 0.292130438772805, -0.08560267388697201
-0.0648802628684244, 0.29213044888513096, -0.08188377027178143
-0.08171725510801614, 0.2921303895580184, -0.10395098763890456
-0.08761588767639604, 0.2921303587226904, -0.11785663093869722
-0.07076758306163895, 0.29213043677706824, -0.0842940667961853
-0.07647991913173546, 0.29213041893729713, -0.0903750619931259
-0.0772296357448357, 0.29213041359475805, -0.09301690898211379
-0.10231941761500792, 0.29213035323304004, -0.1086711985099904
-0.08474494747955622, 0.2921303921756079, -0.09975699573320784
-0.05682369386175088, 0.292130470097147, -0.07573321174366607
-0.0817976917107187, 0.2921303798245407, -0.10986200521037168
-0.10790151187831784, 0.2927684024422601, -0.12435922691546622
-0.0719526793212492, 0.2921303793364493, -0.11644781478685068
-0.09276669474424706, 0.29213033334535826, -0.12889098289628279
-0.041942372499606334, 0.292130487848998, -0.07538530130332607
-0.0578043953727678, 0.2921304100775232, -0.1082751981820194
-0.04940146908772444, 0.2921304435106712, -0.09510685649801952
-0.07427139691108672, 0.2921303943793803, -0.10678503640091402
-0.07225489089176376, 0.2921303610850011, -0.12626239573826953
-0.06905137232934963, 0.29213037441398426, -0.12092270804756469
-0.07735333684964885, 0.2921303301447227, -0.14008991209034477
-0.05464828114055684, 0.29213045563272616, -0.08525005366057828
-0.054586451856558485, 0.2921304244951485, -0.10234789453368982
-0.06172248834925784, 0.2921304057764471, -0.10823069786922976
-0.06642455301893022, 0.29213038787198975, -0.11515892797488517
-0.05196386938364713, 0.2921304508525423, -0.08951407874356243
-0.075003794678997, 0.2921303777625589, -0.11544040359643021
-0.07322573031684285, 0.2921303474555519, -0.1331348956234326
-0.046840656487537276, 0.29213047085222976, -0.08169597447219598
-0.0756744346053041, 0.2921303531816203, -0.12849707232790786
-0.11507407905782734, 0.29217152776077554, -0.11747025689098732
-0.11533517461680926, 0.2934687804211363, -0.11855922832107409
-0.10245597806969665, 0.3012172944255701, -0.1288949770766119
-0.11279962920894585, 0.31647034845561023, -0.11875337139541828
-0.10569038515645128, 0.3687754151690973, -0.12034227761417149
-0.10344385686318122, 0.32831670609145946, -0.12572861876596483
-0.10123062457795498, 0.3420789461090615, -0.12643936344033332
-0.10804448001112343, 0.3243741291977435, -0.1221372307795341
-0.10223160173524115, 0.30108967190055275, -0.1290975505380507
-0.10769742221837598, 0.4295752485997194, -0.11341708768807492
-0.10751471295328131, 0.33310615159057166, -0.12184129137627966
-0.10741042279649864, 0.41918094806240447, -0.11455308077442598
-0.11243910980950934, 0.32111195205391274, -0.11866346190195365
-0.09973909046532418, 0.2995670560171293, -0.13135685324353152
-0.10518236985188555, 0.3196054471103473, -0.1249904135366236
-0.10951950041262372, 0.44750134742356984, -0.11032448141608625
-0.11525113260495662, 0.32528308602429146, -0.11590427227551547
-0.11157377591213263, 0.36972718875191546, -0.11523582010731218
-0.11083153085652739, 0.39215283298187814, -0.11394770339422616
-0.10322155405412403, 0.34503046928368064, -0.12448598291072771
-0.11252625691582305, 0.3152104129462114, -0.1190948393688324
-0.11244371178627292, 0.3000804553146335, -0.12046209506727765
-0.10968124108621874, 0.3570673379864131, -0.11793724332855333
-0.10637043691366074, 0.36854617749223706, -0.11978110685146316
-0.10979537649724141, 0.3592416995854276, -0.1176534028404268
-0.1063715365483567, 0.3673081042787872, -0.11988628022526969
-0.11182630315883679, 0.3365469631281811, -0.11786394639769507
-0.1115122402529415, 0.3303922529719666, -0.11865968782377154
-0.10972729185198687, 0.44164744782775794, -0.11064873596028907
-0.04570590649100582, 0.2921303913924051, -0.12312427558807354
-0.06475797007331976, 0.29213033230682184, -0.14510879855480757
-0.06052966835030389, 0.29213034233721996, -0.14178843245897743
-0.05566173948970336, 0.2921303753944243, -0.12708966711358052
-0.052789283023171214, 0.2921303226626875, -0.1549429217659853
-0.05077745615891814, 0.29213035590718256, -0.13896640812200672
-0.025570491977687633, 0.29213049768898325, -0.07771658536884714
-0.054549155122314244, 0.2921303764241014, -0.12702986950471049
-0.04558999243550502, 0.29213043842984365, -0.0993881370563306
-0.05856565567677325, 0.29213032888080276, -0.1494061032530104
-0.05595666312834491, 0.29213032190920507, -0.15401193209248681
-0.034065512742727566, 0.2921304408229668, -0.1029517068898265
-0.024803892655252242, 0.29213052510621207, -0.06417079371998327
-0.06178464973257992, 0.292130334518024, -0.1452223195685139
-0.046997806122262106, 0.2921303625118957, -0.13719237649559224
-0.027811426084387567, 0.29213048127282654, -0.0850890672229134
-0.02706965788882146, 0.2921305042183887, -0.07379405705842583
-0.03348365300187085, 0.2921304707862862, -0.08804198004511914
-0.02730798521552752, 0.29213050057673773, -0.07553671320207607
-0.08855792073811955, 0.3087062767362525, -0.13814155562706718
-0.0945249618644328, 0.3506662606481997, -0.13127768977424403
-0.09432464723109657, 0.35472160984393986, -0.13109046688943074
-0.07874475469498, 0.32631381193520975, -0.14280920884627796
-0.07888922423069608, 0.3118800756039466, -0.14382393855925996
-0.08510664335518267, 0.3215429899835047, -0.13927530786606646
-0.08825259796515929, 0.4253606063536821, -0.1294120382868706
-0.08697566144312441, 0.36798632526437214, -0.13458001955033436
-0.09020285524641986, 0.347342270314848, -0.13418034960092226
-0.07783838452803434, 0.31986449861069105, -0.14385759369301448
-0.09175452548817949, 0.39978966541052297, -0.12922060421553166
-0.09168667635658602, 0.33946125729299265, -0.1338734592349854
-0.0824373991680249, 0.3423350373078407, -0.13932175436761154
-0.09011410715954304, 0.3371894223480863, -0.1350107800099372
-0.08289713539408862, 0.3229026429314129, -0.14052536734475118
-0.08622442251239668, 0.3115341031195465, -0.13935537466017253
-0.09033520936507566, 0.42518940423492224, -0.1281489002869315
-0.09119416951362139, 0.41242764103455964, -0.12859799087684454
-0.09537979285619422, 0.32048728680399236, -0.13306061691853394
-0.08454195405575435, 0.30324753861394094, -0.1410197850416951
-0.08742348508168979, 0.31952955494043433, -0.13800944691663738
-0.08483978146751889, 0.3120719101938729, -0.1401627745930126
-0.09248279442995305, 0.34028530251648115, -0.1333226112392799
-0.08809977966640933, 0.3205975759585151, -0.13751337814820455
-0.08453682101502023, 0.3027545129370796, -0.14106061560072577
-0.08574640224041655, 0.29642658408381206, -0.14080306748292326
-0.0905229736104107, 0.4145831658294716, -0.1288445394311555
-0.07999691208816027, 0.3105491053889986, -0.1432468819239972
-0.06837144049692134, 0.4280075248966269, -0.1408280884927021
-0.06664180234520521, 0.42272458128779256, -0.14191720747022973
-0.06704790435764083, 0.310022171879883, -0.14969930063297648
-0.059105303437047216, 0.32536843114871894, -0.15190670454956548
-0.06748493317663334, 0.40633902155239304, -0.1427238457003827
-0.06541111341208972, 0.30201640095111104, -0.15094203564103204
-0.06876887516318295, 0.3140353536520411, -0.1487033439786003
-0.06910220815995835, 0.39975577318992184, -0.1425183402068121
-0.05947287769339188, 0.31606670474373516, -0.15241061561009922
-0.0537732402707664, 0.3062401541898377, -0.15546469651007072
-0.06677382584302882, 0.36656210931556993, -0.1458243612385261
-0.06848652112498826, 0.4286431452061361, -0.14073558180589454
-0.06754027452253425, 0.3654435309610867, -0.14558579180161046
-0.07316505348398653, 0.35956323258306844, -0.14367071874674503
-0.06491450066027224, 0.3793642321034657, -0.14569143340054178
-0.06649573764891503, 0.39799290739256415, -0.14372234377683324
-0.07083977758671094, 0.4193357032212027, -0.14041739102300435
-0.07385575326573406, 0.31958349577564316, -0.14620488848976448
-0.052694618152984325, 0.30284420045747557, -0.15615104006645897
-0.06691049546998315, 0.386606518963313, -0.14435376779883688
-0.07313277684800128, 0.33142265626443657, -0.14566919444982632
-0.07209383948814552, 0.30560881099756054, -0.1479205136170361
-0.05771803401790118, 0.29526839935647436, -0.15460466731985076
-0.06625049873581682, 0.34065127851364285, -0.14786894703058157
-0.06882896062757447, 0.36742456157414605, -0.14491224818082957
-0.07162025266231081, 0.37603401552733956, -0.1431487129018728
-0.07477959535859804, 0.2935608769868641, -0.14765791675429857
-0.0652630059961231, 0.4115102039328184, -0.14327941957478993
-0.019139886464901217, 0.29213047854866037, -0.08849580760578103
-0.03664705473216001, 0.29213036607768217, -0.1383267827700692
-0.02652546579999478, 0.2921303716366841, -0.13808601078270608
-0.031578287608435646, 0.2921303625601208, -0.14123358238558403
-0.035806407185613676, 0.2921303475283224, -0.1474401914148314
-0.024878513114093066, 0.29213035113361957, -0.1483316015084396
-0.0331126608966276, 0.2921303242700332, -0.15926076978889536
-0.019250305235755508, 0.29213049107145883, -0.08245302279145623
-0.01495118389898012, 0.29213048950856363, -0.08423597940222369
-0.04152967489153197, 0.29213033253113735, -0.15327122714741911
-0.024947409817683352, 0.29213043108105036, -0.10990624781390577
-0.026728688419486748, 0.2921304463244857, -0.10215527102629031
-0.03034038148228053, 0.2921303700261503, -0.13794389608373386
-0.041069128387221175, 0.2921303679759722, -0.13635317634387592
-0.02862735980191656, 0.2921304285625983, -0.11023272211862628
-0.012845086900040173, 0.2921305043909329, -0.07759172049628324
-0.0358968131830584, 0.2921303763419457, -0.13357567753733945
-0.027402485408871184, 0.29213038806975333, -0.12998059092216
-0.020124188517066308, 0.2921304188391881, -0.11694547840437447
-0.03875018388544282, 0.3798003355696031, -0.15463220079547596
-0.04898730629058169, 0.3260819853547039, -0.15577500808188002
-0.04087172189622228, 0.3313526017070558, -0.15737008576098177
-0.04414075458062523, 0.3473441811972082, -0.15551343976525225
-0.04144936816429126, 0.39736618057219397, -0.15280684539158826
-0.04284011915974704, 0.4149306767263787, -0.1512957012261914
-0.04231930323352679, 0.3928758201457603, -0.15289896315656543
-0.04330384640502842, 0.3925679032769608, -0.1526832380635769
-0.033352100278395004, 0.3435688100995566, -0.1583565597058076
-0.03948058251374684, 0.3911020444541958, -0.153699353617471
-0.034999638371498, 0.31332918524613407, -0.15998784056997953
-0.04522606757481251, 0.42505597753831914, -0.15004424835723468
-0.04165217440204711, 0.4039507338372546, -0.1523168269631076
-0.043010947275667656, 0.31110321250315764, -0.1582137293784747
-0.04328311818179337, 0.41255292486357537, -0.15134871757685286
-0.035515494714942364, 0.3141502680391106, -0.1598089637624874
-0.03328484626511168, 0.3052967818863975, -0.1609378897217166
-0.03399532686021104, 0.2976656975910543, -0.16127879549341298
-0.04841466495153425, 0.39839712781074105, -0.1510655593493396
-0.03822330878919968, 0.3587545610336811, -0.15616928361459148
-0.043334944462088625, 0.2955460262789677, -0.15917866704226413
-0.029778917716608806, 0.29394069496167846, -0.16254071420189106
-0.030318478619336134, 0.3014991024440839, -0.1619045771147438
-0.04456640394229146, 0.3399526035946841, -0.15590667317004742
-0.034386820203981885, 0.3314947284523187, -0.15891741609773968
-0.045636096308260515, 0.41504967869735987, -0.1506164836545197
-0.02913782118940597, 0.30673657428272477, -0.1618369805450714
-0.02703037523683846, 0.2971765276502161, -0.16298368602781577
-0.0003202292849757924, 0.29213033300253516, -0.15896695009102865
-0.015859769899783688, 0.2921303451241225, -0.15206374706863343
-0.00735002657586934, 0.2921304450227441, -0.10592130189617224
-0.01486058613808544, 0.29213036549167953, -0.14259820865223916
-0.007495922473421805, 0.2921303345847536, -0.15766075414587477
-0.005254700086875594, 0.29213047680802434, -0.09119172353771454
-0.01320300224850885, 0.29213042273484374, -0.11590468354650499
-0.012294091845456078, 0.2921303394028184, -0.1550253758791556
-0.0013502986406673434, 0.29213036640465795, -0.1432337352594676
-0.007044375544031558, 0.2921304235763753, -0.11599506737713336
-0.006211031732678159, 0.29213043567896674, -0.11038941612186695
-0.00468783673742455, 0.2921304117901241, -0.12170354650562806
-0.021455485579054082, 0.2921303603682526, -0.14447997163723877
-0.00651916149709061, 0.2921303680850779, -0.14203947265740718
-0.0036719077411152107, 0.292130376135292, -0.13849126174999862
-0.002627437764064026, 0.2921303684929055, -0.14215466927531262
-0.016098789224941092, 0.2921303391600483, -0.15483968331961173
-0.008907128227906421, 0.292130347449871, -0.15152112503003987
-0.012514093273898037, 0.29213034893726314, -0.15054024607589062
-0.017367210590935787, 0.34961798540214245, -0.1604959801319205
-0.022712649261301846, 0.3272360056132474, -0.16153846093919821
-0.015105633104515345, 0.3322401607737935, -0.16181003671648428
-0.01199273775744018, 0.2958496760191732, -0.16443402976635443
-0.023998424715017876, 0.3165099247291424, -0.16213846909209106
-0.022859026833456482, 0.396019425467585, -0.15703029623162815
-0.016395753206957697, 0.32075371610880854, -0.1624594109044578
-0.005535867792165283, 0.2980371373621802, -0.16479922063840813
-0.014285091835764183, 0.3393873457183081, -0.1614073784492469
-0.007488615640813996, 0.3194328645283942, -0.16324680460919538
-0.020226376361978906, 0.30561586272049596, -0.16314753948878932
-0.014580729815797729, 0.37122862750269314, -0.159302519592678
-0.012116382311849722, 0.3548118211451963, -0.16056970981568638
-0.016388712056404953, 0.31086227130438077, -0.1631066079137091
-0.006462598404878093, 0.3080735026461896, -0.16407016460356322
-0.013434715559542204, 0.32864754998066864, -0.1621764109742081
-0.018435880539509154, 0.35011009224798223, -0.1603796985161938
-0.018544765078580952, 0.3532552519121117, -0.16016551714472915
-0.006105858097024846, 0.3272636964092348, -0.1628437033872949
-0.004872407995352277, 0.30279485215759666, -0.16454040823479332
-0.020484027503977837, 0.38202830591479614, -0.1581318774941733
-0.02018428112292893, 0.34892063845361176, -0.16031984834152724
-0.023538261158789896, 0.34731850483136073, -0.16016060807677546
-0.016338389790240965, 0.31718380952863384, -0.16269730464293497
-0.0146016659656934, 0.3282767516883077, -0.16210880562339286
-0.01941708841852792, 0.304284936314879, -0.16329824315518668
-0.019407753978117746, 0.36450284358421536, -0.15936229530510762
-0.003074326280852026, 0.3019387723922025, -0.1647378932193023
0.009697444640833242, 0.2921305307504086, -0.06555586597496578
0.019596731088233423, 0.2921303845540506, -0.1332838910047299
0.008808291812729503, 0.29213048623286514, -0.08648660136880326
0.006876483168395856, 0.29213050560572024, -0.07756058215705007
0.006809962026190061, 0.29213054807774635, -0.05766357909534664
0.013008968401534102, 0.29213049397193164, -0.08252951501648001
0.005671292119645038, 0.2921305350994605, -0.06383476885352363
0.0010227564533183972, 0.43601351443185693, -0.1561253006618036
0.0020804425671336856, 0.3271727233801235, -0.16315747002826286
0.006906454484269281, 0.39570072776077836, -0.15829764844898622
0.007668894357067731, 0.3608523703244041, -0.16051583490918475
0.019487884494976054, 0.32203445758987825, -0.1621233135904634
0.0037609543373040982, 0.3427320086828799, -0.16200802290616834
0.012060685271072315, 0.35033591787977275, -0.16085768324179564
0.0008157662284025419, 0.35551730789152347, -0.16140399362825272
0.004083617298729503, 0.41290025490144094, -0.1573954113596891
0.0026334068656309532, 0.37299305066378463, -0.16011846615204073
0.008468518980506469, 0.30359119995070966, -0.1641963218078976
0.011341160769050122, 0.3200811275179512, -0.16289220673605842
0.0153603575200997, 0.33881980303511366, -0.1613508402008169
0.002498290709599209, 0.3677140956477637, -0.16047420978850963
0.0005026032725819182, 0.3949123147545642, -0.15885321136369454
