0.9998561554712334, 0.5272435153665099, 0.29831197085447686
0.9947779574461264, 0.5335238886172762, 0.2740340293459481
0.909570777279942, 0.5058112175446574, 0.2407655469861401
0.8696308037465752, 0.4772325121196661, 0.26192781521470254
0.9279975083862007, 0.4915009259919262, 0.2949632321301004
0.9168623357315953, 0.4950783594185726, 0.27290510229943754
0.9633797390961069, 0.5127433334285656, 0.29744950572286305
1.0636893480991634, 0.5442321109742823, 0.34541734426456977
1.0159016072567055, 0.5304200731228804, 0.35036817832780764
1.0801480050220198, 0.5667844448595198, 0.37877950025212026
1.044186672340907, 0.5557092711073576, 0.3799137103534297
0.9637768406203266, 0.5115233870243768, 0.3622655441342957
0.9258914193650757, 0.49744584562330213, 0.36695210286732793
0.9486978615660359, 0.5312127323940083, 0.38629769290597793
0.9105152485000434, 0.51488588029437, 0.3837140555163857
0.8515521616633702, 0.5037639556128084, 0.3709463455750245
0.8792812752869994, 0.48878119822863675, 0.3690272192409272
0.9212915280384609, 0.47841180345343814, 0.3334733961571943
0.9465137456418008, 0.49449940047143975, 0.3198101927458794
0.9132381606980428, 0.47419552862337977, 0.32604729633210183
0.8895240069988306, 0.4719638485468165, 0.3462343333569085
0.8802747389581647, 0.46543621920675504, 0.33075467722506546
1.0294481941045475, 0.6781709991122152, -0.44616486944111433
1.057518114398222, 0.7221644981055673, -0.46894851982940056
1.0807836735997272, 0.7182122303154446, -0.46420469130264946
1.1230141725427807, 0.7271234325841167, -0.4399120309839365
1.0407367927657316, 0.7424371315074492, -0.4784799099111804
1.0736211941294933, 0.792325708022753, -0.45698342312082246
1.1080037871234598, 0.7239075700390591, -0.456410689571068
0.9848319913038519, 0.5767891402487895, 0.39200085355464886
1.0266708258121815, 0.5559389249300503, 0.38482717282409507
1.120749738484693, 0.6009835369990228, 0.3968228610108243
1.14641415028082, 0.5880586398844997, 0.37937102365788206
1.1517282724854714, 0.6222091584015629, 0.4051624874647671
1.0939327041488556, 0.650318700270654, 0.3754275136177577
1.0650450988280538, 0.6210781742316948, 0.3856796406424551
1.102783848746733, 0.621913789827534, 0.39122358740471086
1.1502008396601373, 0.662322315286183, 0.38977422323985633
1.182920354251373, 0.6808917427350855, 0.3267146188002214
1.1331661969764677, 0.7021320009386208, 0.298262649938289
1.174119854119654, 0.664043580458449, 0.37487146105636016
1.1652725938128186, 0.6710058661476915, 0.3584320433162235
1.196886095047574, 0.6520881741682112, 0.3484519024515067
0.8757292112024462, 0.6808275367197254, -0.44204872723204564
0.8755368074317743, 0.7022662566440545, -0.43610431714157205
1.018734613028479, 0.7868236403980717, -0.45057696012097925
0.963351822082282, 0.7754435155772428, -0.40902120677747567
1.0197231511582934, 0.7984785404064008, -0.42626712173583625
0.9680844209100168, 0.7645889827874566, -0.4459380041382509
0.9857354824563739, 0.7559539022408506, -0.46833852416403177
0.980123607270634, 0.7508401894618768, -0.47000401267357966
0.9394846881857994, 0.7318179872044003, -0.46227143992467
0.9356531532587758, 0.7459139280716108, -0.45038541686426403
0.8678556989576547, 0.6801486760997488, -0.3523938523739658
0.872908195112386, 0.6999760065606573, -0.3946132300408487
0.8760635548771524, 0.6976541891264411, -0.3545063930249355
0.8063693194503501, 0.5923600395136422, -0.21768772734825792
0.8162967434844823, 0.6045216059171392, -0.25430412109811956
0.8284095139987018, 0.571704861424851, -0.2694285852250159
0.84710736746039, 0.6347193070660389, -0.30417796588511015
0.8261663237535662, 0.6034886202799019, -0.2720343375911958
0.8436327065018829, 0.6486093706336311, -0.29363532055941344
0.9398032952467581, 0.7443959302146267, -0.26457037785536247
0.9163794550961737, 0.7290487377837396, -0.23518986423706584
0.881605933181426, 0.6952831702019456, -0.24863018999242611
0.8526217498077433, 0.6719032848197936, -0.2564247802372891
0.8779724482736615, 0.6952975880007944, -0.27034312480150374
0.9350577779252198, 0.743325754068874, -0.3023460854574431
0.9396956367623774, 0.7606396594563409, -0.37203186903799124
0.9403349474281513, 0.7623713420233088, -0.3943470880590809
0.9398826013515502, 0.7597225392264582, -0.364855646136742
0.884586009195359, 0.7058277773398101, -0.2929776695160752
0.8757184035300711, 0.6993910462256014, -0.2975723914773455
0.9169319592207975, 0.7374194829978243, -0.3290429284415061
0.931536743365105, 0.7561936348113801, -0.39438066229816077
-0.083432408907189, 0.45458813640659324, -0.24608735930970205
0.006894584448879863, 0.46185014274674185, -0.24673485624396463
0.2173168434873881, 0.4782868045748226, -0.24471120378435665
0.2404047309361573, 0.46649862492903393, -0.2443363586799357
0.3032184012039377, 0.4445047620855811, 0.023107500342640037
0.30009518127756374, 0.4559560808324932, 0.3429230731667601
0.2901673207536918, 0.3980321698959577, 0.2023174304424692
0.30119811120612466, 0.4088570075606583, 0.3219138323941059
0.29661351376817985, 0.39669390149058276, 0.3126284928914806
-0.04367937811265848, 0.413103529420511, 0.4101367124090346
0.1216043878125347, 0.42506067420320326, 0.4126836416496895
0.1734644465173142, 0.43082391324842556, 0.41330668918729596
0.1061231542486954, 0.428783613345216, 0.4130830193314403
-0.282329869773663, 0.4498795193443724, 0.3751383015825256
-0.2898601332874387, 0.44134765576025803, 0.056308979693962695
-0.14467211427104282, 0.49969801545964193, -0.0022555902899836916
-0.1237275414508034, 0.500725784335287, 0.005689403600009406
-0.15343105901427373, 0.4988611264681553, -0.016970666803657566
-0.13662867355617364, 0.4986484531386644, -0.039623439835541174
-0.23285249276067468, 0.49256932768273753, -0.07048917607022566
-0.24760280414286506, 0.49020773070294654, -0.09496239221036688
-0.20546793056179136, 0.4954353198442933, -0.06849013506054213
-0.2747310251432686, 0.4795281713537612, -0.16234203624582433
-0.28549019952848015, 0.4503947735187911, -0.17239743417062672
-0.28909314257633306, 0.4468545231454565, 0.22022259079469206
-0.2889769429827174, 0.453358158637635, 0.20071763977042378
-0.28988776450115394, 0.4475945734877188, 0.04060595455565627
-0.28994140682366665, 0.46269508793334735, 0.06914060382375826
-0.28995317958159605, 0.46560007230391265, 0.0017414208812550971
-0.25187403940461073, 0.48596462419025754, -0.1689451533341622
-0.24328871658198734, 0.48485112124521973, -0.19988420750818214
-0.20023219485387908, 0.4835912862647028, -0.23604621704067694
-0.18643846726637675, 0.47860770569168465, -0.24081147644151885
0.19186636013422081, 0.46962484446826025, -0.24548205208293628
-0.04361336909593142, 0.47396484720947984, -0.24647084569661717
0.02992187835749054, 0.46757418704288894, -0.24671735944150658
-0.03840393473404431, 0.4857495944472664, -0.2449135614347643
-0.020503893283014586, 0.48420644389977285, -0.2455500902481745
-0.06629768971195754, 0.46205961984078764, -0.24672249207358826
-0.21010070351838955, 0.46344436467807926, -0.24267235082352004
-0.25269304513271196, 0.4625137926439743, -0.23484016946062797
-0.2885600359400305, 0.47602193185001057, -0.028020119225102693
-0.28759776704060624, 0.45884070266779364, -0.12379635103203043
-0.28527772244383526, 0.47127401882755526, -0.12717485435912337
-0.28604774924488996, 0.48052531230012874, -0.043493534007123316
0.2774462491763675, 0.3998571794297454, 0.12448500892385733
0.240300178759793, 0.4003242403531414, 0.1639778551203688
0.27576966761237315, 0.4019947204462766, 0.05297656267210845
0.22480847963506267, 0.405825575582766, 0.02174234926272706
0.24433102963180825, 0.40444828057804155, 0.022387583318575106
0.26445128331404305, 0.40575394994677355, -0.12644597310169778
0.2332640599751165, 0.4072229155163188, -0.06814943863527859
0.2722113070977465, 0.4086251416537409, -0.191664030191038
0.24462477654343004, 0.4166106687898961, -0.22673333816823402
-0.23371597710878547, 0.4485489528395125, -0.24124239191658067
0.15627641004179055, 0.41487097455712235, -0.21049813132072262
0.03796740058620038, 0.41785405533662084, -0.22625710811440733
-0.06875491939266355, 0.4291155745419153, -0.23874066897510143
-0.03496205970371949, 0.4513062528237829, -0.24550372655011218
0.12213422565651053, 0.4455614201625654, -0.24379410007163918
0.19278873903816005, 0.424217625210461, -0.23551720479349583
0.23271359549781895, 0.4274244595993266, -0.2376513074964362
0.27328191701964055, 0.4028668660511806, 0.018943773597123743
0.2689984329825147, 0.4045539080394953, -0.05809836424361284
0.2969359859409978, 0.4099279661854925, 0.04218417796289872
0.28921248669573335, 0.4040730217320625, -0.020333777956202004
0.2990019682235586, 0.41340671812009544, 0.012585021433397391
0.29958384270767957, 0.41579110826987015, 0.23652234182865772
0.29968545220617787, 0.42362221396212507, 0.0851943993564811
0.30213686319522803, 0.4232372942239879, -0.008581910542150597
0.29952417034927525, 0.42478372421093435, 0.1663804076313271
0.29880167512554967, 0.43637376595610977, 0.2660534800798448
0.29985079462474906, 0.43581232382929547, 0.13933251946983824
0.18389158367414973, 0.4324717096978845, -0.2401479568415289
0.16489915373909073, 0.4529338142190265, -0.24524591487857256
0.2596946120769952, 0.44186475558315674, -0.2414861438380263
0.30837264150700383, 0.44621082042087296, -0.05706116967929186
0.30462894221840653, 0.43822469433039407, -0.01795297414713912
0.300248631074292, 0.4282474474438801, -0.22193175060268852
0.30786717860192536, 0.41768845018766876, -0.1731215168417925
0.30217514512852955, 0.409321370950263, -0.18922047257667565
-0.038092995897918445, 0.49797871778580793, -0.23372324978697304
-0.12821071939421386, 0.4950726780670943, -0.23166062524546344
-0.15870309094690455, 0.4969908666993764, -0.11101760079114041
-0.15600876994715251, 0.49801289771097523, -0.14382777763262533
-0.13241351773858112, 0.49936138078446696, -0.12913004134713757
-0.14234977237782206, 0.4982676496476067, -0.18453405018722394
-0.13289173862264908, 0.49831502508294434, -0.2042163501365869
-0.05204091307019081, 0.5007888186296288, -0.21878896303523243
-0.03327900597679431, 0.5015131695861029, -0.2149418826769015
0.10598324291467962, 0.4914587440250082, -0.24319957181647806
0.08748022634156286, 0.4940196005566306, -0.2414581010145318
0.13781732672599292, 0.5001606088705681, -0.2237932172047372
-0.023089427760197713, 0.5002986340295508, -0.22598026759492976
0.1015543788777094, 0.5038797937394994, -0.18305937068432276
0.10082249812850257, 0.5048688277911044, -0.1662966282943495
0.08576709220271672, 0.504331031003169, -0.17912216705721262
0.19066103544083024, 0.4985576852046042, -0.0556502106988407
0.16123507754588295, 0.5018136544242126, -0.04239511057317876
0.25516254586349313, 0.4886839126079043, -0.17302445728358448
0.25296299144670337, 0.4885610297881068, 0.09876230826254409
0.25469179434739636, 0.4886408933852487, -0.060270969881014616
0.24159484921729116, 0.49065709586588485, 0.06900168961052111
0.17632498102639155, 0.48592999400948966, -0.24330471104486767
0.20211840939001177, 0.49528864072529444, -0.2158262107795359
0.23810566194730473, 0.4908062213108344, -0.2244971921290161
0.17292355888794542, 0.5003948957126463, -0.15009327611806078
0.2655663051460212, 0.48622493397038147, -0.03375614673936503
0.28618141183641926, 0.4825790057237319, -0.14655460040002427
0.24102272184283657, 0.4910019852934049, -0.03212758801775766
0.28821871576580704, 0.48151946589144357, -0.10812235720543964
0.2638734004162124, 0.48739304922914606, -0.2051049020781257
0.25817454769382636, 0.4881700905030888, -0.16346553110533926
0.31417568392162354, 0.47432718122038153, -0.1480688210793894
0.30673627723471764, 0.4607471263001137, -0.03693320667062646
0.31255001977223096, 0.44945944971246465, -0.1092446059789401
0.31732962486934735, 0.45898637200038217, -0.15630339751810857
0.308773733208881, 0.4610728949659523, -0.06322673511009494
0.29959348648785983, 0.44839117340919293, 0.3527660152237099
0.30024515214988606, 0.454341569165125, 0.30723902003196035
0.29974352879722954, 0.45391643460310516, 0.20081790731820587
0.30248521306782744, 0.45872407070208304, 0.034715130431978075
0.2992678791743805, 0.464638334980268, 0.26091522690319
0.2982033022607, 0.46508584140230014, 0.11225222128412835
0.30098674173480183, 0.47324145060566897, -0.019618360655197148
0.30488377693294094, 0.4708723537475432, -0.050907353273558886
0.28428640154300544, 0.48178146536772615, -0.028863901037530167
0.29185312444120814, 0.4782671078131756, 0.03226486404450187
0.2788838091292508, 0.48320935163236817, 0.014976608798340391
0.2772377106397044, 0.48330887078250623, 0.13067899199991023
0.295982352369514, 0.4742076853630983, 0.3713080729100948
-0.23791860123984052, 0.4933669997297565, -0.018374517375238215
-0.24384852549650793, 0.49280214529238064, -0.02110678123423158
-0.27320444587271653, 0.4845985781747034, 0.184003719673731
-0.22490488244459084, 0.4935392502334706, 0.12856208120161228
-0.2542649336082388, 0.4907662931013152, 0.11354501765033877
-0.26235091887703, 0.4907472564344223, 0.03091780718640694
-0.2817119761085711, 0.48332330289979375, 0.15200351453394279
-0.2880689743815832, 0.47803474480347957, -0.0059262050463139366
-0.28657274908844477, 0.4733266121178117, 0.19993213394833942
-0.27720718285176904, 0.4604101237228191, 0.3721944901358728
-0.28499776434016477, 0.4799339409239632, 0.15630730021081257
-0.25994514498838617, 0.484522183435847, 0.22917840998722006
-0.2567543294460486, 0.4765012348602244, 0.3366676676752767
-0.22505400915827672, 0.4897237190046518, 0.21960934417014105
-0.17012146258573568, 0.47209727608236673, 0.40140680375588816
-0.2689528000502037, 0.46123935751606526, 0.3912275131049088
-0.24077891085616313, 0.45573703012072697, 0.4081826837467834
-0.19523435343692336, 0.44961705437854, 0.4117344768073033
-0.037164419585819036, 0.4470201639455159, 0.41254664653343726
0.059359080185186194, 0.44150791236983633, 0.4131338030812457
0.27587414496524415, 0.4487248400103476, 0.4111993320500922
0.19102960870041985, 0.4473925245946719, 0.41215568500963956
0.01992570188789118, 0.47057624567549217, 0.40671917771335847
0.13530696460624608, 0.45263073885089034, 0.41184641363377805
0.006110626492622973, 0.4470279288953826, 0.4125597225340527
-0.07516850620744503, 0.4628686958581263, 0.40974701524716733
-0.01739679202640848, 0.46877533971613117, 0.4078121100980395
-0.11405230304004318, 0.47911931535673574, 0.38786758145444733
-0.17345040779732485, 0.4970755353511219, 0.1419842830998398
-0.19554976246552336, 0.4970259527619163, 0.10345904491464915
-0.17457911917928112, 0.4992635399270045, 0.08625118889028059
-0.19128752975741584, 0.49687392669433694, 0.1148553904248722
-0.2547645111999067, 0.49177508157945016, 0.028868303225529603
-0.22564044668890684, 0.4951890295196622, 0.05684700538946153
-0.21711078365319014, 0.48380709807496103, 0.3132575210066418
-0.2422887141117689, 0.48880271018509047, 0.19399099617969048
-0.26045420290997495, 0.4893415519336629, 0.12961277740544558
-0.20506220362898173, 0.4954920833109101, 0.12426506708034189
-0.15006483600113973, 0.4957088888886283, 0.2180432654563455
-0.1838353280604264, 0.4960740324598228, 0.14808887904811924
-0.21018519689608983, 0.49139879945211096, 0.21665561311963044
-0.14960282167861438, 0.48982382102637123, 0.29225851548563964
-0.12990206691807962, 0.494729270631078, 0.25046838790939363
-0.12092740694644702, 0.4950706744358937, 0.2522264727446965
-0.07026937314821047, 0.5044473140203377, 0.08670309346432839
-0.10886857367234282, 0.5008136456123002, 0.15552875347503067
-0.07921982718142666, 0.5038838991436163, 0.09574655265857603
-0.05047499302333181, 0.5026399631317388, 0.1423459570594086
-0.06745646067448809, 0.5017400668965141, 0.15531574902214257
-0.18634006959040414, 0.49533237403142766, -0.15079237772616766
-0.1374433812147383, 0.49948711772857723, -0.1634306426721546
0.008390061942959522, 0.506784717209215, -0.10397184392872752
-0.015030829107588668, 0.5052430245642421, -0.14696663376590688
-0.011278244838984153, 0.5051084549092044, -0.16329314951467747
-0.05784447804009915, 0.5034682848318002, -0.162076541213718
-0.21266564125699655, 0.4963907717749579, 0.0626930091084003
-0.17419175629991512, 0.49886430949508076, 0.010122040399251093
-0.17891122590798952, 0.4988719667036827, 0.05665452950698846
-0.1665819276419881, 0.4998148669968953, 0.05916588592132538
-0.1786824777489982, 0.49662641618180614, -0.06437898930102552
-0.1911671740837421, 0.49634787920282364, -0.05751084252426972
-0.009857053526613181, 0.5060937056923825, -0.057716082240305965
-0.03860355896608558, 0.503890278697158, -0.03246745162158819
-0.09079961409444087, 0.5003530777740068, -0.04006253961823959
-0.06469963967352267, 0.5022292755391341, -0.04865135035313516
-0.04808918942670722, 0.503077367515305, -0.01424252639359984
-0.02575377623012836, 0.5048568638962319, -0.04163816761973087
-0.06447349330490851, 0.5020981937720059, -0.19442930570460032
-0.11027098467444983, 0.5013012523870093, -0.17117560910973145
0.014365380549508873, 0.504187615948066, -0.19355356952331795
0.10360130081077872, 0.5022007489263888, -0.21003051531928357
0.13088050330975812, 0.5049607639965712, -0.12582030003084047
0.03720056156703802, 0.5070190324129838, -0.07213397449389754
0.11462985998250962, 0.5054319109221584, -0.09138494963718174
0.08080093117644838, 0.5060544370644675, -0.0985824256668027
0.14855567382830775, 0.5021636907484606, -0.18555368533820105
0.18473170665323746, 0.49862383008552924, 0.061465408729252075
0.20193390874399628, 0.49715706952028677, 0.016171460085768648
0.19845008087756605, 0.49748995097049964, 0.019743957396986235
0.2066966275159088, 0.4966825477185835, -0.04497840673698199
0.056077954866688824, 0.5061144022607924, -0.12503975669532158
0.02584349979985728, 0.5062524689478753, -0.13730522865518163
0.05676397363548802, 0.5057410086692211, -0.14885384576672844
0.025214054935619096, 0.5065461775031741, -0.11863638002390195
-0.0868759821612457, 0.5023414767258918, -0.12095668343338181
-0.09707166003230466, 0.5009443692239547, -0.09326683593600575
-0.10977897880411706, 0.5003379097857591, -0.10381345401020342
-0.02820564098542613, 0.5051314890419423, -0.0718636941830189
0.16988463848842839, 0.5006870875113725, -0.10687922954965794
0.15533851798270096, 0.502313506122284, -0.08210189807429752
0.19391289491272987, 0.4979409245885807, -0.11849539847198749
0.07817411836913278, 0.5053040456268738, 0.06271061538336545
0.12776643615353458, 0.5050168007553671, -0.015401326488036087
0.09915269569882013, 0.5051526677672101, 0.03251296080096448
0.11118751168758431, 0.5053177919198274, -0.008814082817015312
0.1288046729258575, 0.5043635479538258, 0.04462267385397606
-0.004605126357814109, 0.5012404086929682, 0.19537776694143064
-0.07830826199490187, 0.4995702279066302, 0.20166001793976754
-0.011685976476701897, 0.5005960588853963, 0.20715675319969867
-0.047320787971621744, 0.5008263494315371, 0.18622605984880783
-0.0032600585808158326, 0.5028537459578193, 0.15870715031558205
-0.0892960527774082, 0.5034969604565132, 0.05984077512967917
-0.10743274438944414, 0.500504593476602, -0.01266145536550303
-0.10591755282183349, 0.5000132686677929, -0.027341973438788462
-0.1118761654666756, 0.4994497104731483, -0.03942526335668117
-0.11479838348257625, 0.5017840861197356, 0.027682116708074467
-0.03696278166319574, 0.5038887511814238, 0.03846525279219434
0.02710235267501414, 0.5072082628385106, -0.051132599922501944
0.11310723223847581, 0.5055816825325979, -0.041405158053813694
0.039683895719455554, 0.5067237247977747, -0.013586808906983518
0.12049246193775016, 0.5054925726451824, -0.047977070199549096
0.08801964476504807, 0.5059970371549816, -0.035582393088771175
0.1355547455738374, 0.5045539093453162, -0.043656088991410276
0.16030723843242392, 0.5014854445450637, 0.012203045197515874
0.13190325253744392, 0.5040221651716748, 0.06661965946054296
0.057564730264106224, 0.49993931706633754, 0.21677005126032883
0.12292432043152807, 0.4989989233096498, 0.21120443547093826
0.10137111093901865, 0.502911149962495, 0.12319301278615152
0.13189228566557423, 0.4990340580940005, 0.2063460310824567
0.05036577916928634, 0.501361597962851, 0.1844910035679459
0.22022721513878774, 0.4943377567733144, 0.0030648482068349366
0.20559075784439262, 0.4967729020467078, -0.0072214714014604345
0.2066524633176987, 0.49429776172760503, 0.16259191861382907
0.1616775270198989, 0.4968202638345267, 0.20561781327060846
0.20347986476069135, 0.49620847647318916, 0.1028669274592037
0.2533744093299454, 0.4887042593455524, 0.022994835981546367
0.25172770321580357, 0.4877607891617015, 0.19897896503600196
0.25522113667444696, 0.4875424722506519, 0.18237218688729
0.2820572392834377, 0.4821469516033539, 0.23659955840645436
0.26464599020330376, 0.48597606724036346, 0.1433372804836189
0.28269852036672194, 0.4735745677248794, 0.38930561045061873
0.12598068005008645, 0.4741159122949753, 0.40253404982638985
0.15266977512835866, 0.47758624672110284, 0.3925258769960014
0.033403765266286176, 0.48528133675366464, 0.3595368728799385
0.02350598511614608, 0.48822049542838014, 0.34183881287356005
0.22767501726331268, 0.47476888618968405, 0.394430924141822
0.20330668151939968, 0.48100407795754363, 0.36712491207607384
0.28670851064887837, 0.47728103486130274, 0.3507671743979254
0.2267592980606109, 0.48616879697924664, 0.2991069064834647
0.2699786988498236, 0.47659170887291646, 0.37559453975900625
0.2368999419798397, 0.4906180470156504, 0.1319231518014594
0.24665473970443189, 0.48612334492649883, 0.2732086303245083
0.2541761438896492, 0.48589888014146454, 0.2535575387011617
0.14229230866249262, 0.4897877727676639, 0.3163231929069945
0.1613672276289052, 0.4908319734126251, 0.29322663103455504
0.17868628305911122, 0.487847166635789, 0.31650003764497325
0.16180087720967837, 0.49862494283974, 0.14891701038716867
0.1522870864474664, 0.49983957631796183, 0.1413953711213462
0.1577870814826803, 0.5006441969102506, 0.10400284982211848
0.1538655776156545, 0.49621678823610543, 0.23541921246485722
0.2206697237638851, 0.48677237610862795, 0.29760250630262947
0.18568778428993213, 0.4921108963241887, 0.2586618084635592
0.17855679605979397, 0.4858264999870789, 0.33709414342180744
0.10222273827483996, 0.4914758727950561, 0.3052523450668477
0.024939104198971974, 0.4918904195569811, 0.3103081155585693
0.0467949329913561, 0.4909565882295979, 0.3172629411437583
0.017161221370952717, 0.49776153771752235, 0.2509622711950023
0.09553873995192882, 0.49181285610511294, 0.30259767518664005
0.06771958643165732, 0.5039978302888519, 0.11426179700471732
0.046726053593683134, 0.5041895181564502, 0.12008877925336334
0.04172456944814361, 0.5047579944059809, 0.10925564404866013
0.08330790851114925, 0.5039215714246118, 0.10839049634092515
0.07963488959268024, 0.5029976174533289, 0.1317926279217086
-0.010783419673536198, 0.49018246465627335, 0.32507701273827766
-0.043303564177603796, 0.4897780354612314, 0.3246205363189001
-0.03013146654996801, 0.49156256681192867, 0.3081746460924114
-0.08779004278170834, 0.49001764539499837, 0.3158603164972272
0.05402661018188431, 0.4972687289102749, 0.25117441050382544
0.1266925311722356, 0.49767501420266147, 0.2320786247961467
0.048569061000976486, 0.49958992163856797, 0.22646365278698802
0.11492411260087108, 0.49618388494447513, 0.2510172472334621
0.09850367772967139, 0.47804027520380316, 0.3930123051436193
0.10693969197235788, 0.48519403678162976, 0.3555879332755573
0.12989924460506752, 0.4868432879095921, 0.3428940034675852
-0.03155749964672596, 0.4845395127714937, 0.36226090332915073
-0.03747972197372254, 0.48307973132531623, 0.37095667732025767
-0.14976633536758235, 0.4755666975149595, 0.39500552418235163
-0.0567550204665228, 0.4880220761701183, 0.33753199270638845
-0.05351388548030481, 0.48658536371408223, 0.34744737829194006
-0.21922000747432552, 0.47977532070527035, 0.3492073130328165
-0.16470927078809627, 0.49416819239065435, 0.22617857018205206
-0.21138577039590228, 0.48447808057981645, 0.3112325457523158
-0.20006948117442433, 0.491477936532428, 0.22712885830973822
-0.05466506254625929, 0.495026756814604, 0.26827633418321495
-0.043469463707377816, 0.49745697493507224, 0.2438914778444598
-0.07636295383293856, 0.49214636580456267, 0.2954058567055645
-0.09134789092105554, 0.49790230520494116, 0.22892345926063676
-0.1898343669389586, 0.47827230442564456, 0.3763377476542645
-0.22979120229035566, 0.46899004788425497, 0.3990242321204663
-0.15401957419735765, 0.48598924914553, 0.33092641147970486
-0.1632856693438782, 0.48574774432623125, 0.32840174723532445
-0.2457412927960561, 0.4727448350709542, 0.3747892653890229
-0.2639943407872065, 0.4711097292785538, 0.36504014185317635
-0.27647965469137553, 0.47662776899096726, 0.28411954171056364
0.1456060774356669, 0.4140354524267924, -0.1847691954082855
0.15156196562682708, 0.41359123483290505, -0.17507132828596217
0.1667434158816604, 0.41142706532109935, -0.10299086422076378
0.18440653769078086, 0.4110665558140043, -0.14269076680624934
0.148164218171233, 0.4127392704129956, -0.12938875076862769
0.2161310859313222, 0.4149791471081533, -0.22003676192158006
0.05803200801915873, 0.41477651456276293, -0.19270226999339607
0.05304464219878868, 0.4148225934665807, -0.19403430629386959
0.17054074981140296, 0.4121255780476291, -0.1554635247408738
0.04307648253992328, 0.41327000209758885, -0.08635258814352675
0.05498521081046473, 0.413235299211344, -0.08980571693243457
0.028846289341853567, 0.4138065482672794, -0.12496561138483787
0.025617309458216157, 0.41352132319470347, -0.0985940018462122
-0.04100802327490371, 0.408858388643088, 0.0814786683920789
-0.1054882629748175, 0.40839635835113186, 0.06466173334643135
-0.10201530053411319, 0.4082994243806922, 0.07031976426581069
-0.07840481902918536, 0.40897259940790576, 0.05681635757213382
-0.04772823048201791, 0.40978726697223794, 0.04161130808855451
-0.10962603927318296, 0.4086386280693928, 0.05297483120584773
-0.16481401746724747, 0.4107896793910121, -0.12272576237982288
-0.1251566081994084, 0.4113394645048867, -0.07594184431840525
0.10411179546453614, 0.4138167092520768, -0.1603897925837108
0.10030144147417319, 0.41400984904111454, -0.167507245741841
0.01428577754678019, 0.4150202972268258, -0.19697879759947162
0.005507047968181264, 0.41479421816569323, -0.18891755820952855
-0.25113059754132383, 0.41534129512200635, -0.2233993594982902
-0.16826934463714796, 0.4421115268852358, -0.24287869355338904
-0.22445809331018693, 0.42637437780101906, -0.23609393424951364
0.052833933449347045, 0.41537306749392333, -0.21013263019343056
-0.004979257318086723, 0.41618687710586344, -0.21578095352216883
0.05772071196826583, 0.41932341566857534, -0.2288988565999742
-0.11891886690654543, 0.41736821387193673, -0.2267068815496216
-0.19938699350685787, 0.41339344812664136, -0.2102207768561368
-0.12421690830133217, 0.4157039740857714, -0.21821975125467558
-0.08282559379526289, 0.41320839529766684, -0.15813652650420223
-0.10866125461586343, 0.4138300167195555, -0.19201697769192203
-0.18975012313574258, 0.410910046048586, -0.1610274001233525
-0.15447151819650684, 0.41204124503755335, -0.16449899253847863
-0.13944106756895897, 0.41349387107638225, -0.2026743544302811
0.0004392482663905582, 0.41300527817208865, -0.06329517875326451
-0.09045440356758308, 0.41194749551836585, -0.07635181870215624
-0.10821631831182821, 0.4116225248036155, -0.07086084547982885
-0.06153253340744543, 0.41275291369539024, -0.10407984818139898
-0.13609391343619173, 0.4106990111878983, -0.05955310178046204
-0.19184570722549085, 0.40887832538945057, -0.07213126265818509
-0.1892801944874083, 0.40902066843539164, -0.07434166155573893
-0.22351200249993425, 0.41075978107923383, -0.18321580905200988
-0.19694489325782916, 0.4065858673350604, 0.007072003493631483
-0.19688253760681051, 0.40614640077562675, 0.02072330188352444
-0.15365148415524135, 0.40697220956314484, 0.05664592837131244
-0.21288088471251898, 0.4044346610818804, 0.05082542281872586
-0.2251295421745503, 0.4089042974485244, -0.13326645450375002
-0.27753220519746147, 0.4073078491567496, -0.13385498176481708
-0.2600383113778937, 0.40216403193868355, 0.042831695754570694
-0.2617027969413899, 0.4045881605235681, -0.027880769335106106
-0.279111639406923, 0.4031443325180189, -0.0002599780507501396
-0.24220371875197957, 0.4087231966887023, -0.1475778449178065
-0.26318382229323195, 0.4052955565959395, -0.05384461610384023
-0.2378752860096172, 0.4068367307892853, -0.06461838651035826
-0.2731821172155524, 0.40531135079030883, -0.06158194076541751
-0.2902647576002592, 0.4139629164822512, -0.05533209245798087
-0.2796999024569258, 0.4447702247210078, -0.20734425806041823
-0.2901098966658757, 0.44021136527553273, 0.028829418764043394
-0.288820858617913, 0.43523701029051903, 0.24032585380745303
-0.29065431557810145, 0.42195019334729267, 0.030492637503884642
-0.29068632422935065, 0.4251664991909851, -0.07701885225679114
-0.29054195382555703, 0.43062859464171266, 0.014982609018626806
-0.28907655320964964, 0.4097130881783562, -0.05822949129821341
-0.2714739923377238, 0.4011457461007649, 0.05515211728589667
-0.25802072745606225, 0.3983662958956063, 0.14769098714906614
-0.2561708577454581, 0.39645905198479914, 0.20140287024299813
-0.2752198939625476, 0.3959799255702179, 0.1931744743378602
0.1781417613295873, 0.41100496020723326, 0.41006477469037
0.055225687709273684, 0.418531236371308, 0.4112096088820053
0.1497073093583023, 0.4034249647215514, 0.4063554292229795
0.2856730032245673, 0.3941630389554046, 0.27527793783825283
0.17547672727223257, 0.3936472111778207, 0.3812236171977043
0.24750669112438392, 0.3929879339374953, 0.33975210856537735
0.2330931795997329, 0.3925401287365069, 0.3641465067282818
0.22811109556781567, 0.3925325856823585, 0.3691686288757374
0.28204609228784405, 0.39157732119558397, 0.35036231906188553
0.26067942169014524, 0.3970453145144971, 0.22328461297865188
0.24198952826122114, 0.39260061619318554, 0.35580014778083935
0.17930152652621045, 0.40052476161651646, 0.23086037132994297
0.19479776886422798, 0.39806394509056026, 0.2691620184770607
0.01458427579099543, 0.4131372431108353, -0.06063309102259717
0.008916604495901185, 0.41399759135785025, -0.14072368310346633
-0.004786303497455828, 0.41355730114527, -0.11601471754111925
-0.003263015287880539, 0.41352099749343074, -0.11137620761505873
0.00014307310700405345, 0.41302944945974435, -0.06545290683547271
0.12318030927102712, 0.41337049850312585, -0.13852393571322072
0.10238148118270508, 0.41286926185539896, -0.08866531465609295
0.09734299019040606, 0.41279243346382316, -0.07996097280491103
0.195923120272512, 0.4091742564414049, -0.05247773821002609
0.15620019100904986, 0.4114240743767538, -0.0636759793397545
0.21306822089026434, 0.4082491509912062, -0.050738050463058314
0.040945852758939846, 0.41168845748916394, -0.006178286341304549
0.0475143379893739, 0.41274003259643033, -0.04954877622547994
0.04443328258833501, 0.4122923217017499, -0.03100177554052507
0.04670178561355519, 0.4115947158438549, -0.004137561026717734
0.0604089650695689, 0.41118244501967016, 0.00817873444144417
0.2421359564640284, 0.4062147093888012, -0.04074154112668214
0.1541487436361267, 0.40881313091306226, 0.04129399221642793
0.17903826644406623, 0.4092106050699633, -0.01893425649658383
0.15230312110143474, 0.4108417130915531, -0.028319294765851908
0.20817691089590562, 0.4080089925167849, -0.029443295665423235
0.2660353483780568, 0.4007150088026694, 0.11025971313636092
0.23830361392495292, 0.3962339970394471, 0.26963003713294803
0.24613903266492754, 0.39457145576614344, 0.29858663913577915
0.2644831522106251, 0.40353273240909626, 0.0062319426374792194
0.1894710080812402, 0.4050615617322735, 0.10610663352558813
0.18762179417267993, 0.4038963077287775, 0.13615324498246634
0.15993769284528225, 0.40722101285608325, 0.08856355340466722
0.18595698080369627, 0.4047987114304063, 0.11646786132531109
0.16429816490416005, 0.4077073004698509, 0.06316150181742329
0.21224577398787214, 0.4063098494100498, 0.027285986311526837
0.20906925347723737, 0.40656573998872714, 0.023418844740223804
0.11126666110193327, 0.4079566436676389, 0.09979493096135196
0.08600679311773357, 0.4063936940346041, 0.14269215865063412
0.04904934817788685, 0.40520422645757564, 0.17961847304491413
0.09455393509090251, 0.40664692646529643, 0.1346668247092226
0.036423607475264456, 0.4068775840625274, 0.14326480325976484
0.1439358721657, 0.3998837651016155, 0.26661489939088884
0.15893795921477896, 0.3960308388450458, 0.3254758583687698
0.18110154936722614, 0.39718153030516673, 0.2938948342275822
0.1912100858717225, 0.4019929095825288, 0.18103618897187287
0.17960326034279075, 0.4020962137799278, 0.19119782667586088
0.1977770614036098, 0.40221856600073164, 0.16780208789799805
0.19374491881528255, 0.4006042786784069, 0.2148063805877109
-0.21667039791627715, 0.4071753672979981, -0.03918326468508391
-0.2361053180271975, 0.4054499815918272, -0.015366959743155741
-0.19986802241823803, 0.39958608506736804, 0.19381395797096368
-0.20837012639837593, 0.4025256425691545, 0.11009123496636276
-0.20828319950555627, 0.40272648397518257, 0.10511159081688919
-0.21077208485225146, 0.40103830503771565, 0.1450183223671216
0.11249517673543452, 0.40965091461513503, 0.04631488688341892
0.12929366895364425, 0.41042842179515787, 0.012518259268230858
0.11097186122945052, 0.41077548592288377, 0.00691481314526473
0.03990631198432753, 0.4094256584907595, 0.08097775410980901
0.12341440374608456, 0.4112762305342401, -0.015447822138784198
-0.06671987178496544, 0.41077434382223815, -0.007210558044939657
-0.019877856421137968, 0.41076303011935644, 0.018392493915676537
-0.024608555079313435, 0.41177599605468124, -0.023932083842806512
-0.008999166818794879, 0.4125547926027203, -0.046135173167424326
-0.01740581977366661, 0.4121438184916924, -0.03450955859763294
-0.13567762725655952, 0.4080937272202201, 0.04399072269383006
-0.18104277347410339, 0.4084614778704969, -0.03577106578569972
-0.1415718590615215, 0.4092221720608804, -0.008395362393399294
-0.11826585642962396, 0.41055035236717385, -0.026412750222380862
-0.11195658234836592, 0.4055290242706723, 0.13978025348641313
-0.06615105579437916, 0.40582293961974203, 0.14646953402783583
-0.11108459596697068, 0.40234858649464667, 0.217395380698417
-0.04789084879042465, 0.40498976699269484, 0.1722495157047747
-0.005141594614083255, 0.40410902665377, 0.20658441499921024
-0.0590908786642689, 0.4051867604499784, 0.1640749474255976
-0.24299347577584918, 0.3999147861137007, 0.12945940783369186
-0.23811539336201637, 0.4001350880449641, 0.13114336687774789
-0.20735284199431295, 0.39360750861250776, 0.32157848084995666
-0.17633207866804673, 0.3955023835688148, 0.3001808225371595
-0.19597312797797473, 0.3967675847435425, 0.25732054731274745
-0.1274326098896924, 0.39759185030718397, 0.2937911386577915
-0.12761357536455326, 0.3973551886657568, 0.2978248605783268
-0.16280143011875117, 0.3985582564276529, 0.24939748651866145
-0.08358444246291463, 0.3956164673456735, 0.3552974518391292
-0.06889531843303887, 0.3949857982120725, 0.3773745097325076
0.01798665403670833, 0.40241695296091234, 0.24457218739264758
0.06032975367223603, 0.3984012384908119, 0.30650769453338383
0.02905201120965424, 0.398851796507514, 0.3038282746435179
0.08047557609392733, 0.3972067143575061, 0.3237159071947861
0.06464101612235895, 0.40546532042200634, 0.16970844346203154
0.11468429894241786, 0.40352525380354, 0.20406282895053862
0.13406778952664314, 0.40428810090935857, 0.18141091640843193
0.13454572091768982, 0.40364236064593834, 0.19663276261013454
0.13249710232722756, 0.4055202760211922, 0.15251940891975782
-0.017029767718827388, 0.4070145054774891, 0.13415109595916314
-0.037985825957854435, 0.40724990255515015, 0.12178919312532228
-0.0694408775284432, 0.4064372634818857, 0.13067338482585736
-0.06215907407889269, 0.4067794404550382, 0.12499131417854711
-0.03357240413430841, 0.40641029382579796, 0.14298493842544296
-0.030667505101205812, 0.40850170839438454, 0.0947122179636852
-0.14804777362976385, 0.40495655920601425, 0.1180806868878298
-0.1327641854296914, 0.40454892944125886, 0.14506629152576214
-0.15063126063931606, 0.40421701624144346, 0.1331810228346318
-0.15530638199019806, 0.4045307215791399, 0.12032940657037325
-0.013622023045003429, 0.39815514357459036, 0.3117463694020533
-0.004893383397240918, 0.39801681307194575, 0.3158846585478415
-0.0838058663003388, 0.39864961223415285, 0.28939860875649515
-0.06349582995710484, 0.3970858814479338, 0.32099196880300257
0.1746633799223404, 0.3944839068668467, 0.3549259742496869
0.18650184605088, 0.39358557020671414, 0.3693782936767753
0.11312952596007526, 0.40248692482358117, 0.22732229460849032
0.12501336297657517, 0.40083384500699687, 0.2538765439361054
0.09406727228155246, 0.39944733088886636, 0.28313364698796173
0.13747085834065947, 0.40215770307170595, 0.2288592145327866
-0.006144784279792533, 0.39901686033173417, 0.29832239601216276
-0.00023141199638544545, 0.4015933407613813, 0.2554709474239092
-0.06727131731532919, 0.400481682729843, 0.2602560172438231
-0.07146646203003343, 0.4025667955620972, 0.22366847700880654
0.04868326216836764, 0.3965757874940552, 0.348065254179976
0.05516378230701521, 0.3961360282095624, 0.3623075623978431
0.04989139365548795, 0.3961976700801797, 0.3817052512292961
0.09460585934328497, 0.3958915777815162, 0.3503892573766782
0.08877463432520247, 0.3961756190727363, 0.34499748408673353
-0.008586520093589829, 0.3966558429557152, 0.35752098744920136
-0.07094555323664196, 0.39637599183249367, 0.33989238146082834
-0.012854039286192881, 0.39688591792886585, 0.34543616847635683
-0.16971383088694178, 0.39427006700900835, 0.33355122768197726
-0.1406483498631581, 0.39423738899548216, 0.35653898468934275
-0.26530615811398967, 0.42988876123203834, 0.40797246212626326
-0.07717112388376669, 0.43136413702637777, 0.41334300846977756
0.14167702196041979, 0.3944936350955982, 0.38173296591933176
-0.0378920123532943, 0.4048837607141443, 0.40611162208490786
-0.01488023704541729, 0.39738768816566233, 0.39088211790592553
-0.0778204512901018, 0.4041593227284037, 0.40624106857356407
-0.12338669652335929, 0.40066693359137834, 0.404778072589123
-0.18856119456546083, 0.4153442126276582, 0.4106754976207736
-0.28006864353212163, 0.42618270283905474, 0.4054552003988501
-0.2841666100321634, 0.3982624342347201, 0.14710580828809133
-0.29000840140049233, 0.428741870776599, 0.10584160176304049
-0.2873367756041724, 0.40479860496543074, 0.04387280777722298
-0.28571762776233905, 0.40341264296445273, 0.3241711321038565
-0.2861667172305162, 0.39963614312566853, 0.1659848823018249
-0.2841987742772738, 0.4023351925257352, 0.3431629596445447
-0.1692827392018733, 0.39440474765802214, 0.39258265401939285
-0.25937206772528065, 0.3916887954634842, 0.34028818319694243
-0.2666900472026419, 0.39502420755318457, 0.22464298744221908
-0.1972181985141278, 0.39267570051854106, 0.3624753608362944
-0.16228459395083017, 0.39306372582199656, 0.37907703148777305
-0.26235113685275196, 0.3936459232399529, 0.26723564358972796
-0.24587008341349875, 0.39299388543996827, 0.30215075416232506
-0.2720473779115237, 0.39275097388444236, 0.38492010070774335
-0.27236743729907414, 0.39161904255851315, 0.36663700715648956
0.7866308599154879, 0.4998363416782635, -0.20862262512372054
0.7748545123723997, 0.7877665237575048, -0.42512649539047764
0.7760752996130516, 0.8076919113361617, -0.42477014092894694
0.7295751882630883, 0.8427117254343812, -0.4249638337906254
0.902180609450693, 0.7697832538275842, -0.4016697813940297
0.8465897881412663, 0.6599672374865071, -0.34062842948338246
0.7375872720013206, 0.721011676057045, -0.4090292966224937
0.7685321223877456, 0.619883935245011, -0.32717430387861013
0.8879843523801523, 0.7688490163104791, -0.4063825967479865
0.7834917147712979, 0.6907327459746978, -0.3887733707666611
0.7666365083891347, 0.7934982382783322, -0.42575717753845843
0.8747526169815882, 0.8187524176574481, -0.4110491658357197
0.8607535729994946, 0.7027855582326338, -0.3870389906884344
0.7983307855755347, 0.7802829968405345, -0.4235426855601969
0.8538791933060028, 0.8298519605473523, -0.41451524216263325
0.8433063319391185, 0.7903069059439649, -0.4193486617246702
0.84760074812538, 0.6887518098423501, -0.37811010820186375
0.8114151137622951, 0.697706022097872, -0.3931169562832734
0.7873932852660397, 0.6724652042889668, -0.3714281476127505
0.8149224526488661, 0.6672469113852746, -0.36197100604763877
0.8472661569579334, 0.6694078374809896, -0.35398945223306566
0.8768480459383803, 0.6865748101639535, -0.3597033178064233
0.7891807453814799, 0.49657563190873055, -0.1929179951130981
0.7975253325744486, 0.5455198745020977, -0.15139442972806721
0.7422629808408041, 0.5871021237439651, -0.30297490713543873
0.7565134071864356, 0.5397322597669101, -0.2621140829826293
0.7554960372206195, 0.6012594306321004, -0.31343844454377706
0.7221573399870254, 0.5842201935036976, -0.3016337093839811
0.6980667517190067, 0.5566207390537279, -0.2802010023178919
0.7364378842571762, 0.5310489857398591, -0.2565003182005834
0.8094231855455475, 0.9577282558880013, -0.39587499720846947
0.7338070307396339, 0.6538676881353889, -0.10018967800721963
0.7587773584058526, 0.5538108972933646, -0.13269608483838913
0.8360279417608977, 0.6714519271791232, -0.1606392720878085
0.7701190890822005, 0.5948482367666145, -0.12475712547568335
0.7766509239155908, 0.6436956761279418, -0.11952042888516927
0.7788095557080492, 0.6254056626561899, -0.12460424222018042
0.7632822579480815, 0.6963309325610214, -0.1028188336797973
0.9673061366501077, 0.9734356036977493, -0.18886466825527087
0.9329659010462104, 0.9478142274598473, -0.16926361528405875
0.7840587740600493, 0.9770453260955286, -0.16445811582970485
0.7928378737320264, 0.98121947033403, -0.16757333476323005
0.8145999020146399, 0.916198670122272, -0.13618820262842563
0.8436643573198208, 0.9188830475169408, -0.14093340500786825
0.8394779196253372, 0.9466207310425685, -0.15373511084916575
0.8464440468999853, 0.9883543242401818, -0.17656881169263045
0.836552202485111, 0.9999180582411438, -0.1826178097658204
0.8251758903915272, 1.012202010599676, -0.1901699657612735
1.0082371237470384, 1.071495093277081, -0.30422760314288666
1.037259432370711, 1.0826191886565522, -0.28238559699178484
0.7393192155685829, 0.8082539063178065, -0.42699371244583406
0.7491275444073024, 0.7102052288126393, -0.40290920121147367
0.7406884947460022, 0.770999821582272, -0.42648365547414435
0.6968955719501267, 0.768778753337479, -0.4259671188687727
0.7249660300983405, 0.7549120104827685, -0.42288838631632936
0.7578112382536158, 0.6433683385597282, -0.3485562490275952
0.7320575466485038, 0.580471856067792, -0.2981920834276861
0.7213729845110406, 0.6279837282230731, -0.33806974600336304
0.696286716059989, 0.628511702161238, -0.3399303552528945
0.6874840180019304, 0.6813424953521268, -0.38374165143386696
0.7015274986889202, 0.6674622425982053, -0.3722082674100663
0.6541081215250789, 0.647070161594816, -0.3581245948982599
0.7101049217209258, 0.5026057576429134, -0.19127540135996568
0.7367488502538271, 0.5037540685233032, -0.21749617079804928
0.6894446010893748, 0.5096917567022758, -0.22862767720455612
0.649405079645723, 0.5120302864462979, -0.21078687120310605
0.7435625812841735, 0.5157806913327182, -0.15774020855458196
0.7476174766028287, 0.5984123094242347, -0.11477299660512313
0.7396327734219909, 0.5609008683315618, -0.12443138845622798
0.7333636620970211, 0.54296762085583, -0.13230013513312086
0.6928289093109357, 0.5036479105244273, -0.19224191288314477
0.6960633169489236, 0.5148988762420663, -0.15916299493726394
0.700421604767385, 0.5181005926826181, -0.15423942343121938
0.718651239382212, 0.6521549639901847, -0.09741474731349098
0.7392639156826268, 0.7082364671614112, -0.09545301681370234
0.7318008560038912, 0.7429133017364299, -0.0927639153461499
0.7545648776600409, 0.737802206497927, -0.09597611076803156
0.7771244998290541, 0.7754023656241911, -0.09852367766952097
0.7338610133774051, 0.7753610777997935, -0.09338890222527457
0.7115023225065273, 0.7670662227486476, -0.09208578180057536
0.6668803230750355, 0.9187649690288984, -0.13202374194834698
0.7540323462012446, 0.9390685091095079, -0.14175345289179447
0.6536120199186989, 0.9348309526786811, -0.14200453336522115
0.7138172436947502, 0.9928109539719903, -0.17217326996115567
0.678461409657776, 0.9402959187885276, -0.14228899973456674
0.7270373150090963, 0.9320640523100406, -0.13692948483014794
0.7737411907357309, 0.8793830998688192, -0.11654697626279951
0.7684943485891758, 0.8377649814141401, -0.10381257025454922
0.780128118471177, 0.8714446766338606, -0.11420177105999797
0.7625180795104934, 0.9289890346149414, -0.1371532848423861
0.7390456918287089, 0.927639558161649, -0.135120674511131
0.7464185827941034, 0.9537745189404004, -0.14903825921189406
0.7136236437727475, 0.9121389005465147, -0.12709380420451286
0.6835119945353049, 0.8860670977204042, -0.11617970027026722
0.6655693934531657, 0.8025083396276447, -0.09604836655340479
0.6377028856841855, 0.8321669394345503, -0.10432946513986315
0.642100842231369, 0.9110943327754901, -0.13141863414073374
0.6024127277796802, 0.8653511982474029, -0.12021798657588478
0.7489774105585463, 0.5268946486065791, -0.2513661005992967
0.7761416597375584, 0.5147616578267131, -0.23645101558351414
0.8034033969902766, 0.5082216010421021, -0.20142296117087158
0.8128523729489678, 0.4999190643400735, -0.205111378426727
0.9919244509772465, 0.8908660855712855, -0.36303116909535876
1.007439055534353, 0.9329131633724375, -0.3540402920343313
0.9120879620221922, 0.7744485613890203, -0.39868460921507576
0.9252600578142887, 0.7228598807643267, -0.36115307986942563
0.9770527546691259, 0.8778405463325751, -0.3716123054367343
0.9213034072513165, 0.7379213032087811, -0.3808555590904069
0.9626696629023325, 0.8651851023621737, -0.38023829235078627
0.9529969046689919, 0.8564873111355418, -0.38589003628090646
0.9676444145183736, 0.8047182760611371, -0.37068570769221526
0.9682081338805067, 0.7947013079172066, -0.365882037998932
0.9944462983960869, 0.8712859608581766, -0.36053820049076124
1.000565184185921, 0.8435855032232722, -0.3523904303580039
1.0285474501200151, 0.9015242308439878, -0.33874416190064904
1.0609547841028801, 1.0160543386894778, -0.31024931862177413
0.9961750455924642, 1.044627685281336, -0.3231517270543559
1.06291220386364, 1.0269581894172801, -0.30644871846125665
1.056672434587393, 1.0762923516226666, -0.2906939794440313
1.0539841871401152, 1.0283324890599854, -0.31071752591759716
1.076462959912318, 1.0742137982279627, -0.28038330546378804
1.0613360752208896, 1.0808820201362337, -0.2705203944653699
1.0347289640051511, 1.0706259781040233, -0.2568538712182382
1.0239979384964624, 1.0648877604322688, -0.25140068058444087
0.9777733493038181, 0.7701632790154098, -0.3424164156089668
0.9615720283635134, 0.7394959058596209, -0.3285626452696231
1.0654640798613917, 0.9244880751982328, -0.3071868113292186
1.0339283066560392, 0.8691597037151475, -0.3280726018748292
1.0701988584020783, 0.9821315741474754, -0.3073712641562306
1.0255902483828117, 0.8611551363928176, -0.3333219968405236
1.0635537071538586, 0.9202634257183773, -0.30852496109874444
1.0526933071745668, 0.8536713162699157, -0.29289482066019795
1.0331870716722886, 0.856073973590507, -0.3241235248942361
1.0140509009944108, 0.7990383766467108, -0.3125933699730409
1.0100451044393703, 0.785348995167834, -0.2978656938071069
1.0923825707581876, 1.0550134593443947, -0.2691117413854176
1.0710604940822535, 0.896971135043261, -0.27887899666851756
1.0801589326636845, 0.9575179157578715, -0.27007183240173405
1.0199342551123736, 0.7964576239503399, -0.27722081387505537
1.0439084083839272, 0.8336055675161109, -0.2702482603123023
1.0869016188256715, 0.9733504394892085, -0.2667192895768588
1.083876288277176, 0.9527467904785847, -0.2584812509005421
1.0814287953323944, 0.9927451185679717, -0.2502393752590973
1.0677714226632957, 0.9961294964010059, -0.24222035036082923
1.067657099930459, 1.0337530454259871, -0.24917463565420722
1.0389883182366073, 0.9648923006199861, -0.2209190780799768
1.0732740798962666, 0.9764994893206993, -0.2435841176173661
1.0586591196497837, 0.8771819334182657, -0.2446716215496168
0.6839254581591385, 0.5394078379202308, -0.1306724019976745
