-0.36289318759680195, 0.2578142749781355, 0.3205993165312132
-0.16795759807275024, 0.2569514204403324, 0.32960051144968205
0.13515428284345063, 0.2639678254647592, 0.25521542938690944
-0.303412044958603, 0.2580354266529455, 0.31822327052600446
-0.47577552037403725, 0.252707894694097, 0.37466716192582816
0.086106187787723, 0.26379102822387496, 0.2571158766491763
-0.312902688634806, 0.2633101051692157, 0.26245295244585254
0.391447396352869, 0.2642895162817758, 0.2516521318734731
-0.28907262345332946, 0.26073505024621524, 0.2896674596614276
-0.07316424770725449, 0.26374827208515705, 0.25766843560898767
-0.44554416681926434, 0.262504822231878, 0.27105194459284965
-0.16239798521740184, 0.2567085378229904, 0.3321653314961031
0.012786720957979957, 0.25887722459907875, 0.3091223993290928
-0.20891540621663174, 0.25790925563218065, 0.31949785490494226
-0.3104816912393229, 0.259452454451713, 0.3032435792296365
-0.2764011359210453, 0.26022660012493326, 0.2950359988112307
-0.17871206541192594, 0.26430757442898495, 0.2518207376920317
-0.12302257825913808, 0.25894602824017093, 0.3084804907266763
-0.10284864637663768, 0.25788659989432205, 0.3196705358745291
-0.4043144047103134, 0.2593822408053105, 0.3040452166032648
0.17998008900118853, 0.26239671369634293, 0.27180064857033626
0.23601768997628203, 0.26267777334068954, 0.26879328625167487
-0.1325758366885722, 0.25803655683638604, 0.3181035853267122
0.18577891134416685, 0.2489233609573272, 0.3881639006445736
0.13298598385921623, 0.2490159369790459, 0.38811031391260353
0.004457702341014502, 0.24743231046576802, 0.389216429930519
0.7281949086414397, 0.11317526399863048, 0.37998843556711076
0.6532012226300824, 0.11389910088515999, 0.38152216108925396
0.6295290660426053, 0.09115907523750712, 0.3743423054868202
0.7364329358425713, 0.11590578607730934, 0.380757590915176
-0.4680419323534113, 0.10044836015418054, 0.3787177656080489
-0.4707336373785474, 0.11816311452283988, 0.3845879574323413
-0.16577143785240847, 0.08058054925504043, 0.37210345960973357
-0.39064180564582696, 0.09086219747132698, 0.3755333917114504
-0.36555538947415367, 0.0922682421617381, 0.3759967257718512
-0.5208330811508313, 0.0985480915066694, 0.37809350426359173
-0.5515505853759337, 0.07880459344373804, 0.3715544948333654
-0.5374843462436354, 0.10833421079839294, 0.38133791338624784
-0.19715535743504142, 0.10162047073612612, 0.3790784090388954
-0.04585437958603118, 0.10070504821362584, 0.37875958072663657
-0.3056090991883524, 0.11042832475569471, 0.38200806505475815
0.03142154503417549, 0.09177569504620894, 0.37579285828828735
0.0019186538611939558, 0.09523320637532025, 0.3769415521669794
-0.8346370287981092, 0.07590126276559145, 0.25524598742473453
-0.7782642461209045, 0.07469182497115898, 0.2685412413321684
-0.6167403766419326, 0.07086656955391285, 0.30031370914949995
-0.6478963526265472, 0.07248430966481716, 0.30964286514454226
-0.676118602967268, 0.07298681130169492, 0.3011775504036712
-0.8026287348715901, 0.07424131409239862, 0.2456975815511261
-0.8222747335044305, 0.07467329446153664, 0.2412484414426099
-0.61825261038794, 0.06790048867269596, 0.2472800731424975
-0.6400586358175329, 0.06957182455967764, 0.26327992754100116
-0.5905806620533127, 0.0692910962368157, 0.2886656400613554
-0.7481602515244372, 0.07595935145287476, 0.36037544037680147
-0.6392979998517792, 0.07342366385332545, 0.3544815666808292
0.2189503434710656, 0.06940925660159102, 0.302598404977717
0.4159903938493861, 0.06679365680579026, 0.2576111112848517
-0.27098231845649534, 0.07099552912184576, 0.3319538709410185
-0.05864156434553462, 0.0692260521668941, 0.3010774043557822
0.2539058618103279, 0.0711969606808936, 0.3323973225809947
-0.1435604030785798, 0.0718368516144651, 0.3453569544202725
0.5067665942013115, 0.06633034511731074, 0.2493297757177478
0.4564103852893211, 0.07042262340293147, 0.31827253266743477
-0.38130925476834204, 0.07187510619091432, 0.3473287567457693
0.24011816768576183, 0.06862453346151995, 0.2893137506029647
-0.19081319500329164, 0.07127239653481843, 0.3361507444554974
-0.3803474552406846, 0.07176125647394214, 0.3454131830818257
0.44885876207578107, 0.07123847139937767, 0.3320032375388591
0.44134315799289636, 0.0692842227691573, 0.29925650406225024
0.5162773281703115, 0.07234245260131097, 0.3501489183204375
0.4272492008747892, 0.06636964881723353, 0.25043403879925497
0.1980554645938884, 0.06869147568414213, 0.29067221803949955
0.4959604278046632, 0.07162202060478287, 0.3381750178525918
0.1982719657284871, 0.07130008166011646, 0.334438721266498
0.3042550680255703, 0.07048963576531131, 0.32024803143726577
-0.17716954817104028, 0.0698400454132776, 0.3120421479037498
-0.17543045737217225, 0.0700802915762206, 0.316063317799238
0.3677449598039732, 0.07190930865271124, 0.3437124275192125
0.5494238718050841, 0.06654535275098623, 0.25269859349618695
0.35970059719589603, 0.0707313589544493, 0.323993551099494
-0.12841875206133402, 0.07072261341181968, 0.3265773404454417
0.1662298440151465, 0.07036039845010897, 0.31885177046718954
-0.005930706884959114, 0.0697007236491492, 0.30874667487210355
0.44321170549939476, 0.07122200105024237, 0.3317584841686715
0.22773576806982868, 0.07034699878351333, 0.31828288602811483
-0.031507574648392225, 0.06980882214107939, 0.31070344922231713
0.31973710033092595, 0.06984856008375892, 0.30940532907150453
0.10909498879156716, 0.06910696129322993, 0.2981409609488336
-0.014056447430720681, 0.0714133434184461, 0.33752680802635093
0.3054259276459034, 0.07671053416733489, 0.3652140931266038
0.5474989908179679, 0.0741627293124696, 0.35698221483247666
0.15013362988187245, 0.07746371228372231, 0.3677744640214381
0.20852910832247126, 0.07463525517128944, 0.3589545352148362
0.30913898182481514, 0.0757810388661283, 0.3623391160359698
-0.5136770193439751, 0.07824322411859212, 0.37118667384319254
0.799656611641516, 0.07309749883574371, 0.3408430634540336
0.7431044727760957, 0.07443012419841974, 0.3129334836560559
0.6811283361423989, 0.07344083167826722, 0.33238918661529027
0.87417834324916, 0.07707761367923466, 0.26071689015895383
0.8090573872696448, 0.0754464596789532, 0.2929558113099544
0.8567390808205049, 0.07580515299921178, 0.2860106037227603
0.775973995660593, 0.07504781059747642, 0.3007607089091279
0.760533761202066, 0.0752225516157726, 0.29721016296382247
0.763242213522134, 0.07280257767028286, 0.34778253317219093
0.6322288801711338, 0.0763318985747006, 0.3620970293098199
-0.3652361202905673, 0.07351521642999999, 0.3559534667889492
-0.4079161890749191, 0.07519185552942756, 0.3613556368043913
-0.13496919666926, 0.07253113685334954, 0.35258982325952437
-0.5641792043541932, 0.07370017601214923, 0.3567320037382569
-0.5277895982133074, 0.07637130464242124, 0.3652403134923012
-0.5468830973795611, 0.07540452821146978, 0.3621664214645546
0.7722385312798613, 0.07322909303392228, 0.16452541582178823
0.7907760136868478, 0.07395576748687666, 0.1486062457012647
0.8129536040034049, 0.07520964026312851, 0.03816442014346364
0.722288540810925, 0.07134446028129782, 0.18996818285408523
0.8222222066673441, 0.07512563758614646, 0.1365361643976665
0.8086067470117315, 0.07448298161647357, 0.17412022341455685
0.8460422989099653, 0.07723163972995209, -0.16256230009481445
0.6518382659702281, 0.06899595002928753, 0.15225979477560356
0.8707059388304197, 0.07665436106818502, 0.18328960249724008
0.7624595192576262, 0.07326975070382595, 0.07213914023223995
0.7737406699856633, 0.07356964264450966, 0.09628371229855325
0.8291606121921503, 0.0755284932897054, 0.09947043459572433
0.7743646008596899, 0.0738838156400538, 0.026882841734185897
0.8717467865503619, 0.07683287181771861, 0.1496623441576752
0.7286581752657761, 0.07140748181351589, 0.22886957811434605
0.8679483692340348, 0.07718718962577258, 0.03330983674052017
0.6632945462086093, 0.06953424723243738, 0.12121698309633769
0.8779066091177827, 0.07718681285219867, 0.11763747307464661
0.8570526171477999, 0.07648171630955612, 0.10883192035580759
0.6782220096289768, 0.06978962875382702, 0.18678630722613956
0.8656982190878538, 0.0772825347297326, -0.0083879729242273
0.7160719015514855, 0.07151106240842767, 0.09777954998688836
0.7948798805941203, 0.07384147742085816, 0.2104881016000571
0.846866228768643, 0.07701704894974767, -0.10458443220738484
0.871646216278702, 0.07650948014721497, 0.22568166680264395
0.7638404791936328, 0.0727220974682196, 0.21399780107658362
0.8590879996776143, 0.0777652058479409, -0.1790354149443596
0.8068886351070603, 0.07509506301864409, 0.014095001886915329
0.8655785084111258, 0.07666218171049753, 0.1380570224179406
0.8212736850432757, 0.07573994256274053, -0.017507533129122524
0.8753526753282235, 0.07695595042426366, 0.15090930611220565
0.8669955580989791, 0.07687331199644157, 0.09985845695554368
0.7447163615340309, 0.07261519000826794, 0.07763619974872829
0.7407307017798805, 0.0721164458408408, 0.16247224558956652
0.8049866965264927, 0.07530805976167361, -0.05262298340274994
0.8615024407721434, 0.07621407763489932, 0.2100911680328796
-0.3612688557872583, 0.06807236201060723, 0.2813182773221928
-0.32945797829304246, 0.06929487760478187, 0.3027234530436021
-0.2820618974491789, 0.06958862152661767, 0.3078239421469252
0.07642384674157307, 0.06666244717882461, 0.25612224238298653
-0.0619160269257539, 0.06801790949994255, 0.2800417214630251
-0.5291347543577091, 0.065569087982984, 0.23759851414198424
-0.02265749693123001, 0.0683928761234779, 0.28657536230574404
0.13246743918906037, 0.0674756173098377, 0.2703226592832426
-0.5267733391985578, 0.06705754460038349, 0.2636991584412153
0.2649276172165036, 0.06570637907492505, 0.2391530763086484
0.21676810798588192, 0.06702398997623459, 0.262311864313732
-0.38301561424108355, 0.06795757990420694, 0.27932869867265686
-0.14330851545479834, 0.06613897376906933, 0.24717812327553426
0.11760058993553128, 0.06677492471742959, 0.2580505305109405
-0.445895058491479, 0.0693369874620886, 0.3035870342922097
0.04621751264109175, 0.06551415837361725, 0.23601706384178073
-0.3673398825454382, 0.06669166091858764, 0.25711133571115663
0.3232219472286585, 0.0657844926883893, 0.2404603308189871
-0.49927676338164595, 0.06715775460961321, 0.26542700759776977
0.20204240949189725, 0.0654251588599553, 0.23428885760841645
-0.2616866283236853, 0.06658875037361725, 0.2551930738947137
-0.552715118363299, 0.06745371281520794, 0.27067466299646903
-0.4951993854386024, 0.06917177556578125, 0.3007426716562568
-0.4389460901993576, 0.06734843148699891, 0.26870610516391097
0.18525398877287577, 0.0672118863124112, 0.2656408752663999
-0.3427687201059064, 0.06593979939304614, 0.24389948201058545
0.23983295389516748, 0.06673032363565765, 0.257137034140818
0.3863703601534304, 0.0657484153701705, 0.23975979481815665
-0.2102361371969121, 0.06709372069140974, 0.26399350103343944
0.2514536008965552, 0.06714977227384768, 0.2644804531038169
-0.2761628380453408, 0.06531177309367825, 0.23281417531222082
0.21221133352271684, 0.06714444161375469, 0.2644291298965833
-0.09437705475814293, 0.0660496958583477, 0.2455598786492468
-0.4253914262360416, 0.07093832378948105, 0.33164776740212165
-0.2988039861541811, 0.06691173188880045, 0.26089710430125
0.21036127052517478, 0.07926038546243276, -0.22239077032865529
0.09022654688413756, 0.08360350871439724, -0.2626401838318306
0.3606867967937315, 0.08100151550981707, -0.23852664949916924
0.27762194695745873, 0.0826854281793311, -0.254132096120621
-0.05230581804985951, 0.07929102680590346, -0.22267453854003139
0.32698407969092974, 0.08423811226126524, -0.2685214932793365
-0.4284197929135728, 0.07711504369789277, -0.2025085278337253
-0.20458256880641487, 0.08027331826190459, -0.23177772161302237
0.2832776143976321, 0.08366659301781638, -0.26322495722631206
0.388885763335983, 0.08504666019205388, -0.2760146850565771
0.054760628944473755, 0.08212611216129931, -0.24894851752997968
-0.08790926978896701, 0.07716479455290833, -0.20296984567220328
0.01661421540414989, 0.0819259446312176, -0.2470934542484839
-0.19155443973805547, 0.0780076409101801, -0.2107807704407535
-0.06223819927633861, 0.07747429792063357, -0.2058381596014517
0.4787924702420493, 0.08703286358046, -0.29442171389086513
0.06147092311251115, 0.07981837442996989, -0.2275617708198094
-0.1298996500491556, 0.07932162043935334, -0.2229580038882904
-0.012943434955807853, 0.08249827505518212, -0.25239745270573505
0.1853420817866379, 0.07727329877987509, -0.2039756044793239
0.1987092494304169, 0.08029362930406438, -0.231966255883928
0.29563044000052735, 0.07815910234870008, -0.2121847923456863
0.39139297855987, 0.08138169441391202, -0.24204994639129318
-0.294107792764772, 0.0784887307966785, -0.21523915049123543
0.2814259683731083, 0.08344996057956434, -0.2612173342052244
0.37890948132665303, 0.08515899669684995, -0.2770557459979279
0.4194570528985031, 0.08188567269446785, -0.2467205408760832
-0.18792494031846707, 0.07703907673397675, -0.20180469182684335
-0.0788384396920695, 0.07819753005939575, -0.21254063587318459
0.4879810639446442, 0.0831748844426146, -0.2586682463114597
0.43564795966334113, 0.07706924533159422, -0.20208474588834874
0.21325422943074862, 0.07889113808156065, -0.21896880563085674
0.19701277401958361, 0.07877591084652982, -0.2179009353758436
-0.6725556837187333, 0.08510967327032254, -0.27499258812507765
-0.7035667513456342, 0.08661238083089594, -0.2884139343313111
-0.8493749748650775, 0.08888743530552698, -0.3069616593679107
-0.61510689401681, 0.08128981862569666, -0.24049257831940823
-0.6310198671455953, 0.08812099766149747, -0.3037462657627761
-0.8592207244363429, 0.08871728358401099, -0.30520256527824313
-0.7101404282967256, 0.08344593727394381, -0.25884405609166383
-0.7542446766359855, 0.08876852014924211, -0.30756056943646504
-0.5861410315088516, 0.08585684308479125, -0.28349101325635695
0.26490992020192955, 0.0729608643244411, -0.057431330154898305
0.5521703092594918, 0.07039349556159034, 0.040910429696635664
0.2758323031328578, 0.06621186778235741, 0.1992663647352914
0.4709389127078741, 0.0693498274118185, 0.08040359290114281
-0.13608121323495379, 0.06932188054140848, 0.07998261023985952
0.3686788668467995, 0.07053960922221908, 0.03490504759311092
-0.2863680060425189, 0.06724594614167972, 0.15856507476325887
0.24507573450327083, 0.07301369256712403, -0.05948892398814085
0.35536139141985174, 0.06917731230333632, 0.0866819892944463
0.04567636360236553, 0.06905883840982567, 0.09043065908572831
-0.19197943610006707, 0.06544446599932915, 0.2273078695914587
0.213288227061189, 0.07239588348856212, -0.03607073826485467
-0.1541021113234275, 0.06780715381222978, 0.13754511070640812
0.11164250255511976, 0.07016394324024401, 0.048563683172388364
-0.19020831992255838, 0.06748863530240902, 0.14957042403675813
-0.1496430469228331, 0.06878210657619893, 0.1004775953578611
0.283490402735593, 0.06562554700930925, 0.22158344191266618
0.4125193196254861, 0.067018287211448, 0.16893156283157734
-0.07905785269142983, 0.06784981341616536, 0.13610616574868875
-0.2142265327125013, 0.06545718519990448, 0.22676976395544152
0.026844967982563833, 0.06764409829872223, 0.14418858862057546
0.5368745556344174, 0.06758971297482087, 0.14750365742420243
-0.25949648504037914, 0.06602684468077684, 0.20499439190024127
0.30071640606812616, 0.0673023438899426, 0.15785531064119795
0.33553353644899225, 0.07405707447522353, -0.09894864766252057
0.5239676067892709, 0.06598175880304034, 0.208624190279991
0.5564310820143344, 0.07619160464706258, -0.1795869628174859
0.46509823992123556, 0.07295796694887358, -0.05683178997610301
-0.06082737431692081, 0.06635500887915002, 0.1929996202352242
-0.18992647509488123, 0.06658003775650297, 0.18412597390039034
0.5405300496694724, 0.07465579454683476, -0.1212174590497817
0.1564840173977205, 0.06985443917828857, 0.06044404073619595
0.5503052754585249, 0.06693780206838455, 0.17232930294765425
-0.130642941434425, 0.0665816661423029, 0.18420896035381137
0.03130351731350803, 0.06694724819378532, 0.1707013841781336
0.06170041567116244, 0.06848999018463481, 0.1121036881769526
0.49453738208428727, 0.06825609608502083, 0.12205695936581878
0.2923102121539254, 0.06967328241495921, 0.06766563133722267
0.39029703201358845, 0.06849895140634854, 0.11256612172975189
0.0005498934261849095, 0.07019009932858307, 0.047297381120805476
0.2680496688568156, 0.07069149190638671, 0.02888281636025538
0.2514084675804721, 0.07188939257796512, -0.01671520635201538
0.1525856605515507, 0.06818516642407206, 0.12391860080972142
-0.2448547675208713, 0.06553908335026937, 0.22358022735658087
-0.3580766337701651, 0.0670769597171379, 0.16481650709644272
0.19587056257978966, 0.07173423187169566, -0.010950051216175191
0.3495001549741024, 0.06969352502088919, 0.06703558296216232
0.3211415819501343, 0.06628433226819802, 0.19662122507909413
0.15871527747692699, 0.07234794086263095, -0.03438083369957626
-0.4481484209597757, 0.06529241149309405, 0.23246446044348754
0.37520614134438246, 0.06760299148525009, 0.14660347238909285
-0.08469995318037883, 0.06898392550129008, 0.09296097264047133
-0.27860146426341614, 0.06759502536744812, 0.14530823239162433
0.5172616996878711, 0.07527844225516026, -0.1449542438686728
0.2267982447495628, 0.06534164394836024, 0.23224197427549226
0.48376622063050567, 0.07555136028943263, -0.15541546390609387
-0.2757638708246458, 0.06577462324964752, 0.21454685692234707
0.3370921697449509, 0.06655310786162044, 0.1864384145394992
-0.11539308814126212, 0.06663245104359251, 0.1823148379515882
0.3846735873739128, 0.06816165373557422, 0.12538013863523004
-0.06308027558679197, 0.06553595322272276, 0.22414360766072583
0.08929071851538599, 0.07130634504174464, 0.005062378005030571
0.29557942277663307, 0.07036053936709291, 0.04153656295813023
0.24663251764690558, 0.06785535202906925, 0.13669166032058314
-0.3579517823882953, 0.06714521199017982, 0.16222111102167805
-0.127248343849641, 0.06690593032546999, 0.17188517153538146
0.10653699705997427, 0.06567621475084591, 0.2192239441567826
-0.17162643672462022, 0.06912183849591196, 0.08750351806663823
0.19395462697716398, 0.07106608606474077, 0.014455509472300405
-0.08249345113699143, 0.06848491566902178, 0.11194420246484137
-0.04802099046300401, 0.06665095235365659, 0.1817759025336716
0.08529872527053928, 0.06806678491460569, 0.12825628690752963
0.05588353422943737, 0.06598491000559596, 0.20736013931864217
0.14072824981620424, 0.06861772260769358, 0.10743907763942026
-0.30336439467613047, 0.06557733498068571, 0.22198245632388655
0.25548876943798415, 0.07279389300099331, -0.05110427554632875
0.10280481755355642, 0.06930889538269627, 0.0810603933414043
-0.07903632938103469, 0.06667133163859798, 0.18092504281263128
0.42783849847641037, 0.06623252477782651, 0.1988523302062583
0.3859821001947867, 0.06967651023046503, 0.06777185047802456
-0.4546248749835442, 0.06563156883482658, 0.2195501408325093
0.24281118653936637, 0.06866721174046661, 0.10580649363166626
0.23245684115658377, 0.07246144834572169, -0.0385173777569808
0.2710203470545798, 0.06910990443672294, 0.08903940957527773
0.1558759991082832, 0.06914587350981523, 0.08739000576533507
0.47130519622182143, 0.07380568477687643, -0.08905616257322344
0.03873545824237809, 0.06622420655833727, 0.19821753778023704
0.33578254121335643, 0.06567023965942427, 0.22001156180712508
0.3802952587500475, 0.07042312672009829, 0.03936338772370288
0.22463793113770908, 0.07093908179535362, 0.01936061088432068
0.540253882615544, 0.06994947955193445, 0.0577676674231309
-0.12933988305163924, 0.06757227326104287, 0.14653837975633005
0.1994263671138953, 0.07303631359858463, -0.060460811676092734
0.435213923861164, 0.06915033065762734, 0.08790332333446756
-0.17886258115885395, 0.06747800015902473, 0.15000262310934281
0.45032631979999577, 0.07280711415497435, -0.051130818628066343
-0.21385821490661427, 0.0666852146693803, 0.18006749224125454
-0.4635985422083071, 0.0662568137943712, 0.19574952261009593
-0.011444085299198825, 0.06599388242793527, 0.20685433031782774
0.39361125071861164, 0.06954878343669235, 0.07264807550346455
0.38927913798430425, 0.07325720330299967, -0.06839737961338406
0.3683939169883568, 0.0740085952517044, -0.09702460944963118
0.09536216874514644, 0.06678740082926621, 0.1769371252269422
0.09366571252661934, 0.06574534311851278, 0.21656346094845758
0.32654714867240964, 0.06543227164182705, 0.2290391448015887
0.302304201518106, 0.07124402773986514, 0.007953067050009782
-0.03717943621731648, 0.06833828545416784, 0.11763146196748692
-0.33279659762626584, 0.06722905428342124, 0.15909399647294006
-0.5303709041800357, 0.0655813708120101, 0.22127406385382034
0.46714801357553287, 0.06864694066562234, 0.1071258025246766
0.18949523790271186, 0.07035113273067298, 0.04163498924549585
-0.4650148367038157, 0.06619799575743632, 0.19798296851304872
0.3123022401492254, 0.07052313073377076, 0.03539393097717277
-0.16247245488651418, 0.06911541680874349, 0.0877701176052812
-0.403141543681744, 0.06636334943855725, 0.19184565102189038
0.046854072299575625, 0.07137809267128299, 0.0022300106667721945
0.4535562490255961, 0.07319546917934816, -0.06589244787997386
0.38984393286240077, 0.06765616289371264, 0.14461709261127673
0.283198957300283, 0.07190385803865137, -0.017187631861369547
0.34955526876068244, 0.07126311288883717, 0.007342742830798846
0.0691281385634098, 0.0654212890926743, 0.2288275743499672
0.413649150750541, 0.07342191033599431, -0.07460177929250247
0.14916371384340799, 0.0715308361585436, -0.0033288841235280496
0.3977466270679017, 0.06776582105068155, 0.1404660024678711
0.329568772448992, 0.07434102216172185, -0.10976203882618343
-0.7335312325655354, 0.07592417711595356, -0.1369055496719846
-0.6309552834604736, 0.07576650588368458, -0.1510888244457908
-0.573905598937708, 0.07415036563506038, -0.1012197686125663
-0.6118369590762528, 0.0741378292763081, -0.09329799507761877
-0.6735413992623996, 0.07381727322879268, -0.06906871443117718
-0.7271067877338223, 0.07276367534547701, -0.01873722259837399
-0.7818679123295199, 0.07595132801115259, -0.1284403417204608
-0.6917775116565429, 0.07461907025975531, -0.09578644605340472
-0.6686078483948038, 0.07366782787651274, -0.06439016918978746
-0.7009797223491188, 0.07728960909362356, -0.19489450452840884
-0.6378975054228034, 0.07287760132983652, -0.040559054669250964
-0.6300513983682581, 0.07521482054238612, -0.13041908860914087
-0.5749336307005565, 0.0659359218122755, 0.20939148000356445
-0.8546878684810073, 0.0774066636161679, -0.16913628684511095
-0.5796909421732283, 0.07052460733069985, 0.036927248806691265
-0.6953575680086143, 0.0717719151723362, 0.012505503721316043
-0.7705170232149395, 0.07529310569484758, -0.10579609186189369
-0.65293151641696, 0.07375048273467483, -0.07059169131278634
-0.6095554082678589, 0.07394979978938224, -0.08664068735693838
-0.6935408173834012, 0.07574801667351588, -0.13810111049611
-0.6616588046363847, 0.07029790823623518, 0.06158868286418811
-0.5767731188383562, 0.07504536920967608, -0.13447732553412445
-0.5709571596087569, 0.06826241938751976, 0.12069642376027617
-0.571510086778899, 0.07112139230122089, 0.012769434833194857
-0.6167287920273332, 0.07409780461696203, -0.09082499328634039
-0.5955192561670237, 0.07117026051013309, 0.01563713334812511
-0.7733830657158689, 0.07515582540963396, -0.10004574689373531
-0.788330417270046, 0.07728518725100829, -0.1775755860422055
-0.6428931239352991, 0.06869063932014781, 0.11863979688979216
-0.8079082232855148, 0.07705495275687187, -0.16503121149792785
-0.6917875322350823, 0.07100931486584443, 0.04062183080612093
-0.6639408111610292, 0.06969763164907161, 0.08472016507791323
-0.5733413768327983, 0.06877488968577056, 0.10179922740483702
-0.6486047884206665, 0.07688842074014318, -0.19001842966058236
-0.5884159272448861, 0.0687047076243561, 0.10741126110533669
0.8438631460289685, 0.08043775993226109, -0.22148971994916458
0.7605015098819075, 0.07917267546142229, -0.21306818581379455
0.6951105679251678, 0.08113308181517864, -0.23652213068785624
0.8446465101354809, 0.08077802735397858, -0.22491184850303025
0.752722926927311, 0.08418858236184024, -0.2645474107723507
0.8374026455166952, 0.08541961813833568, -0.2725518416463501
0.728546959592006, 0.0800028508951414, -0.2232282176132075
0.8233123784694331, 0.0804117255392165, -0.22232353830655
0.8533323465583523, 0.08823828496721546, -0.30039487380021346
0.036558675667327484, 0.07393864803456093, -0.09456179199302114
-0.5459163494303779, 0.06904403720163514, 0.0904045554797489
-0.3679736610807913, 0.07429323396807394, -0.10796000578443377
-0.31624322555409334, 0.06840748203474932, 0.11445880890536148
-0.032044099581194724, 0.07218503782915386, -0.02829369466815936
-0.36294729576454543, 0.07077095463761499, 0.025144773463893703
0.2633961628075936, 0.07662788838152401, -0.19618732117568485
0.04963715021068302, 0.0724652735155478, -0.03888390830864996
-0.49179748028134085, 0.07411786031042737, -0.10133232145331014
0.1051311755383963, 0.07602961304455977, -0.17357832235652607
-0.010777589708499319, 0.0735957347605731, -0.08160314697961486
-0.06072065126524889, 0.07504743187771284, -0.1364617296726901
-0.16394866173718142, 0.07532941099139367, -0.14711719866941966
-0.35568236502197936, 0.07261227070943085, -0.04443746705575881
-0.5344546216791791, 0.07485437275770916, -0.12916453464012956
-0.45055203385682285, 0.07141722799394584, 0.000722793290209009
-0.1524293353211188, 0.07592302136812873, -0.1695494133253161
-0.3848770329880069, 0.07076365377794756, 0.025420742959607834
-0.1949849609828121, 0.07187447745197058, -0.016557253535486934
-0.280611091115636, 0.07639533417539604, -0.1873973922764561
-0.25624817007192646, 0.07575434855511298, -0.16317501775228993
-0.2593926938085522, 0.07539124945528158, -0.14945371265743032
-0.2818386425957317, 0.07258525720939439, -0.04341689397203009
0.12235105551600821, 0.07474352604734927, -0.12497793441303374
0.1509115955497547, 0.07291933313408777, -0.056042889268665255
-0.4001760955169903, 0.06765084755684653, 0.14305185113490704
0.18739782971117866, 0.07358989179210874, -0.08138301748646584
0.07221549168189609, 0.07617958670805473, -0.1792456242622494
0.007662697167257482, 0.07619683929543328, -0.17989736992527472
0.23962482975730262, 0.0737253126110975, -0.0865006652677997
-0.20957557700659465, 0.0732102957831761, -0.06703696730708296
0.34211622884677756, 0.07575504460323185, -0.16320335222455845
-0.5143331298908896, 0.06702810876331043, 0.1665851593867543
0.17788619152828394, 0.07303452575024015, -0.06039603982928106
0.09633524303135868, 0.07522888902832757, -0.14331941831890588
0.0039048522078221765, 0.07115947653530007, 0.010461521621611833
-0.36196316590008293, 0.07477438814962697, -0.1261425504346841
-0.36163508444309134, 0.07109248905386117, 0.012994178733563816
-0.17674355083656232, 0.07272176480590659, -0.04857578988439432
-0.5034501581051605, 0.06774347053306429, 0.13955203570601346
-0.4210909227618891, 0.06862651807419769, 0.10618192594775963
0.04613709253809084, 0.07264477342077348, -0.04566708880954781
-0.15105274104357827, 0.07234083022119377, -0.03418059053573661
0.24196247897031392, 0.07507654705592397, -0.13756300207421412
-0.5340978202486907, 0.07416113563823068, -0.10296752620888928
-0.4658438227894577, 0.06678225829634853, 0.17587553458874441
-0.06083796116242163, 0.0752958796306963, -0.1458504189416452
-0.5098207835393705, 0.07059545303398337, 0.03177737104159026
-0.4245075300973355, 0.06821280021848761, 0.12181608400285002
-0.27579180629771266, 0.0703546841582598, 0.040875086155546594
-0.27262413340557695, 0.07522954541979324, -0.14334297046636674
-0.48477498379544365, 0.07131344279253929, 0.004644889182556511
-0.28673829936161177, 0.07508361668139227, -0.13782836417308178
0.015615052477340796, 0.0766478009201608, -0.19693896278530357
-0.4734439953714335, 0.06705873223217608, 0.16542777829613003
-0.07500176278034376, 0.07049304109989149, 0.035645979763787944
-0.4411168296027737, 0.0747225373845938, -0.12418287282166245
-0.3826937513008564, 0.07441106972445488, -0.11241289746993355
0.23468722281535298, 0.07423966840159045, -0.10593784138681962
0.1778061484595953, 0.07517690549282538, -0.14135526865442583
0.31835163829070884, 0.07630525429226266, -0.18399536147910642
0.17653860771906218, 0.07448565663349342, -0.11523338985229534
-0.15045687304895378, 0.07362312725249132, -0.0826378184477671
-0.14998580961846814, 0.0748077425777496, -0.12740371360105912
0.06256166989384822, 0.07315688463936135, -0.06501951643682723
0.16891080557579874, 0.07383875798441339, -0.0907874569644718
0.24964676473690342, 0.07524875399860204, -0.14407062391741465
-0.36969098256232713, 0.07498231197105013, -0.13399983911099567
-0.5243444654321325, 0.0665478514229434, 0.18473382653481174
-0.2225023888083132, 0.07115032621554425, 0.01080807521982556
0.22134038184565225, 0.07478392156647297, -0.12650479257665292
-0.11309408006276736, 0.07574890678201623, -0.16296986241031847
0.32379356164873785, 0.07581573554245011, -0.1654967637522674
-0.40530789749672125, 0.06795398990401874, 0.1315963033978913
0.22162089094420429, 0.07642065871251984, -0.18835609605205444
-0.10531900383586507, 0.07657936134408783, -0.1943522622501232
0.17942281018966247, 0.07581736349449947, -0.16555779298340295
0.03344179553493471, 0.0722820300254682, -0.031959193151142706
-0.4869866937424034, 0.07013353943569102, 0.049232727820772565
-0.32738672250027623, 0.07214464848114335, -0.026766403156782526
-0.36613422988109406, 0.07466970208863025, -0.12218651362122769
-0.14686265929446368, 0.07082691016839035, 0.023029514414401122
-0.3686295415679669, 0.07164093407942979, -0.007731201889386169
-0.3084763557621546, 0.07519462255483583, -0.14202313490762197
-0.4281705728690669, 0.07652284488140963, -0.19221544348857497
0.12323870789871318, 0.0724242364314325, -0.03733339167905786
-0.5648603885815409, 0.0694568021276241, 0.07480648396649787
-0.4714665808743739, 0.07665994964900044, -0.1973964023976637
-0.06076983111386092, 0.07416294920330475, -0.10303766651343521
0.20884455954965306, 0.07516244525179135, -0.14080893029402272
-0.46006543649352755, 0.0729972315234604, -0.05898454803203794
-0.5167081395283033, 0.07500052674863601, -0.134687665419975
-0.06543816665102001, 0.07217778167692916, -0.028019375722181133
-0.17753817220325477, 0.0734627572078692, -0.07657743994581195
-0.23632786813700613, 0.06923004380838356, 0.08337442785529826
-0.24330475933914567, 0.0712285739583452, 0.007851211167220422
0.36907213544422335, 0.07481839122463822, -0.12780788151767622
0.06472375533097804, 0.07457147347614584, -0.1184759766351216
-0.5085239530623139, 0.0722302480655744, -0.03000054455830442
-0.391825244354609, 0.07338438838531966, -0.07361520231708833
-0.35440140272149234, 0.07483672983917193, -0.12849843068303698
-0.37926354554831865, 0.07506827390611481, -0.13724825592455564
0.319047484768617, 0.07552677209294316, -0.1545769944132133
-0.40923893400119304, 0.07076567318788765, 0.025344513384734868
-0.5352035206102043, 0.07576713788168221, -0.16365737167924696
-0.013365193996554225, 0.0762712522246489, -0.1827093179363612
-0.2560264190426069, 0.0732226186693585, -0.06750248400618436
-0.4492074049853807, 0.07216358582297527, -0.0274816202628701
-0.10852985190504127, 0.07516337212761574, -0.1408428789939072
-0.44517523691088656, 0.07362242790598336, -0.0826103901028633
-0.41613928639210895, 0.06823650132244939, 0.12092040527398067
-0.5422939211780035, 0.06741880180820309, 0.15182120146140557
-0.5187724675958613, 0.06585375399621848, 0.21096332775054907
-0.2473797448413745, 0.07214194360558207, -0.026664459147928816
-0.1250277666104539, 0.07005070236822068, 0.052361861558365745
-0.5668185680409612, 0.06602246545255638, 0.20458798739789053
-0.2827878611976598, 0.07567832679348561, -0.1603021114664281
-0.10190593868508413, 0.07464095591822932, -0.1211011102655718
-0.40637365271971404, 0.07296745562618298, -0.057859517225830874
-0.3952689621763131, 0.07259228712013836, -0.04368216497273125
-0.41478498057295987, 0.07061791399583905, 0.03092826232371422
-0.31708360852176576, 0.0716379920112615, -0.007620197900759559
-0.013323227488051273, 0.0719009491218428, -0.017558218537592988
-0.35565148205557173, 0.0704851031204483, 0.03594690389215113
0.2219621129191612, 0.07454772013633437, -0.11757888612138409
-0.2793716547817959, 0.3577941401344359, -0.12686058845386444
-0.27965745956091453, 0.3837743151909565, 0.07113464493077133
-0.3263595019639649, 0.2648852123701102, -0.05316446608387558
-0.3412750434539832, 0.2611863125522903, 0.06060798279662808
-0.2786762128501211, 0.36262469943782055, 0.06360369455831996
-0.279029818438821, 0.33885637805805496, -0.12802363582970183
-0.2780257085958968, 0.3247133195368859, -0.014738626185215688
-0.2808072573335623, 0.3030421959941275, -0.13670680911630134
-0.4146330454022616, 0.36078262961485025, -0.22264115275411767
-0.4401004785861803, 0.3940845273876771, -0.22155628137812244
-0.4630291574229653, 0.40959706443057575, -0.21837754939003248
-0.4817870902775711, 0.42355247428126447, -0.20502447361341028
-0.4515123759073919, 0.4261333066113293, -0.17382572437616456
-0.42508740848752324, 0.42672601758097445, -0.17125359107912375
-0.35732626074395607, 0.4267793027413633, -0.19850404838774063
-0.4787888519111823, 0.42491603977392156, -0.06503489339932847
-0.4879120034515196, 0.42475398665751013, -0.06584109895278158
-0.4684538275391767, 0.42560658211294644, -0.09765388826158951
-0.43755411767604663, 0.42655385762990206, -0.12136588906293753
-0.43501972390819454, 0.4262477607742807, -0.09816972908148106
-0.4112041579330768, 0.4274935009627501, -0.1528379824876948
-0.49961001883968265, 0.4218466060282835, 0.04660858554516155
-0.48316090038968723, 0.42245835014036215, 0.03480310951653303
-0.5088684415067133, 0.4210443220823118, 0.07139747489454887
-0.5406627694715996, 0.42060537722612024, 0.06475964458943155
-0.38038780316274035, 0.2680100424842777, -0.14958252343868245
-0.37847952619343134, 0.27473832725374453, -0.1889418510285438
-0.4736137292825548, 0.2687785190664872, -0.17740809046415662
-0.5012212194804517, 0.27411780042818573, -0.19325578041620217
-0.5024234221789061, 0.2938618781129173, -0.20720447279153292
-0.49283698697424017, 0.3387622780020842, -0.22048919047977042
-0.45528743944770855, 0.3598907160261533, -0.22277493002014767
-0.522709186226682, 0.30545969426452274, -0.21273713408599235
-0.43810123362709064, 0.30125598736960413, -0.2101959878747228
-0.31921920967466877, 0.3810482488077351, -0.2223712608779861
-0.28017421260370634, 0.3896052057137178, -0.0698344578834677
-0.2812084691667145, 0.3900188106476219, -0.16006537042583263
-0.3781250259817903, 0.39563392399116437, -0.22110784512650705
-0.4188348411121156, 0.3701708629980233, -0.22376465473329693
-0.3555801786523461, 0.3444421060048906, -0.2202884199744129
-0.379225518236691, 0.3208658484263348, -0.21773287467817534
-0.3626683224491005, 0.2809922158705137, -0.19665168248541345
-0.3961845521269952, 0.27021171233031277, -0.1758826132218244
-0.3107681968854922, 0.27200377558429684, -0.1727323319123034
-0.36748469443416365, 0.424926970880966, 0.01992465822338777
-0.3571703701465172, 0.42332268698607056, 0.09054822717734981
-0.37298873480050276, 0.4246287572749049, 0.027925598146684542
-0.33849793238396286, 0.4274183249326556, -0.06691477282795959
-0.3930573343919228, 0.4275636117860378, -0.16447999290803647
-0.3911396919855802, 0.42656420905761766, -0.06831496840529663
-0.4163189807296455, 0.42596503603487645, -0.057848720173982786
-0.36285162363956874, 0.4277241393227838, -0.11199735309509291
-0.33038998361015154, 0.42776782768220284, -0.18270128217733098
-0.2988274489894931, 0.4263053161935443, 0.01988718872646578
-0.29391627381158025, 0.3150999326126189, -0.21259736547306213
-0.32580937694196943, 0.27212427828814945, -0.1785682900047883
-0.347268756020474, 0.26484842554575877, -0.06851403343577733
-0.3141275357125621, 0.4265020625570914, -0.015539029096809358
-0.300384789104063, 0.4284089033724577, -0.1366632168786295
-0.32578199550141884, 0.4288102922955127, -0.15805848707636003
-0.3128231955911743, 0.42860924019464774, -0.13010279548338635
-0.296494889165435, 0.26740357176431184, 0.05695932739078913
-0.28160898113021293, 0.31666610086532554, -0.1889313075289217
-0.278496945676069, 0.3466996521519969, -0.06046311973695498
-0.28147815005759447, 0.3499406251563524, -0.19669686828165683
-0.2914028813773037, 0.29481967575165363, -0.20883124780679577
-0.2987175096913308, 0.42773831332295364, -0.04777994415919341
-0.2927604376544947, 0.2782864424388556, -0.15484373749099573
-0.2925492902320817, 0.4246514509798874, -0.17322967161445085
-0.28135487177876156, 0.39987159728464916, 0.015244855922716204
-0.28056943773737164, 0.39389126721925055, -0.08316697572133083
-0.2804969645257325, 0.39572982154931907, -0.06016645694615305
-0.2804868808994394, 0.29922742498147903, -0.056125156708833585
-0.2787744931954482, 0.30938636285866394, 0.08268933382458102
-0.2878547918189054, 0.28594200019581417, -0.16045631565193202
-0.2858265965944048, 0.28133379498581057, 0.06178511234310198
-0.8658409688095604, 0.38284287852460835, -0.032585276394582946
-0.8719427437655916, 0.3456208865711494, -0.10340097512222376
-0.8139774069587121, 0.26125770791266945, -0.11969382895456673
-0.8126980903902994, 0.2557364329431114, 0.05253425885500084
-0.8370996035348697, 0.26160238227178706, 0.019718289161272946
-0.8716396209546996, 0.31842034132033115, -0.06446409060389892
-0.8731535035527125, 0.3423272356448138, -0.04525369793057016
-0.8714841568220124, 0.3155053819976632, -0.047631665481590285
-0.49093259496837305, 0.35360968746495147, -0.2221498077304255
-0.6297309569339442, 0.3911247967015469, -0.22150531761634862
-0.6704755642017007, 0.35078525188465143, -0.22220444028765907
-0.6880620193601699, 0.37283312183428197, -0.22388791111596418
-0.7414431342742529, 0.39828825013718216, -0.21936080914296158
-0.5824020168294239, 0.4083023107629696, -0.21822039190536585
-0.6140476452618167, 0.4112296763385523, -0.21654485649990346
-0.7705820601904985, 0.41733063549188026, -0.20568324469911792
-0.5173109062297429, 0.4184299303945962, -0.2138351057458597
-0.6813761843647644, 0.410324219370504, -0.21632376994760832
-0.6480073427054903, 0.4216345391180931, -0.19096459888352987
-0.6771135402424342, 0.4213575639236797, -0.1841217177118041
-0.6816683298526933, 0.4209307467453584, -0.19222640388837292
-0.4690520608154334, 0.42459477548174823, -0.20250507451265545
-0.47708948752800096, 0.42605769992838943, -0.13847518065845338
-0.5667549783158294, 0.4231165071629575, -0.05716657769095072
-0.5398860791091774, 0.42396821763468456, -0.079559937484968
-0.5566515424576444, 0.42453070964381623, -0.13834716625176424
-0.5766588372778624, 0.42293224842925436, -0.057674245610070646
-0.6464639984749325, 0.42208554422930555, -0.09140380589054381
-0.6615439879282012, 0.42145327053158943, -0.06892879766167313
-0.5883141850124424, 0.4233178134885694, -0.09833304149693686
-0.6160061214166265, 0.4228563249408406, -0.10331995433653055
-0.627843644631676, 0.42280123491490545, -0.11490875558017766
-0.5703924143474974, 0.42359087824309527, -0.09340265270879046
-0.7858374189666852, 0.4191466379526714, -0.18329164376767043
-0.7413867989302109, 0.41975261960495064, -0.06343488788668138
-0.7546740085158803, 0.4196472166040611, -0.07480838597368622
-0.7821068069544292, 0.4190539311865018, -0.07358913294527328
-0.5840551291475592, 0.420827329298699, 0.022873248957449313
-0.600004603632386, 0.42028981733018345, 0.03190509379021682
-0.5780802599658142, 0.42250637032162436, -0.039112454646209625
-0.6093956089075707, 0.42061623570076795, 0.011726590727751673
-0.7339500291467307, 0.26266871682897613, -0.16636745568276418
-0.729910331928889, 0.2616451208742856, -0.155110541297719
-0.6156469075366765, 0.2653394876824107, -0.17070196852446912
-0.45985954319686456, 0.2682024817978521, -0.1686827814555737
-0.44780801843776463, 0.2674781478374413, -0.15872744143155354
-0.5094665309714763, 0.2709664626211506, -0.18682161564585853
-0.585069052358108, 0.2625994442918742, -0.13639831887528156
-0.45193225215846794, 0.2818705844526197, -0.19941793714462788
-0.6967937985889516, 0.26688953770114554, -0.18589838372218007
-0.7503445934517874, 0.27732478429288654, -0.2001192378841728
-0.6388741869363985, 0.29339005490035236, -0.2083805952595792
-0.5308640060470978, 0.3010257109059174, -0.21091864607890473
-0.5821374770365915, 0.31097545160166934, -0.21558786991661524
-0.4454628799181566, 0.33884845898091487, -0.22036750700577934
-0.5935948374677067, 0.3170452519722308, -0.2182556745323298
-0.6380935164760562, 0.36282351937955126, -0.22355088917975827
-0.630886362434536, 0.34238645637200865, -0.22118011654171502
-0.6454458848342738, 0.31798997287003083, -0.2185521952245053
-0.7323448805557413, 0.3377184912560558, -0.22069092336098606
-0.7444869548396119, 0.35999417447636983, -0.22317835294508415
-0.8293446513604412, 0.38266894004764035, -0.22085127208478925
-0.865589238950752, 0.3785957562954262, -0.12842873473168215
-0.8047525245888743, 0.4097724833694128, -0.2144068963169858
-0.8022777652237741, 0.3863128086615528, -0.22104641380387416
-0.84494805931241, 0.32582300709383016, -0.21767839978167275
-0.7194475311707417, 0.3349402924709093, -0.2204377145502806
-0.7167571384971075, 0.3078563583851987, -0.21520244573375266
-0.7234215088324654, 0.28044996327351623, -0.20198110120109544
-0.772773578617574, 0.26413843788263913, -0.1825123154528165
-0.839727580022037, 0.2657595146535285, -0.10171173400175618
-0.7931150861756608, 0.26083456613937084, -0.15809152118768321
-0.8078204877423171, 0.26758948909606295, -0.18704931492684387
-0.8258122890295916, 0.2678998718783511, -0.17476223680363925
-0.8187730452099689, 0.41496382604966975, 0.015278085225257206
-0.8472914687770259, 0.41429844095702995, -0.055841701428147233
-0.7083256547094116, 0.41725222479519747, 0.06830842048064265
-0.7688113438214246, 0.41813551033534413, -0.016948792055627954
-0.7367364460675391, 0.41905828199476713, -0.026937142898135102
-0.842807358967804, 0.4147491195612268, -0.06346875770141897
-0.8321638765709942, 0.4154703670206759, -0.05037579760319244
-0.7007454234927916, 0.4201325032899433, -0.2023436635094399
-0.7132885565169778, 0.4214885590347567, -0.1393939606077095
-0.7438555716340186, 0.42045992344163324, -0.11343958721196372
-0.7532379015885327, 0.42041884850108363, -0.12366631807870605
-0.8015054550808952, 0.4194413714123216, -0.16161660158308108
-0.8105921600951923, 0.4187255763827862, -0.14832248308582222
-0.8275547130172509, 0.4137314340655377, -0.20572351501374952
-0.8510952549219442, 0.2668061030644607, -0.09651147197013572
-0.8580766166582146, 0.40760615861694055, -0.06479951477131833
-0.8676849560503535, 0.35870761808106566, -0.1776891578812196
-0.8708560298863135, 0.3487075814695817, -0.1492188760187852
-0.873398115929387, 0.33725808947961256, -0.07468212552623799
-0.8687357590621216, 0.31127800821952994, -0.18024230379271827
-0.8525334162966394, 0.4139875039331699, -0.13377977874818198
-0.8584171149477727, 0.2747399088371735, -0.15593982528091013
-0.8567532715306343, 0.4081406535416395, 0.019837311660578567
-0.8657870651368679, 0.3823818044825258, -0.05671215210209213
-0.8650329593187203, 0.3713695592641859, -0.18453636445394728
-0.8699847505350178, 0.30561173973752603, -0.12213675191461368
-0.8705741951440716, 0.3023596488708527, -0.04337552367756653
-0.8692538321486593, 0.29441356081722336, -0.10028106809235862
-0.86782274038487, 0.2855527015272651, -0.04190331898300092
-0.27880995751460164, 0.36701969468865964, 0.14488502921179627
-0.27945699677139546, 0.3688096271767753, 0.27106217874168326
-0.2787626329093359, 0.3642859630141897, 0.0058377310296511
-0.3500533597629661, 0.2576644493705659, 0.19016448077471015
-0.32597140920609413, 0.25778650793363134, 0.214466308593957
-0.31257855206162455, 0.2633573228433466, 0.011560228113144454
-0.3117310765316926, 0.26003760531822717, 0.13998283021711033
-0.34423585895759207, 0.2597871114374563, 0.11050101180342708
-0.27835199883878037, 0.34485181551405, 0.20942566490711756
-0.27807071411576384, 0.3289803261382929, 0.0026936054802792894
-0.27877271748777277, 0.3217733905144533, 0.32405555531742186
-0.2781547662660128, 0.3117751679273183, 0.16770455498006528
-0.27836312107540695, 0.3390608583833364, 0.2514064213523411
-0.2779902236791236, 0.3289850610749789, 0.11496512319280983
-0.27936628635160565, 0.3075546194799115, -0.03871499543213487
-0.37723356824858856, 0.35760505080393834, 0.41182198616359017
-0.5692024401533363, 0.36179199370813453, 0.41061709686102654
-0.35358562221137463, 0.39570196877699837, 0.40189619859420456
-0.5153201687926913, 0.3954393368849912, 0.4011563986857708
-0.3669891175893506, 0.40899085621251463, 0.3895471325225539
-0.47715139776532556, 0.4097840939024291, 0.3764292636069297
-0.4136908752005781, 0.4242788338167496, 0.01361842842695461
-0.3895108848297131, 0.4262909101826903, -0.04934095163807528
-0.41114822884057767, 0.4242051541850116, 0.018299285289250778
-0.4365252380861298, 0.42226653736385883, 0.07751893074698298
-0.5144748994515065, 0.4173172813461762, 0.20461870725185352
-0.44691551404750335, 0.41781638842780155, 0.23328006724973632
-0.5097334372532161, 0.41741828318185087, 0.20423302373333188
-0.43955891392908614, 0.41992416887420736, 0.1617878740800833
-0.37923786979134777, 0.4124985843551926, 0.3665693898158123
-0.5261209836656467, 0.41470365488480093, 0.2758838773943292
-0.4917157491360723, 0.4134028522013417, 0.3278454784145203
-0.5514116705373426, 0.41266238441760383, 0.31723539412714674
-0.5208327807216161, 0.4148982316039076, 0.2734008238154233
-0.4175768888417179, 0.41809806570906904, 0.23977170219476063
-0.39675743911812417, 0.4177834146915219, 0.2578230267096508
-0.3660985437062709, 0.4170170030735053, 0.2924809844833338
-0.3746555265822653, 0.4227940026891047, 0.09873013634695184
-0.38461078752581757, 0.4223794659518257, 0.10747849785670219
-0.4220148881387242, 0.4193103737075681, 0.19527063449179702
-0.3441230560345449, 0.25561582932984317, 0.3211183188456736
-0.3853333191656728, 0.2545887717004177, 0.32823182469992856
-0.4343146296753402, 0.25412473034486927, 0.2859747548079392
-0.41426238783209146, 0.2541626632775952, 0.3145289006292332
-0.46940834072612964, 0.2534782578440514, 0.2807969704213044
-0.4616095611180786, 0.2532853291892266, 0.30667560291688545
-0.4660767675622891, 0.2533245607623831, 0.29712813346087596
-0.4214924691073683, 0.2554494781224584, 0.36848893080726786
-0.4472164472174366, 0.2534356502375472, 0.33620085731496774
-0.45978795879974776, 0.2533456154469556, 0.3397629998355175
-0.4115432076672565, 0.2686437807356123, 0.3947892628755703
-0.5375955152794819, 0.2693668554306013, 0.39690841557637835
-0.4591728110415973, 0.304905054852027, 0.4108479610437057
-0.35781853439929384, 0.2904332204285503, 0.40442824706782166
-0.5505368553684507, 0.28185567140242207, 0.40324414035259104
-0.28544804806466884, 0.3474551473118119, 0.40962530956658993
-0.307644610067177, 0.34761930586575274, 0.4110629827311895
-0.27932935216399024, 0.35643672589291747, 0.3083399284143396
-0.37609885775985535, 0.38723984142530254, 0.4044638505380002
-0.3719271261361689, 0.3345418501094706, 0.4128001819839678
-0.36322185448460226, 0.31804083287080126, 0.41146612573270536
-0.3667643566707198, 0.2856922420254408, 0.4027768010179764
-0.4145963032290639, 0.2770882858748104, 0.39938224860605687
-0.416729330228607, 0.2541810460926247, 0.3383768079194714
-0.34941076698843176, 0.2560080994690534, 0.3466246212007293
-0.389903665715661, 0.2550925794837628, 0.2838403283410714
-0.4078731687759376, 0.2550198527249566, 0.2611495005525149
-0.3529179381303047, 0.42188627858175026, 0.14549851483026638
-0.3921861196559895, 0.42002032977796094, 0.18839260824267454
-0.34695077005273456, 0.4210427392834688, 0.17993330071679
-0.3675873708110913, 0.4210015596140167, 0.16834098334217185
-0.3343184904815843, 0.4269935970765423, -0.042096521396989585
-0.3319057746305002, 0.4226722949963203, 0.12662442387998907
-0.3390348276111982, 0.4201730389478851, 0.2151416022087198
-0.31709068523270867, 0.41944311266742607, 0.24450031762991284
-0.3997796464778255, 0.41566785632994985, 0.31269180514436534
-0.39379334965191115, 0.41492986054208947, 0.3350925376451068
-0.4243986165255832, 0.416703000642352, 0.2737097662882503
