0.16784692384259098, 0.09074538946151732, 0.1912435799571338
0.20792418853529124, 0.09074538946151733, 0.2166113034819685
0.17877556666380945, 0.09074538946151733, 0.20347269898660836
0.19780629578453487, 0.09074538946151733, 0.2502244017227765
0.22234410780004085, 0.09074538946151733, 0.2789592128522664
0.2123309993422718, 0.09074538946151733, 0.25259917196850273
0.22371771804777107, 0.09074538946151733, 0.2783813736525135
0.20431299327687155, 0.09074538946151732, 0.27664328873303684
0.19386900489919756, 0.09074538946151733, 0.2615723407030012
0.20222138464922493, 0.09074538946151735, 0.275561965419357
0.20285199852061608, 0.09074538946151733, 0.28429087060763947
0.20115474175107734, 0.09074538946151733, 0.29807401770848363
0.2066547266595104, 0.09074538946151733, 0.2925353293165428
0.15221546015466247, 0.09074538946151732, 0.22935293781013522
0.1917705010423437, 0.09074538946151733, 0.28550527442747575
0.18077196395652773, 0.09074538946151733, 0.2711908720644836
0.19339352954973382, 0.09074538946151733, 0.28358109049746594
0.13280489303264115, 0.09074538946151733, 0.25896126716909557
0.14103767110346854, 0.09074538946151733, 0.27153897535214155
0.1303267323369634, 0.09074538946151733, 0.24523167017020214
0.12382916363168028, 0.09074538946151735, 0.23316330696508714
0.1687048060656131, 0.09074538946151733, 0.2910725502126458
0.17330959524862455, 0.09074538946151733, 0.29179799788878286
0.15377555677077928, 0.09074538946151733, 0.2871624492467618
0.11923541044844174, 0.09074538946151735, 0.22876691099984103
0.13285478726041594, 0.09074538946151732, 0.274009642905711
0.10046547006223373, 0.09074538946151733, 0.23503047479709208
0.1318525921558473, 0.09074538946151733, 0.3144032295294218
0.1385759193467568, 0.09074538946151733, 0.32137240705930437
0.1310992731088945, 0.09074538946151733, 0.31299141986995543
0.11231165337590199, 0.09074538946151733, 0.2608254919331519
0.11987995083957101, 0.09074538946151733, 0.2584468524431074
0.08849831065330732, 0.09074538946151733, 0.2459074904963684
0.13279226490636056, 0.09074538946151733, 0.3251617453950582
0.1213865478511614, 0.09074538946151733, 0.31948058081840375
0.08229847060096743, 0.09074538946151735, 0.23518905422844086
0.10985591557004741, 0.09074538946151733, 0.3227877892988881
0.10316720043043298, 0.09074538946151733, 0.29507883870140694
0.09686928856555949, 0.09074538946151733, 0.2939662222843373
0.10193049421348421, 0.09074538946151733, 0.33456564349645695
0.07227137903560273, 0.09074538946151732, 0.26469713364565306
0.07088809043737357, 0.09074538946151733, 0.29053102359359817
0.07671303914666308, 0.09074538946151733, 0.2817235917243361
0.08398196178048377, 0.09074538946151735, 0.3439099502650908
0.061767082402237675, 0.09074538946151733, 0.24250549738576263
0.0793969069442915, 0.09074538946151733, 0.30976998783930515
0.07957589300559549, 0.09074538946151733, 0.3192463225537466
0.0655033194899026, 0.09074538946151733, 0.32653444128864995
0.06697834566101417, 0.09074538946151733, 0.3204692570929269
0.04795545378040153, 0.09074538946151733, 0.2583895617810944
0.06305274459318577, 0.09074538946151733, 0.3396192219092352
0.04227797796791047, 0.09074538946151735, 0.25507443069565217
0.06014076480508619, 0.09074538946151733, 0.34913068198296376
0.061104563084330585, 0.09074538946151733, 0.3461077653307187
0.021253635908704712, 0.09074538946151735, 0.22975763566422885
0.030308333963044155, 0.09074538946151732, 0.2905218214618047
0.048567325287074546, 0.09074538946151735, 0.33410818059077874
0.02785983344568195, 0.09074538946151733, 0.2640535820514981
0.03063891811026078, 0.09074538946151733, 0.2658057010651559
0.028288248196477964, 0.09074538946151733, 0.266543073543765
0.024252568171573615, 0.09074538946151732, 0.2502561879486996
0.0036185409110466873, 0.09074538946151733, 0.25655230821900143
0.02272296708608598, 0.09074538946151732, 0.3402126426630915
0.013839830416099408, 0.09074538946151733, 0.2902947543717091
0.0033307281292023496, 0.09074538946151732, 0.26351675236037186
0.012130565452176946, 0.09074538946151733, 0.28862330084562565
0.008896184060255689, 0.09074538946151733, 0.3181503028673983
0.006507673735297999, 0.09074538946151732, 0.25348216398390067
0.006768222920276953, 0.09074538946151733, 0.2726954557362442
-0.01600837408341777, 0.09074538946151733, 0.2361421480162895
-0.015583942749854574, 0.09074538946151733, 0.2584379713362027
-0.005717338143143635, 0.09074538946151732, 0.23118382137637108
-0.012359229207691459, 0.09074538946151733, 0.2617257828573172
-0.04064066520891928, 0.09074538946151733, 0.27435329626831145
-0.0484925187233699, 0.09074538946151733, 0.3051933066588213
-0.034307156932246334, 0.09074538946151733, 0.2295799178149704
-0.032855287025635886, 0.09074538946151733, 0.22874608231946367
-0.031949949437227544, 0.09074538946151733, 0.22494358286415667
-0.0722761259095629, 0.09074538946151732, 0.30189159665461185
-0.05601910370014364, 0.09074538946151733, 0.24964252784714192
-0.05269295556813032, 0.09074538946151733, 0.25076968882308304
-0.043474583894113406, 0.09074538946151733, 0.2100564392241469
-0.0676701692275358, 0.09074538946151733, 0.24013361794335342
-0.06531551723776749, 0.09074538946151733, 0.23330987495224653
-0.08388873539636538, 0.09074538946151733, 0.2746561782641352
-0.09747700853664315, 0.09074538946151732, 0.2998606448127955
-0.09406180264307845, 0.09074538946151733, 0.24612520912498037
-0.09748617780386616, 0.09074538946151733, 0.25508146075418475
-0.06978424700986187, 0.09074538946151733, 0.203048077250394
-0.10582489663325885, 0.09074538946151733, 0.26873173448304133
-0.08667670095790733, 0.09074538946151735, 0.23862525597772966
-0.12334901907191895, 0.09074538946151733, 0.2418845353683739
-0.10638050318615823, 0.09074538946151733, 0.2235202398888454
-0.1461093389654184, 0.09074538946151733, 0.29218214161410416
-0.13466521385854024, 0.09074538946151732, 0.27564659120871987
-0.13218701092802265, 0.09074538946151733, 0.21659718320524166
-0.10886951363452557, 0.09074538946151733, 0.18514362505694265
-0.13408811803068854, 0.09074538946151733, 0.2279733926603365
-0.10809801743358902, 0.09074538946151733, 0.20126433832482138
-0.21810663039089814, 0.09060345094133093, 0.2873587495133018
-0.20141802181378823, 0.09074538946151733, 0.2782931829162879
-0.1993555411652011, 0.09074538946151735, 0.2733290132962096
-0.125391022769846, 0.09074538946151732, 0.17501949507352238
-0.13527075410555706, 0.09074538946151733, 0.19750969959585446
-0.18897791845903622, 0.09074538946151733, 0.2241828020855873
-0.15934858227733723, 0.09074538946151733, 0.1872458440088468
-0.13409642489538096, 0.09074538946151733, 0.16618270665853319
-0.2060210524128327, 0.09074538946151733, 0.24503334844013158
-0.1824145404501998, 0.09074538946151733, 0.19130040561302972
-0.17532564396005418, 0.09074538946151733, 0.1816627627938262
-0.1796720469249347, 0.09074538946151733, 0.18701152316512892
-0.20503785446334538, 0.09074538946151733, 0.20937289305503118
-0.1547193965562152, 0.09074538946151733, 0.16613758232567538
-0.20865692188768648, 0.09074538946151733, 0.18427443692195095
-0.16902016352719684, 0.09074538946151733, 0.1492685742025055
-0.20730395768523396, 0.09074538946151733, 0.17904628091455857
-0.1961412263898888, 0.09074538946151733, 0.17028163080914155
-0.21934280326105227, 0.09074538946151733, 0.16080768151155483
-0.18740937614507694, 0.09074538946151735, 0.14810689152055273
-0.17937964264867545, 0.09074538946151733, 0.13551294846053208
-0.23355529782635806, 0.09074538946151733, 0.1756018026594588
-0.21833981294917967, 0.09074538946151733, 0.1457482946561924
-0.1955081464814768, 0.09074538946151733, 0.12070375763135727
-0.2312276304652951, 0.09074538946151733, 0.14724942919024703
-0.18915423174995355, 0.09074538946151733, 0.12673491572087028
-0.180770370711139, 0.09074538946151733, 0.12776651299179817
-0.23325321440452162, 0.09074538946151733, 0.12397267137657067
-0.19963806393972627, 0.09074538946151733, 0.10664782478609133
-0.19889772245350962, 0.09074538946151732, 0.11643414411178145
-0.21519863149794805, 0.09074538946151733, 0.11655631789925194
-0.20601341341039925, 0.09074538946151733, 0.08822864580446668
-0.2509061591729447, 0.09074538946151733, 0.10686975826033156
-0.26548554739434255, 0.09074538946151733, 0.11224533448434645
-0.2124748722274062, 0.09074538946151733, 0.09236785100599475
-0.2412827556958521, 0.09074538946151733, 0.08475321337699121
-0.29613963324535036, 0.09074538946151733, 0.09588607086661562
-0.24290838004217546, 0.09074538946151732, 0.08781678765164747
-0.24720334443684483, 0.09074538946151733, 0.08580286539085376
-0.23634225563536693, 0.09074538946151733, 0.08626032591149783
-0.23376727401461955, 0.09074538946151733, 0.06632222698816324
-0.25533785863530406, 0.09074538946151733, 0.07058502741743361
-0.29703507447496696, 0.09074538946151733, 0.07305108234408232
-0.3194674288460932, 0.09074538946151732, 0.07900803835398265
-0.2708972844766787, 0.09074538946151733, 0.046854516824588875
-0.26662998954239125, 0.09074538946151733, 0.04529230323210663
-0.27432717838622456, 0.09074538946151735, 0.05240111084706717
-0.26258288368057897, 0.09074538946151733, 0.044293469262470256
-0.23956134039054067, 0.09074538946151733, 0.04206034137301268
-0.3086834076618046, 0.09074538946151732, 0.028285858768906758
-0.21324309232337335, 0.09074538946151733, 0.024923077827775475
-0.2654476965780402, 0.09074538946151733, 0.029136508853138458
-0.26481389396427696, 0.09074538946151733, 0.02283167520333065
-0.3340078567332036, 0.09074538946151733, -0.007863330919477038
-0.3536287612397096, 0.09074538946151733, -0.021456617486099224
-0.35869797582174007, 0.09074538946151733, -0.006491569626271642
-0.24075048110216157, 0.09074538946151735, -0.015001294044846403
-0.2739807598603373, 0.09074538946151733, -0.02075362883396801
-0.35844496835595635, 0.09074538946151733, -0.026142672930097567
-0.2460773591908563, 0.09074538946151732, -0.01777271807608469
-0.2913695984319976, 0.09074538946151733, 0.004064901434093768
-0.2811868268799301, 0.09074538946151733, 0.000628086150770789
-0.23349087113220712, 0.09074538946151733, 0.001415186966833464
-0.24765054660204777, 0.09074538946151733, -0.00019583431829168284
-0.34510883071219456, 0.09074538946151733, 0.00032277090314311916
-0.31597855213133785, 0.09074538946151733, -0.04633327728685489
-0.34188385693626844, 0.09074538946151733, -0.04979056129161832
-0.3028212802772379, 0.09074538946151733, -0.03867362293816223
-0.35693518924538215, 0.09074538946151733, -0.0395060382715301
-0.2886106083171693, 0.09074538946151733, -0.0329374730895933
-0.3432812246991893, 0.09074538946151733, -0.03873939481576176
-0.3359599106421437, 0.09074538946151733, -0.029929619607945625
-0.3312677204765419, 0.09074538946151733, -0.06566646779026565
-0.35102821807060536, 0.09074538946151733, -0.07271676535110261
-0.34602165346891484, 0.09074538946151733, -0.06596269183801265
-0.3288876280781118, 0.09074538946151733, -0.06861809034580257
-0.3370433272496974, 0.09074538946151733, -0.0795428319175149
-0.291205648264874, 0.09074538946151733, -0.06070657055359687
-0.31736169946279325, 0.09074538946151733, -0.06860532628320909
-0.3084763879877315, 0.09074538946151733, -0.09092825302810437
-0.319281236451967, 0.09074538946151733, -0.08865739088806951
-0.3202074441312571, 0.09074538946151733, -0.09395975415234836
-0.2241647243654972, 0.09074538946151733, -0.06941116033835941
-0.2843381936108371, 0.09074538946151733, -0.08116996757647771
-0.31455684516471494, 0.09074538946151733, -0.08849406412646421
-0.2827359533802417, 0.09074538946151733, -0.08791018942158016
-0.35654589146583193, 0.09063873937220243, -0.060447491631303994
-0.2705159451658171, 0.09074538946151733, -0.09981515666596967
-0.299782320515362, 0.09074538946151733, -0.1206346247884204
-0.30180824731236705, 0.09074538946151733, -0.11194123078604432
-0.2392837850106096, 0.09074538946151733, -0.09568896632851967
-0.32202517236690337, 0.09074538946151733, -0.11397508830566683
-0.25778183744495714, 0.09074538946151733, -0.10174974884658429
-0.33467905034648815, 0.09074538946151733, -0.13189743640567386
-0.3196969568472866, 0.09074538946151733, -0.15954905320336737
-0.3138588127702628, 0.09074538946151733, -0.15870611790138373
-0.2676710547940485, 0.09074538946151733, -0.12036644813840676
-0.32307326376514944, 0.09074538946151733, -0.13643801140386227
-0.2984113365303465, 0.09074538946151732, -0.131042815513256
-0.26393097232484636, 0.09074538946151732, -0.12492063428569121
-0.29761529653457264, 0.09074538946151733, -0.14494898113093674
-0.2571321812037529, 0.09074538946151733, -0.15355588181617158
-0.2442043291802035, 0.09074538946151733, -0.1348098401941752
-0.26103723561704395, 0.09074538946151733, -0.14190239365528418
-0.2536600574317788, 0.09074538946151733, -0.15394897807271596
-0.2855694380763295, 0.09074538946151733, -0.15861998075698172
-0.22863119918154817, 0.09074538946151733, -0.13646611354177574
-0.3086222056188293, 0.09074538946151733, -0.17914963362539793
-0.3332394902187802, 0.09059517998721762, -0.14085761454882928
-0.2123715748729782, 0.09074538946151733, -0.14747938959027
-0.2850408253717668, 0.09074538946151733, -0.20147575471270943
-0.21497944057428384, 0.09074538946151733, -0.14787573559127448
-0.29234079725792356, 0.09074538946151735, -0.18337620620756845
-0.2523932764286207, 0.09074538946151733, -0.17459160058071566
-0.20784106569941824, 0.09074538946151733, -0.14193709412818556
-0.26085356882384064, 0.09074538946151733, -0.18076125718541047
-0.25366371104720425, 0.09074538946151733, -0.21265459123736197
-0.24223655795059307, 0.09074538946151733, -0.1976498420772295
-0.27704657162544966, 0.09074538946151733, -0.22024540457154723
-0.25603397051405563, 0.09074538946151733, -0.2131561708140025
-0.27557014244746636, 0.09074538946151733, -0.21510452393023838
-0.24211489050069437, 0.09074538946151733, -0.1886509792199238
-0.18009074818454468, 0.09074538946151732, -0.15060736800046126
-0.261246898209823, 0.09074538946151733, -0.23087271622807956
-0.24660089560655507, 0.09074538946151733, -0.24147719770082146
-0.2039122542127473, 0.09074538946151733, -0.1965421182710188
-0.2064359307198335, 0.09074538946151733, -0.19921331184854324
-0.24192848312873838, 0.09074538946151733, -0.21380220635374353
-0.26862921930705724, 0.09074538946151733, -0.23310155763868995
-0.15978751726477952, 0.09074538946151733, -0.1582823801282558
-0.23660257385325173, 0.09074538946151733, -0.23436992571614013
-0.1759365925602101, 0.09074538946151733, -0.19400820260596166
-0.1730241363003296, 0.09074538946151733, -0.19731963035289055
-0.23057476359635207, 0.09074538946151733, -0.25710641137616647
-0.24991228660444842, 0.09074538946151733, -0.2515553959549746
-0.24127490258914436, 0.09074538946151733, -0.25850786203272597
-0.22990767854540795, 0.09074538946151733, -0.24683297013101907
-0.22959751545221796, 0.09074538946151735, -0.26479481615230044
-0.1586416084548446, 0.09074538946151733, -0.2033641828678408
-0.18839128392310303, 0.09074538946151733, -0.23305997410809967
-0.20016692493989743, 0.09074538946151733, -0.2553573804435367
-0.18157955277582732, 0.09074538946151733, -0.248624837589908
-0.1998892755582958, 0.09074538946151733, -0.24480671800993417
-0.21567292246864983, 0.09074538946151733, -0.26565672784163236
-0.17503715367224268, 0.09074538946151733, -0.23854708983462172
-0.16574920925872186, 0.09074538946151733, -0.24759232477164822
-0.1921409042382585, 0.09074538946151733, -0.2933843439479221
-0.16294641682962077, 0.09074538946151732, -0.24350076041029006
-0.14558358766235147, 0.09074538946151733, -0.23663336264922125
-0.17872864025611035, 0.09074538946151733, -0.27408958793280913
-0.16305825346439376, 0.09074538946151735, -0.23871475043346901
-0.1926030001810459, 0.09074538946151733, -0.280418046154243
-0.1707071597351829, 0.09074538946151733, -0.2535614063006578
-0.14746338602703962, 0.09074538946151733, -0.2866666350221195
-0.16424484053333022, 0.09074538946151733, -0.287515401164635
-0.14510029524527362, 0.09074538946151733, -0.26362726280989796
-0.15451669692269066, 0.09074538946151733, -0.26845902662359117
-0.1616393963623825, 0.09074538946151733, -0.3080183485352187
-0.13954568565572886, 0.09074538946151733, -0.2673725240219252
-0.16789245311783063, 0.09074538946151733, -0.3046658464299715
-0.129026362770013, 0.09074538946151733, -0.2828295669054016
-0.11713617566409926, 0.09074538946151733, -0.268837339326742
-0.12344114085525645, 0.09074538946151733, -0.2609091649713071
-0.12153424117357293, 0.09074538946151733, -0.26185248769062297
-0.15296203401549702, 0.09074538946151733, -0.30721009634106544
-0.13067030020950143, 0.09074538946151733, -0.2795313358141502
-0.14718594342069435, 0.09074538946151733, -0.31104395367802085
-0.10538440115962308, 0.09074538946151733, -0.285007215951938
-0.09509944253287334, 0.09074538946151733, -0.2590506526695843
-0.12456372846225428, 0.09074538946151733, -0.3361622223099448
-0.11142155831334498, 0.09074538946151733, -0.3263488510256835
-0.09057572901230737, 0.09074538946151733, -0.27115834927784516
-0.11513501433944344, 0.09074538946151733, -0.30718985034884433
-0.11132086130116144, 0.09074538946151733, -0.3337761307853452
-0.1211439119434075, 0.09074538946151733, -0.3130736765706128
-0.07995491052707492, 0.09074538946151733, -0.2916727856019099
-0.07161024584675701, 0.09074538946151732, -0.27026764857421826
-0.10576317133424731, 0.09074538946151733, -0.34069417311182737
-0.09324234564716694, 0.09074538946151733, -0.3225268903961387
-0.08527037024363589, 0.09074538946151733, -0.2899377178526129
-0.09289108308230527, 0.09074538946151733, -0.3109690550397663
-0.0821156962281525, 0.09074538946151733, -0.32435061228926804
-0.06371893033702639, 0.09074538946151733, -0.2957088302035473
-0.04111223379766172, 0.09074538946151735, -0.23306742737666497
-0.07312512537862767, 0.09074538946151733, -0.3327936975525136
-0.06306736819403533, 0.09074538946151733, -0.3344220829779831
-0.05200542853686454, 0.09074538946151733, -0.28341101780461686
-0.062139810513151615, 0.09074538946151733, -0.3474714770065084
-0.05223004470096977, 0.09074538946151733, -0.2634118666683025
-0.04496461779266977, 0.09074538946151735, -0.3292208552720914
-0.03452848334760624, 0.09074538946151733, -0.33716104698370863
-0.04122319577091012, 0.09074538946151733, -0.3286658958664579
-0.03939463509864154, 0.09074538946151733, -0.3173523241231915
-0.041831209666911645, 0.09074538946151733, -0.322229940216785
-0.02895710363062931, 0.09074538946151733, -0.27515835406300254
-0.023742072187102593, 0.09074538946151733, -0.2699881047909538
-0.03805823476996853, 0.09074538946151733, -0.32948956984798194
-0.007157780311832576, 0.09074538946151735, -0.26577512632498
-0.021601829905591115, 0.09074538946151735, -0.34040708215358406
-0.0071151184596929965, 0.09074538946151733, -0.3093172746242614
-0.023196919518565798, 0.09074538946151733, -0.34334444441021617
-0.009556951790463529, 0.09074538946151733, -0.30182379431014456
-0.006565261812134326, 0.09074538946151733, -0.25495444453992805
-0.010833750474855002, 0.09074538946151733, -0.29586572047268367
0.017011689974566823, 0.09074538946151733, -0.25770500526795836
0.009177938280040637, 0.09074538946151733, -0.24661799582205607
0.019001303329771967, 0.09074538946151733, -0.304869933884159
0.02047904140111606, 0.09074538946151733, -0.30146495003979185
0.023117279951856168, 0.09074538946151733, -0.212454408736386
0.05448163774213383, 0.09074538946151733, -0.34394006296616475
0.025044486909591678, 0.09074538946151733, -0.23361647607086153
0.020672570098509514, 0.09074538946151733, -0.22563800188731736
0.03309614745144021, 0.09074538946151733, -0.22266433635091137
0.07376721078344162, 0.09074538946151733, -0.3180204889826345
0.05488407184670478, 0.09074538946151733, -0.26745804486883884
0.062266833281279146, 0.09074538946151733, -0.2644509640871164
0.07022002279611082, 0.09074538946151733, -0.29893489052380284
0.06770267545559025, 0.09074538946151733, -0.24314016517952944
0.08793055844202613, 0.09074538946151733, -0.2807124998428358
0.06025616487097256, 0.09074538946151733, -0.2248443424514847
0.05533369988101055, 0.09074538946151733, -0.2182550080535527
0.0616512051215932, 0.09074538946151733, -0.21673456577447203
0.07645730148356585, 0.09074538946151733, -0.21361779890294114
0.0950199536700439, 0.09074538946151733, -0.24456853678194387
0.12654189120308273, 0.09074538946151733, -0.304659373065604
0.08492135899084814, 0.09074538946151733, -0.2062666355501983
0.10924354224782265, 0.09074538946151733, -0.23009356334967868
0.13120482876072442, 0.09074538946151733, -0.2647897291872293
0.12283774616003357, 0.09074538946151732, -0.2575614252525881
0.12570616589194242, 0.09074538946151733, -0.24667600447231414
0.10536433686006033, 0.09074538946151733, -0.18640435349547735
0.13866284279391103, 0.09074538946151735, -0.24292287661001294
0.11614062840667169, 0.09074538946151733, -0.19312571566500608
0.12072210914529749, 0.09074538946151735, -0.2162392816019641
0.12498183089131198, 0.09074538946151733, -0.2200155741422527
0.1489035697659282, 0.09074538946151733, -0.21864976967102862
0.15046278392394077, 0.09074538946151733, -0.2237104160555243
0.13356871299216577, 0.09074538946151733, -0.18838061416499502
0.15057594474251879, 0.09074538946151733, -0.21896785548287623
0.12760857340830278, 0.09074538946151733, -0.17388965615317364
0.19022736143770738, 0.09074538946151733, -0.22399405022997726
0.14971842559248547, 0.09074538946151733, -0.17570660035903307
0.19003805279884883, 0.09074538946151733, -0.22699505035334624
0.19206125991876782, 0.09074538946151733, -0.19976606554037393
0.1886028213205505, 0.09074538946151733, -0.18809588424980123
0.16688325593175138, 0.09074538946151733, -0.17546312893575888
0.15015185198539277, 0.09074538946151733, -0.1650198208066302
0.19851838827225468, 0.09074538946151733, -0.20506926502333378
0.1577001827046155, 0.09074538946151733, -0.14759009245358973
0.19821542884629378, 0.09074538946151735, -0.17755707780184452
0.16115251057732272, 0.09074538946151732, -0.15215550768774483
0.21056321632878355, 0.09074538946151733, -0.17941958226630833
0.1787044984329325, 0.09074538946151733, -0.14603532383679974
0.2013417324737959, 0.09074538946151733, -0.15396076161111089
0.2596311084769966, 0.09074538946151732, -0.19291055895514042
0.193100542383938, 0.09074538946151735, -0.15272350926612965
0.17955431672208935, 0.09074538946151733, -0.132116045070692
0.1873514067624379, 0.09074538946151733, -0.12969556796643494
0.2044469791497, 0.09074538946151733, -0.12732768887637902
0.2702876606272193, 0.09074538946151732, -0.16588973200549056
0.1999470962491871, 0.09074538946151733, -0.1321378677910544
0.2123819407719133, 0.09074538946151733, -0.12156360582742992
0.1974324284540869, 0.09074538946151733, -0.1125654841140839
0.21350981306133404, 0.09074538946151733, -0.1099048804155831
0.23842347220872556, 0.09074538946151733, -0.12709286628546668
0.3121590851903168, 0.09074538946151733, -0.1292506675079943
0.2315716645824643, 0.09074538946151733, -0.10128609092518782
0.26841390511134233, 0.09074538946151733, -0.11162819085512071
0.2224864064751323, 0.09074538946151733, -0.10141771481760833
0.2917115707872734, 0.09074538946151733, -0.1243620820157029
0.29093126543228465, 0.09074538946151733, -0.09690741207608819
0.26236133556144114, 0.09074538946151733, -0.08813889690251432
0.2153960516447092, 0.09074538946151733, -0.07609864553732529
0.22808268592332537, 0.09074538946151733, -0.07899886244262636
0.3486290564356469, 0.08470825019754157, -0.1043741617048354
0.3581071767480925, 0.08465522925857724, -0.06483431980424166
0.36236063806187324, 0.07680063474779922, -0.03427303049470117
0.36346764138319865, 0.08312250984771895, -0.01741543540109844
0.3641494030665235, 0.08793850729564504, -0.0002288514230674598
0.36343343716280263, 0.08591355366582544, 0.01783851410385255
0.3609374961489772, 0.07828068821208563, 0.04581693526164556
0.35744771857189445, 0.08009911345269567, 0.06770902608977875
0.3535788885698336, 0.08470022780437725, 0.0863995711135506
0.35230708128303656, 0.08790383944185674, 0.09090584740504759
0.3369539878878587, 0.07876809355230269, 0.13742836056042032
0.33364331348016796, 0.08085696433519825, 0.14487825592046438
0.32317393068299766, 0.07953472410033294, 0.16704836132149062
0.3121328409173942, 0.08039130219088335, 0.18673494494397802
0.3091854394863132, 0.0879033082231264, 0.1916161294634346
0.2908223968820327, 0.0824596869270565, 0.21819622851347778
0.2688794958241367, 0.07708924688881072, 0.2444692327181382
0.24850253806776892, 0.08046033787863274, 0.2650580867359723
0.2511607337769767, 0.08533038187536347, 0.26260461088774356
0.2344555493011144, 0.08168709067894163, 0.27774647718430767
0.20217414322223204, 0.08149467309047205, 0.3017276642528185
0.18616342474123931, 0.07705265557578943, 0.31195566160646265
0.18259256227238202, 0.08267937343769952, 0.3139508055293196
0.1532155531015238, 0.08434288665917089, 0.32917348352456893
0.11785456263977177, 0.079302431086606, 0.34347820676064755
0.09026666092140027, 0.07975490426861417, 0.35169945694609017
0.09959013193289785, 0.08789853222324298, 0.34907801206172023
0.07864890317702303, 0.07971560301358557, 0.3544382120398992
0.046271134043301174, 0.08570118369902499, 0.3600034241902177
0.01577488469392471, 0.07959047852829475, 0.3626022788419656
-0.021217736923575328, 0.07532781939129174, 0.36212577831537174
-0.0017160000129150161, 0.08306114617781264, 0.3631565039561587
-0.02910762663297592, 0.0880792194264979, 0.3620300552431967
-0.0651859860189328, 0.07764706605021746, 0.3571016126161938
-0.10435690346875723, 0.08077554987567856, 0.347727906426799
-0.08968718599233225, 0.0825913306127654, 0.351852533979635
-0.11444222989740391, 0.0799309888644102, 0.3447229806750968
-0.16283348377757528, 0.0830160825731686, 0.32472966919260093
-0.1699225750075433, 0.07819718934084433, 0.3210103141183797
-0.18698523385176566, 0.08749690969084223, 0.3114769255511757
-0.19352442577784232, 0.08422920191436545, 0.30746913314697266
-0.2253914696410043, 0.07658197583247131, 0.28485544955210507
-0.25479779180277246, 0.08123262167411227, 0.2592153443527093
-0.24662650390471091, 0.08615120131247436, 0.26675734168592946
-0.2767634859621335, 0.08222219055031232, 0.23592184457309934
-0.286147789072288, 0.08447064801107884, 0.22406673335003205
-0.3057556922300073, 0.0776028688364571, 0.19669050218905654
-0.3204219298014489, 0.07638267271784469, 0.1718928849485143
-0.32207171793656353, 0.08082138198839617, 0.16895126656341547
-0.329087191505981, 0.08375831601241823, 0.1546621509200492
-0.3416329499358589, 0.08051695794289161, 0.12468690971292547
-0.34903376329955127, 0.07898644824275436, 0.1023799489546855
-0.35572229021845203, 0.07796946238393518, 0.0761998834734187
-0.35949859742378376, 0.08732701496775504, 0.0572326801713414
-0.3624489391274922, 0.08785583658748095, 0.032796915821795364
-0.362991640161137, 0.08637861177878803, 0.02809429824450398
-0.363930713707414, 0.07634657398298089, -0.004859032896795958
-0.3631673529403041, 0.08285466071868394, -0.0241026500583887
-0.3602821778495584, 0.08043790573920706, -0.05147756981720111
-0.3601294313102443, 0.0882922631125617, -0.05241669719883116
-0.3497571005863382, 0.07828856943230586, -0.10025288215132858
-0.3517753680077936, 0.08901814854064805, -0.09234604255559016
-0.3420125578687974, 0.08519325336280573, -0.12409599647682365
-0.32568236668883654, 0.08466894474153859, -0.16246428595322582
-0.3238264674565572, 0.08233319701989, -0.16625645103922437
-0.3009216297115238, 0.07978491939056812, -0.20434917589227247
-0.29532985736555145, 0.07792811723284815, -0.21270733403547015
-0.27851492655734833, 0.08347679012973228, -0.23415663483552507
-0.270593936060286, 0.08302884086137027, -0.24301271898332438
-0.2677176630875467, 0.08571145806627359, -0.24611713290641826
-0.23169994544470363, 0.07805207962070049, -0.28031924127272617
-0.21990900900064847, 0.08515886049005661, -0.2896024855527453
-0.20847777451488608, 0.08416854525427259, -0.297933375452816
-0.1780666745956932, 0.07804287372225274, -0.31688970380171777
-0.15071331468083038, 0.0772635186566144, -0.3307386067364858
-0.15753834918008003, 0.08639767068894609, -0.32759674686177787
-0.13718134951045105, 0.07828689882512804, -0.33677115504636773
-0.0865311784952755, 0.07667799482948413, -0.35316858940840473
-0.05888847437115682, 0.08069275489075062, -0.35877920081222203
-0.07042859171602078, 0.08893186062653823, -0.3562519428037375
-0.054347998030595784, 0.0775668204616496, -0.3594720916947654
0.010608350087057341, 0.08842998454337266, -0.3631425270883181
0.010845587175423778, 0.07657576374093657, -0.36322547619829315
0.050382272467162745, 0.08008844297336395, -0.35994545429977826
0.0417362895491167, 0.08282072049132173, -0.3609684239815514
0.1120930793184898, 0.08842093375422445, -0.3458997810310992
0.10826859562795528, 0.07631298546920785, -0.34706682831183205
0.1337155373439024, 0.07624602713708037, -0.338061521760034
0.11825716052879849, 0.08261262634547553, -0.3437588280633089
0.13959025350698212, 0.07712384727245486, -0.3358752712419955
0.17642069955561057, 0.0771649232644365, -0.31782896600405064
0.19778129908740366, 0.07863884010093677, -0.30508555152276723
0.20577686685756913, 0.08407364747707348, -0.2997568600219125
0.21919190557754253, 0.08143627538680408, -0.29019478168967616
0.2366566246848354, 0.07607878601356108, -0.2763671398811972
0.2396958694029561, 0.0794262138821354, -0.2736176399367888
0.2809170257645084, 0.07758988386966714, -0.23116196862817034
0.2867719312830606, 0.0865084661187977, -0.22375393279907302
0.29697193997097254, 0.08681381204444251, -0.2103055077370535
0.3170100160616615, 0.07733694819965396, -0.1784728216084604
0.3250822887021176, 0.07709721357423367, -0.1638390693499152
0.3496004014508527, 0.07792232070851436, -0.10093258248400963
0.342200170987881, 0.08565854706297277, -0.12368392526278599
0.3362780791956397, 0.08818700161966317, -0.13956733551673273
-0.03663804972536835, 0.07359902461903352, -0.030634715450851904
-0.030368135861682785, 0.07359899940410577, -0.027541956664817308
0.015542113011099052, 0.07359890914405644, -0.006399843787673969
-0.04160143329676458, 0.07359907486867379, -0.04489064186636351
-0.04977848539862919, 0.07359913366385042, -0.058738914480889096
0.033403699985273726, 0.07359913677172619, -0.07025843327110867
0.017549216235476017, 0.07359903872071022, -0.048478978045505425
0.03969168172096321, 0.07359911513947325, -0.060080103479292365
0.044191251464351225, 0.07359911941969456, -0.058313096324454014
0.028522832996693, 0.07359900291419841, -0.030782290769821766
0.05150668478056104, 0.07359910976243622, -0.04823826004898245
0.023147239791992125, 0.07359895635225669, -0.018267441784757647
0.04819516458507572, 0.0735990337422071, -0.01392996312472841
-0.035875740108550186, 0.07359908273058893, -0.052177023668811856
-0.00867584592527982, 0.07359891537087485, -0.016381989543957
0.01862748595136706, 0.07359891663609588, -0.002213299879326591
-0.02695552381721475, 0.07359909113484611, -0.05976911015202757
-0.07530073646390632, 0.07359912927992694, -0.00787665073125375
-0.0032928800459424545, 0.07359888397434239, -0.009600172268143688
0.062369667793385465, 0.07359913145963463, -0.044125875960783253
-0.011603642559428248, 0.07359899701007476, -0.038692775572458676
-0.012150682547915811, 0.07359904680169163, -0.05234530297177883
-0.05016789684331486, 0.07359904335222052, -0.016295540685880634
-0.0039770274278846055, 0.07359897491951584, -0.03425478939474149
0.024966431077586913, 0.07359895421733327, -0.01455590699173211
-0.0016361882683807306, 0.07359913043502508, -0.07607649061541552
-0.07299083197348301, 0.07359913520647104, -0.025572296649494605
0.0008708748305405324, 0.07359908049218337, -0.06273992718864548
0.006682673721453502, 0.07359907283660029, -0.060310604465833056
-0.037189145354003535, 0.07359900511635478, -0.020570221108142165
0.010419213844051034, 0.07359907427155889, -0.060186326720368506
-0.01925534678673381, 0.07359893274085902, -0.012807315919987815
0.016961033367193703, 0.07359905756514276, -0.05402277875049707
0.0053430915619702285, 0.09074543413313299, -0.019423424615716472
-0.06278566402824316, 0.09074539546205954, -0.03467245682048484
-0.06760292008300246, 0.09074539717267799, -0.015848398968005762
-0.0501907961093212, 0.09074541111111101, -0.007700046610210636
-0.018291858685218692, 0.09074543250929931, -0.01263575797368963
-0.0533515618199156, 0.0907453989755713, -0.04061287520968024
-0.04533804929367166, 0.0907454025216251, -0.04274054379729961
-0.028334364003278385, 0.09074541705250135, -0.03223293148462717
-0.04783890773902475, 0.09074539259485365, -0.05851567462488805
-0.02406053622755901, 0.09074541085757942, -0.04519353558873809
-0.011989467044783727, 0.09074542699488516, -0.027123731739645628
-0.017129855790651558, 0.09074540990749246, -0.04959947605868624
0.06770879333497641, 0.09074539800688952, -0.009034791141448359
-0.0040487370693782325, 0.09074543778447178, -0.01471571981958998
0.06039928784842895, 0.090745403004384, -0.012281808247314376
0.011055972531496256, 0.09074544058114861, -0.0028652387746843254
-0.0018263636863229088, 0.09074543321360808, -0.02130171193840567
-0.0027580314106717785, 0.09074541604065861, -0.04421167022559617
0.0037425884740446853, 0.09074540751909072, -0.05555375411816266
0.006601742569730555, 0.09074540678427423, -0.05625296074856913
0.01451271706469871, 0.09074539100801762, -0.0763273866502282
0.02799435918224348, 0.09074540090052681, -0.0581153350747418
0.03151579225460442, 0.09074539917205804, -0.05891676202705885
0.029338886572973955, 0.09074541584136456, -0.033539254421259476
0.023487847056046455, 0.09074543051168653, -0.008253938125083257
0.04828172822637717, 0.0907453930404346, -0.057437317456161256
0.06109081699370841, 0.09074539788218415, -0.031123999854597684
0.012075123441703028, 0.09074542512167438, -0.029834417829809976
0.051069947068132386, 0.0907454056877625, -0.02769046710973108
0.04683221227907784, 0.09074540731230529, -0.03057300618141231
0.042192072998586884, 0.09074540673731307, -0.03788886531587906
-0.03648997164331108, 0.09074541931823046, -0.015991175222764397
-0.04950942548230675, 0.09074540969515527, -0.018011315120762976
0.08088071514056949, 0.09074538946151733, -0.019996282290391954
0.32035547274546483, 0.09074538946151733, -0.06958855257322408
0.3171400333889874, 0.09074538946151733, -0.056230113268249615
0.33445425062957934, 0.09074538946151735, -0.06390948191419726
0.3342093410395622, 0.09074538946151732, -0.062352781418518376
0.2747132108047459, 0.09074538946151733, -0.06063938018054667
0.3173229892388563, 0.09074538946151733, -0.0749707418377479
0.26332221620029966, 0.09074538946151733, -0.06208140419505512
0.24400535273422852, 0.09074538946151733, -0.05623614883350658
0.13234523224481248, 0.09074538946151733, -0.030719138284263738
0.15537049228308425, 0.09074538946151733, -0.03276469393646344
0.17146512775076886, 0.09074538946151735, -0.03183651011378485
0.2001284392195292, 0.09074538946151735, -0.03694342519683837
0.08731757551168107, 0.09074538946151733, -0.014706075488988434
0.29808960821361286, 0.09074538946151733, -0.03941788729351428
0.3431017781920258, 0.09074538946151733, -0.049363931658423295
0.2847932382593621, 0.09074538946151733, -0.043420977358143306
0.2725342523208666, 0.09074538946151733, -0.04122834718129972
0.3178406960603022, 0.09074538946151733, -0.03981528732662455
0.2847922776490383, 0.09074538946151732, -0.03340530313162158
0.28442796126797854, 0.09074538946151733, -0.03642970172970811
0.16291862212266944, 0.09074538946151733, -0.023060357959363256
0.20718759650424798, 0.09074538946151733, -0.028431212343890927
0.20897817927849005, 0.09074538946151733, -0.022890485703316088
0.21031034534966453, 0.09074538946151733, -0.02654807685596498
0.1964863017124961, 0.09074538946151733, -0.015996332271692615
0.10163494340974133, 0.09074538946151733, -0.011348628036391027
0.31842747542969807, 0.09074538946151733, -0.02117410129074689
0.3148040643990947, 0.09074538946151733, -0.021384974338518888
0.25448605387546736, 0.09074538946151733, -0.013942720292368385
0.2359020885441228, 0.09074538946151733, -0.01717910550468218
0.3303885117203512, 0.09074538946151733, -0.0230036315227674
0.2226157936998902, 0.09074538946151733, -0.017637093125271976
0.34812577974661996, 0.09074538946151733, -0.01260704853856213
0.19788523119530482, 0.09074538946151733, -0.012446848697730793
0.17998502921132176, 0.09074538946151733, -0.013489445813941448
0.21099633839682003, 0.09074538946151735, -0.0037507334478972605
0.1248415258247388, 0.09074538946151733, -0.00478943294556701
0.04976740049812008, 0.09074541176968831, -0.004030838295970988
0.18760800008190723, 0.09074538946151733, 0.013641691622198955
0.15239273171454487, 0.09074538946151733, 0.004935042301254753
0.16677326873157133, 0.09074538946151735, 0.004438218479616522
0.13085016444408964, 0.09074538946151733, 0.005147378996246007
0.15795777793562005, 0.09074538946151733, -0.0003569656024931585
0.058460257112624016, 0.09074540530850045, 0.0023818821003930104
0.10115697577700775, 0.09074538946151733, 0.00210824638140073
0.14765242624302116, 0.09074538946151732, 0.0014291753572737112
0.2668440500733122, 0.09074538946151733, 0.0010790997636381907
0.22026332918611535, 0.09074538946151733, 0.005434907298832221
0.2143857666499949, 0.09074538946151733, 0.010294035503306865
0.2988414296833856, 0.09074538946151733, 0.0032245241169366556
0.1839559756431871, 0.09074538946151733, 0.02327048984873521
0.1429524110595161, 0.09074538946151733, 0.022236002671591714
0.1813503611883785, 0.09074538946151733, 0.019031969476834745
0.1353117795773784, 0.09074538946151733, 0.01601801880507211
0.08213405173533794, 0.09074538946151733, 0.007798992665576104
0.042327312744445914, 0.09074541706469108, 0.006280900675897288
0.13649320624823097, 0.09074538946151733, 0.030695269014949254
0.18758444023084123, 0.09074538946151733, 0.04310647977342095
0.18129246601719043, 0.09074538946151733, 0.03361257434106049
0.1790302224944697, 0.09074538946151733, 0.03958701892770135
0.2728501808009118, 0.09074538946151733, 0.02922372759348002
0.29523745695268144, 0.09074538946151733, 0.025043898680271792
0.25528298387003506, 0.09074538946151733, 0.02924466223686227
0.22605493471047605, 0.09074538946151733, 0.01946482567594219
0.29980369061835493, 0.09074538946151733, 0.028488414322647967
0.11918214395879945, 0.09074538946151733, 0.021671832745236697
0.07599520821862112, 0.09074539084079564, 0.01678253053655731
0.15421981526686912, 0.09074538946151733, 0.04150372203112609
0.20324512293376013, 0.09074538946151733, 0.05782169503893551
0.1541890467790782, 0.09074538946151733, 0.04610173144822602
0.17182970287276836, 0.09074538946151733, 0.05239147869314051
0.2264827609596139, 0.09074538946151733, 0.044644858930503684
0.2830675485048504, 0.09074538946151733, 0.050023270365943756
0.23102909271196898, 0.09074538946151733, 0.04279769421737455
0.2823695244233074, 0.09074538946151733, 0.050405730859382686
0.12359303650131061, 0.09074538946151733, 0.02996772126869762
0.16486811103583968, 0.09074538946151733, 0.03958289640808622
0.19171534295267534, 0.09074538946151735, 0.07860434261899517
0.0886102511581035, 0.09074538946151732, 0.035393422059725274
0.12298691253371986, 0.09074538946151733, 0.04993394077254191
0.19231392904792421, 0.09074538946151733, 0.07355416334414558
0.24944909656988737, 0.09074538946151733, 0.0594423642579505
0.21156974791689165, 0.09074538946151733, 0.060449615796854275
0.23951691734445268, 0.09074538946151733, 0.06579036571585097
0.28052619628893044, 0.09074538946151733, 0.0734022071636981
0.2376052502048467, 0.09074538946151733, 0.06341224835551747
0.058339523659386654, 0.09074540278778648, 0.0204083047467249
0.0856415856064854, 0.09074538946151733, 0.032942026367678616
0.18505103756735203, 0.09074538946151733, 0.08593577291688936
0.173501015889038, 0.09074538946151733, 0.08073720279944499
0.1739890072498527, 0.09074538946151733, 0.07467282257850459
0.14641575765488074, 0.09074538946151733, 0.06444973389199161
0.2662603519764887, 0.09074538946151733, 0.08608247946679076
0.2442505366573391, 0.09074538946151733, 0.07989637336128212
0.2375163232502786, 0.09074538946151733, 0.08039758974055508
0.23188070602051652, 0.09074538946151733, 0.07955505407871413
0.03803629370780005, 0.09074541752935902, 0.017981596123091324
0.10243814897818593, 0.09074538946151733, 0.04395078783130223
0.11604696042768167, 0.09074538946151733, 0.04918004852539588
0.22429657762380217, 0.09074538946151733, 0.09737564764289794
0.27552835237539475, 0.09074538946151733, 0.11632838173324898
0.2058686726832713, 0.09074538946151733, 0.08677065322486081
0.2961931734352449, 0.09074538946151733, 0.12606803206109862
0.17655838172254013, 0.09074538946151733, 0.10192682318005108
0.1783170414465856, 0.09074538946151733, 0.1011797825979193
0.1652187741303477, 0.09074538946151732, 0.08530005209246838
0.16381664256876427, 0.09074538946151733, 0.09148281274735733
0.12324726217324787, 0.09074538946151733, 0.06505961546022429
0.04698641507826713, 0.09074540904857172, 0.025352422593107746
0.15437312551557858, 0.09074538946151733, 0.09915117873154862
0.14229864116858223, 0.09074538946151733, 0.10066236464018369
0.10082273276438325, 0.09074538946151733, 0.0699319358333318
0.18033271991567745, 0.09074538946151735, 0.11370314977897171
0.25171132572244725, 0.09074538946151735, 0.1321263754576677
0.24347952567436756, 0.09074538946151733, 0.1294071764749961
0.2454290205148284, 0.09074538946151733, 0.12636588023075757
0.26343627337888437, 0.09074538946151732, 0.13923949116288756
0.22447308345135655, 0.09074538946151732, 0.12319539680175927
0.0741789877789362, 0.09074538946151733, 0.04986172908872402
0.04616489117814538, 0.09074540796389853, 0.029566759746495398
0.13503630024832927, 0.09074538946151735, 0.10389059800005679
0.16797830142496928, 0.09074538946151733, 0.13097279562539652
0.16208134534705404, 0.09074538946151733, 0.13193036507988654
0.09167035251304, 0.09074538946151733, 0.07323537303653871
0.23013106239817221, 0.09074538946151733, 0.14692899657226818
0.22910541464636, 0.09074538946151732, 0.14983662755845167
0.20773367063703443, 0.09074538946151733, 0.1276704490526409
0.1827796582198007, 0.09074538946151733, 0.1198222432116111
0.10310900426540509, 0.09074538946151735, 0.07717554400885614
0.0792697849139282, 0.09074538946151733, 0.06362257908225645
0.1526054884009596, 0.09074538946151733, 0.1393039263574536
0.07223685650317675, 0.09074538946151733, 0.07041987506997965
0.10287768619310189, 0.09074538946151733, 0.094245903237857
0.09318227919928379, 0.09074538946151733, 0.08934502206371703
0.21855456833504297, 0.09074538946151733, 0.16616662939004276
0.1755215027087989, 0.09074538946151733, 0.12990148551722713
0.2153992888687204, 0.09074538946151733, 0.16541980168321976
0.19863670751743986, 0.09074538946151733, 0.14396082793452591
0.24700056843146945, 0.09074538946151733, 0.18429025679554092
0.12442022552470605, 0.09074538946151735, 0.10805797846519
0.035566749073830214, 0.09074541244387674, 0.033386562943354355
0.07785687039025987, 0.09074538946151733, 0.09053669076619725
0.10808027472618151, 0.09074538946151733, 0.11552978852178793
0.10861090572698484, 0.09074538946151733, 0.12608006753272144
0.11752008741749205, 0.09074538946151733, 0.12788515597396594
0.17990379020030925, 0.09074538946151732, 0.16639674198763527
0.1818761098363021, 0.09074538946151733, 0.16020040706254235
0.18327538411125388, 0.09074538946151733, 0.16496599280457327
0.17056252716713066, 0.09074538946151733, 0.1552496001072633
0.037419405293827014, 0.09074540863502704, 0.038740128665940225
0.05715962027001333, 0.09074538946151733, 0.0648666145135415
0.08930766184102362, 0.09074538946151733, 0.08984012247627682
0.22495659194616077, 0.09074538946151733, 0.22586580729049882
0.14813180601572382, 0.09074538946151733, 0.16085560109098587
0.15091409272350326, 0.09074538946151733, 0.16231729667194256
0.161760634971379, 0.09074538946151733, 0.1736257402462149
0.10770440293740378, 0.09074538946151733, 0.14339975165182983
0.10806868814649917, 0.09074538946151733, 0.1417059152643929
0.09069631012192653, 0.09074538946151733, 0.11476959246869514
0.11630411526966555, 0.09074538946151733, 0.1414102941144326
0.07697969811152988, 0.09074538946151733, 0.09335828491028765
0.02988348672676147, 0.09074541367568925, 0.03641465887075451
0.058213040028538277, 0.09074538946151733, 0.0902566835182703
0.11573006249311037, 0.09074538946151733, 0.1687328428759173
0.10618674326535472, 0.09074538946151733, 0.1716557342966823
0.06182395017265831, 0.09074538946151733, 0.09833767272856486
0.1423689748389676, 0.09074538946151733, 0.17136273939982832
0.15539927753545268, 0.09074538946151733, 0.18286826138944873
0.16117214638273897, 0.09074538946151733, 0.19328938145293856
0.20808388901123703, 0.09074538946151733, 0.24572345094424358
0.05079355771471406, 0.09074538946151733, 0.07273419248710511
0.08638243205897166, 0.09074538946151733, 0.11991928535255236
0.04303559010275842, 0.09074539279639031, 0.06139629830820871
0.14245585416448675, 0.09074538946151733, 0.20323135035424844
0.1575158025374805, 0.09074538946151733, 0.21999977479267674
0.20095355141189905, 0.09074538946151733, 0.2764644311974409
0.12959265726000552, 0.09074538946151733, 0.1947193670805384
0.08844243920139637, 0.09074538946151733, 0.15055317365177487
0.08784683362433103, 0.09074538946151733, 0.1550561657289463
0.08366101711680965, 0.09074538946151733, 0.15030293293015246
0.07129985840944694, 0.09074538946151733, 0.13424716781015944
0.07692034314769415, 0.09074538946151733, 0.1284435797827545
0.08651231556135403, 0.09074538946151733, 0.14423891987380624
0.13676556047104482, 0.09074538946151733, 0.23385741019258696
0.1495653113362405, 0.09074538946151733, 0.253161640079053
0.11485853813589768, 0.09074538946151733, 0.20254828307163192
0.11926930397846304, 0.09074538946151733, 0.20794093187867682
0.1056019377755075, 0.09074538946151733, 0.1878871858126831
0.09344326078042994, 0.09074538946151733, 0.18454765590747535
0.08590291919332825, 0.09074538946151733, 0.18456322826827515
0.046921978070411235, 0.09074538946151733, 0.10509476352974553
0.09248110887799954, 0.09074538946151733, 0.19095331673523588
0.018463445469759112, 0.09074541547083977, 0.040655444747696924
0.04678571592107567, 0.09074538946151733, 0.09814377463551607
0.041828465197812095, 0.09074538946151733, 0.12327250628955541
0.07368221085596237, 0.09074538946151733, 0.1920821282117721
0.057657226622331234, 0.09074538946151733, 0.16962677179187124
0.05748046047073111, 0.09074538946151733, 0.14690695040752402
0.09798169393325021, 0.09074538946151733, 0.19960931649537816
0.10683300954917674, 0.09074538946151733, 0.21968781345233576
0.10989980733042386, 0.09074538946151733, 0.2213862880441561
0.09014033862972816, 0.09074538946151733, 0.20725300144937525
0.014632520365442098, 0.09074541460889618, 0.04340789948418894
0.05479989636531623, 0.09074538946151733, 0.1328311791668568
0.038636367946127584, 0.09074538946151732, 0.10453456925667906
0.05417169510971294, 0.09074538946151735, 0.1804938302989002
0.046131543289944205, 0.09074538946151733, 0.1695940849624699
0.03975899585139947, 0.09074538946151735, 0.13990902421620477
0.04955438788501562, 0.09074538946151733, 0.18209995115826771
0.08790670888671809, 0.09074538946151733, 0.2242476171719908
0.10033999120157716, 0.09074538946151733, 0.24996984390801064
0.09358830658029015, 0.09074538946151732, 0.24789041423738972
0.07817719941668609, 0.09074538946151733, 0.2100415795575331
0.02399475736803617, 0.09074538946151733, 0.079971944815676
0.0065828168677118815, 0.09074543002212221, 0.024335734986090558
0.027864214907327073, 0.09074538946151733, 0.13935208874662283
0.02012253623379601, 0.09074538946151733, 0.10485078290044092
0.037817998386363176, 0.09074538946151733, 0.19097471572077365
0.020394651963119518, 0.09074538946151733, 0.11957610720207276
0.09024052778263626, 0.09074538946151733, 0.2805748172590783
0.09942903336029979, 0.09074538946151733, 0.31087391151378857
0.08669648586398856, 0.09074538946151733, 0.2711862047934908
0.10496214764171796, 0.09074538946151733, 0.32301710624677205
