0.17726979529794643, 0.5208781957626343, 0.14318414301882834
-0.09345037672013569, 0.5208781957626343, 0.09973821801196903
-0.05289418924851101, 0.5208781957626343, 0.09391206876364308
0.25806393919616677, 0.5208781957626343, 0.21997595802947706
-0.2894793538535526, 0.5208781957626343, 0.10452671722838103
-0.14182206083278243, 0.5208781957626343, 0.12285243723698477
-0.1131838669696426, 0.5208781957626343, 0.04486275236368273
-0.17876713087211424, 0.5208781957626343, 0.21810538057402032
-0.11396255708795347, 0.5208781957626343, 0.1787397151079757
-0.2746702628540232, 0.5208781957626343, 0.24109053718732995
-0.33863154075025226, 0.5208781957626343, -0.09211417410020709
-0.15100011589911083, 0.5208781957626343, 0.1269086783794618
0.107758242470221, 0.5208781957626343, 0.16127640876635277
-0.26643564783374296, 0.5208781957626343, 0.19202075602000532
-0.20060362308172244, 0.5208781957626343, 0.06309383319439366
-0.09896425811991214, 0.5208781957626343, 0.17307030023159942
-0.33938899058947103, 0.5208781957626343, 0.18183990174530834
-0.23371044020764448, 0.5208781957626343, -0.07268972038468981
-0.3158205256443095, 0.5208781957626343, 0.09516932768528572
0.15049531688470486, 0.5208781957626343, 0.21745239094036412
0.06054191215611712, 0.5208781957626343, 0.15715504793954413
-0.25521054812597926, 0.5208781957626343, -0.10075277335337361
-0.12515846833860378, 0.5208781957626343, 0.0485889940619883
-0.2350993436873406, 0.5208781957626343, 0.18886823983322126
-0.20976829692550852, 0.5208781957626343, 0.0896424293985423
0.06040275207042228, 0.5208781957626343, 0.2516808250652384
-0.3481562945639566, 0.5208781957626343, -0.05385962631547353
-0.13258590829351768, 0.5208781957626343, 0.016986496984216032
0.2383642931585193, 0.5208781957626344, 0.24291641340959608
-0.3892043727422331, 0.5208781957626343, 0.24859622398156783
-0.3820195543528747, 0.5208781957626343, 0.10797738496040359
-0.08204068739641218, 0.5208781957626343, 0.007780050562849564
-0.1544482005672087, 0.5208781957626343, 0.06065706873688449
-0.2638493052790257, 0.5208781957626343, -0.06905567969644487
-0.11155061789030439, 0.5208781957626343, 0.0915320688102485
0.01722487333909241, 0.5208781957626343, 0.17596899077888511
0.014066088493244491, 0.5208781957626343, 0.14567221900836133
-0.34959391584120925, 0.5208781957626343, -0.02066933111538144
-0.2645830920639249, 0.5208781957626343, 0.21330513212563712
-0.19489545019393123, 0.5208781957626343, 0.17141555408847495
-0.3090264504141066, 0.5208781957626343, 0.09143054086555806
-0.33758640562005005, 0.5208781957626342, -0.009307483936441333
0.0631766410072167, 0.5208781957626343, 0.09196196362266335
-0.06690760859784893, 0.5208781957626343, 0.06989981599711675
-0.114852982813749, 0.5208781957626343, -0.00790689213569534
-0.15448644088609942, 0.5208781957626342, -0.0367732644540836
0.11966466550520209, 0.5208781957626343, 0.18534383068511845
-0.27675541207137977, 0.5208781957626343, 0.030407393747268675
-0.14939572709637428, 0.5208781957626343, -0.029336097105391243
0.07724396878612469, 0.5208781957626343, 0.2613072030878728
0.1535027380302697, 0.5208781957626342, 0.23692357639278766
-0.1256001916882198, 0.5208781957626343, 0.22741073729482067
0.05657571803766347, 0.5208781957626343, 0.21061009441753747
-0.0467377809762925, 0.5208781957626343, 0.08236992697509724
-0.21760864350887285, 0.5208781957626343, 0.2320685385466103
-0.35185139036056073, 0.5208781957626343, -0.025684483769502844
-0.16023110247904854, 0.5208781957626343, 0.026426507752618122
-0.3826594705290959, 0.5208781957626343, -0.03134117691179868
-0.29500714728148736, 0.5208781957626343, -0.012250956887694245
-0.09144640831448449, 0.5208781957626343, 0.12619936929360212
-0.34373624485426363, 0.5208781957626343, 0.02079335429055522
-0.24807865597733914, 0.5208781957626343, 0.25742465613087795
-0.3495020278079769, 0.5208781957626343, 0.17194860047201374
0.13717799434812372, 0.5208781957626343, 0.22696472917685456
0.15431384434580625, 0.5208781957626343, 0.19854306501992067
-0.05984817248436514, 0.5208781957626343, 0.06902877200709606
-0.3636485367547111, 0.5208781957626343, 0.07470728405491553
-0.3374957530296469, 0.5208781957626343, -0.07847339026795241
-0.3079872504515586, 0.5208781957626343, 0.06135201812859462
0.09483652458232303, 0.5208781957626343, 0.1799409652199892
0.17843050917486541, 0.5208781957626343, 0.22773439803904938
-0.1126432721467162, 0.5208781957626343, 0.0683888541225178
0.26303984568683675, 0.5208781957626343, 0.22365076578170695
-0.35195243316156655, 0.5208781957626343, 0.019749530782337807
-0.020495049102273954, 0.5208781957626343, 0.14472104363525445
-0.2804896104952686, 0.5208781957626343, 0.1640658660115022
-0.03642804777703217, 0.5208781957626343, 0.07168140826060146
-0.23442170239086074, 0.5208781957626343, 0.11969020877823672
-0.1658995862618315, 0.5208781957626343, 0.14788573553986298
0.04494216402830132, 0.5208781957626342, 0.078513519923024
-0.24263288939629918, 0.5208781957626343, 0.07341299286725886
-0.3490887318274854, 0.5208781957626343, 0.19812933940217548
-0.3559492223401417, 0.5208781957626343, -0.14784564459185023
0.0003646495408276551, 0.5208781957626343, 0.13412840553399946
-0.34251779301319163, 0.5208781957626343, -0.007019995852240751
0.07326703105600418, 0.5208781957626343, 0.1744634229681787
-0.2865178854803932, 0.5208781957626343, 0.07820975566826291
-0.22221832808626008, 0.5208781957626343, 0.25998152158771026
0.18635685857613643, 0.5208781957626343, 0.18977368028139077
-0.3788915062972973, 0.5208781957626343, -0.1319552623323761
0.11331861116199976, 0.5208781957626343, 0.14143648910353163
0.11251503671492691, 0.5208781957626343, 0.11859576396011406
0.14660099584154332, 0.5208781957626343, 0.1724266549945517
-0.012974832147501125, 0.5208781957626343, 0.05158541951696975
-0.29272964335954316, 0.5208781957626343, 0.010356464259928228
-0.1929268007859049, 0.5208781957626344, -0.07245880043843528
-0.24262408122127976, 0.5208781957626343, 0.14319287747466022
-0.2959033288101214, 0.5208781957626343, 0.05442295954257464
-0.20376201348228778, 0.5208781957626343, 0.16043373782706805
0.07577065379392872, 0.5208781957626343, 0.1395543212760982
-0.12946380398104781, 0.5208781957626343, 0.1805388020583252
-0.2964330014881078, 0.5208781957626343, 0.06338539939265057
-0.2526922435208048, 0.5208781957626344, -0.008699646669423744
-0.18022421064581096, 0.5208781957626343, 0.15843357097582486
-0.3654123432741143, 0.5208781957626343, 0.02806245345643847
-0.263083414887576, 0.5208781957626343, 0.166928844621869
-0.21111599279263307, 0.5208781957626342, -0.006317677231231646
-0.3549848418712066, 0.5208781957626343, 0.029814578165221525
-0.2852240023158929, 0.5208781957626343, -0.0034109454539293926
-0.09956278920527947, 0.5208781957626343, 0.13662979957913518
-0.266576287125249, 0.5208781957626343, 0.03415132504833413
-0.2750850050109914, 0.5208781957626343, 0.029415090097629083
-0.3301265980467346, 0.5208781957626343, 0.2225648551761949
-0.2943795433864401, 0.5208781957626343, 0.15545957880337952
-0.3024928352228909, 0.5208781957626343, 0.13587351653278218
-0.3388380869582015, 0.5208781957626343, -0.04677814889474384
-0.12988881612076159, 0.5208781957626343, 0.2063619712931492
-0.3736891658848611, 0.5208781957626343, 0.07798440814590474
-0.13839038007291932, 0.5208781957626343, 0.13895023533896175
-0.08061734039475985, 0.5208781957626343, 0.2358991182453523
0.19717620935876756, 0.5208781957626342, 0.18761635967293985
-0.32691958908815544, 0.5208781957626343, -0.12758284968846234
-0.10503108039023051, 0.5208781957626343, 0.20073497315123334
-0.37116671890371744, 0.5208781957626343, -0.033249424689369644
0.03906332869148027, 0.5208781957626343, 0.19255105661266841
-0.18951915970656372, 0.5208781957626343, 0.21534132350958907
-0.09961607617825341, 0.5208781957626343, 0.23796057806072968
-0.3424357346248127, 0.5208781957626343, 0.19628961107764376
0.11337603034839581, 0.5208781957626343, 0.20311021845868682
0.32949949747093676, 0.5208781957626343, 0.2516874784590211
-0.32240128870714935, 0.5208781957626343, -0.1433872195397098
-0.1855188501346557, 0.5208781957626343, 0.22760773598993836
-0.2860347137752563, 0.5208781957626343, 0.17105860954424024
-0.16371953305536727, 0.5208781957626343, 0.19469146540666427
-0.0782556244772891, 0.5208781957626343, 0.14669836970782646
0.10241346981569328, 0.5208781957626343, 0.19530970193534763
-0.05802368331391869, 0.5208781957626343, 0.24689839066980926
0.2709908733274922, 0.5208781957626343, -0.1268090751032828
0.3286315187332599, 0.5208781957626343, 0.09652538400004193
0.010296468749689055, 0.5208781957626342, 0.03079903965969287
0.27373672570428165, 0.5208781957626343, 0.14325932343828415
0.18068819370535155, 0.5208781957626343, -0.18602616644469325
0.3436016541521283, 0.5208781957626343, -0.015245726893829192
0.0785369640514383, 0.5208781957626343, -0.020385672157037835
0.1655213200676564, 0.5208781957626343, -0.08992779860849513
-0.07725266591924278, 0.5208781957626343, -0.06602915804577944
-0.1220877992045649, 0.5208781957626343, -0.1262544615192247
0.01950190374396863, 0.5208781957626343, -0.01259603242178866
0.08555672847122364, 0.5208781957626343, 0.06989048654146747
0.2857424385017686, 0.5208781957626343, 0.1019390517101843
0.2740686285954916, 0.5208781957626343, 0.1282032888014318
0.3584029358106646, 0.5208781957626343, -0.07046557968906259
0.3441007129896728, 0.5208781957626343, -0.14179480103733152
0.2895112828038573, 0.5208781957626343, 0.1253216096553043
0.37297397932939447, 0.5208781957626343, 0.17550990095361502
0.3210229414067043, 0.5208781957626343, -0.017080495710022778
-0.2566296940817549, 0.5208781957626343, -0.1754549495213046
0.2065816512878992, 0.5208781957626343, 0.11044291091486427
0.21534067439645507, 0.5208781957626343, -0.1129796014381628
-0.03846644045131847, 0.5208781957626343, -0.18285378800324514
0.055138139430157884, 0.5208781957626343, -0.16655202831006838
-0.07935988294842186, 0.5208781957626342, -0.09977186361959034
0.014840323040788188, 0.5208781957626343, -0.010473281202846883
0.22989198450015313, 0.5208781957626343, -0.0115113800890395
-0.03468750669564914, 0.5208781957626343, -0.04498758365668499
0.22274779314040608, 0.5208781957626343, -0.11396828973461834
0.04529997329701535, 0.5208781957626343, -0.18836881327154925
0.07721195932662173, 0.5208781957626343, 0.035271365752753275
0.056010843047031675, 0.5208781957626343, -0.07141143801295
0.37140579083451336, 0.5208781957626343, -0.0896757922703098
-0.015152366632052036, 0.5208781957626343, -0.08532013981811201
0.03343632542019037, 0.5208781957626343, -0.16128329127325836
0.20996929467458325, 0.5208781957626343, 0.03569734447951532
0.08101469073020005, 0.5208781957626343, -0.1390064629354829
-0.044408628894180985, 0.5208781957626343, -0.00665699772250776
-0.33620553794657737, 0.5208781957626343, -0.18112062671837117
0.025667006002846875, 0.5208781957626343, 0.016890560466750495
-0.09519407384107618, 0.5208781957626343, -0.1330208688618974
0.18714960323583632, 0.5208781957626343, 0.05477618189284338
-0.17857304095664867, 0.5208781957626343, -0.0977869557619544
-0.1922760599375288, 0.5208781957626343, -0.0893022317872852
0.24883688156472278, 0.5208781957626343, -0.033230474201915154
0.3768253780113705, 0.5208781957626343, 0.193776653908994
0.31887909551626403, 0.5208781957626343, 0.12888260984229566
0.13422565224407235, 0.5208781957626343, -0.1165102503332711
0.0324924973458382, 0.5208781957626343, -0.17315463523709404
-0.03697812062275113, 0.5208781957626343, -0.17914840750631844
0.1678082844511202, 0.5208781957626343, 0.10093329969117668
0.11048722119226287, 0.5208781957626343, 0.03960650796044561
0.02201774023869839, 0.5208781957626343, -0.11492576023496962
-0.11539851130458294, 0.5208781957626343, -0.17407352943014218
-0.09056535180578382, 0.5208781957626343, -0.14482128460547186
0.3200629443301455, 0.5208781957626343, 0.015434382577590958
0.051366315314887, 0.5208781957626343, -0.0002699693932117324
0.11215373401707736, 0.5208781957626343, -0.06471972067096358
0.06602448427393989, 0.5208781957626343, -0.053774967814728715
0.23571323070660222, 0.5208781957626343, -0.150432915248861
0.19313937207295676, 0.5208781957626343, -0.12701320362928742
0.2371532337000435, 0.5208781957626343, 0.09504763170299577
-0.08284525068569779, 0.5208781957626343, -0.052128473805707676
0.2789548041116176, 0.5208781957626343, -0.17817428520986195
0.19702276737700666, 0.5208781957626343, -0.024643405324427825
0.09201845570000564, 0.5208781957626343, -0.13968788218774383
0.27915712414675387, 0.5208781957626343, -0.014896884733776566
0.2768395692453047, 0.5208781957626343, -0.05833315965901619
0.33116620331141766, 0.5208781957626343, -0.14154163839455322
-0.1814680544670656, 0.5208781957626343, -0.10835234323673815
0.19507755478096558, 0.5208781957626343, 0.14154694188373476
0.308145443675784, 0.5208781957626343, 0.1028673134813819
-0.047277098213863014, 0.5208781957626343, -0.1286678608798396
0.10990675914724769, 0.5208781957626343, -0.0931284453963019
-0.00027020062666628306, 0.5208781957626343, 0.017999357588702407
-0.32851580118390733, 0.5208781957626343, -0.16733045966824311
0.06732023293732511, 0.5208781957626343, -0.13037319027188923
0.0970643300431818, 0.5208781957626343, -0.058024410743903604
0.17149680010440754, 0.5208781957626343, 0.00535251080176629
0.2471249338600538, 0.5208781957626343, -0.05185919559604696
0.20047004049749406, 0.5208781957626343, -0.011688711590508188
0.30776634805832026, 0.5208781957626343, -0.08772583406422013
0.3441978732531694, 0.5208781957626343, -0.038224579336695166
0.2378131492360797, 0.5208781957626343, 0.06417604808081911
-0.08749009535960806, 0.5208781957626343, -0.0918777305100834
0.2984603170499268, 0.5208781957626343, -0.10676915880512826
0.385022230359784, 0.5208781957626343, 0.13737394998191396
0.10224018130626072, 0.5208781957626343, 0.09261158857081075
0.23191711110139135, 0.5208781957626343, 0.08042638394158622
0.2932372316878744, 0.5208781957626343, -0.021323779830864198
0.02991484826733954, 0.5208781957626343, 0.032727341572450934
0.12545117829964691, 0.5208781957626343, -0.016149753993313698
0.2712299336580636, 0.5208781957626343, 0.016787979476869608
0.13654319211179755, 0.5208781957626343, 0.04167009533193248
0.33030809358296714, 0.5208781957626343, 0.02835694295186522
0.21967355636781705, 0.5208781957626343, 0.12042099273301048
0.023412165929696388, 0.5208781957626343, -0.06761933209990803
-0.1475498084651738, 0.5208781957626343, -0.17210961578939657
0.1588937175954807, 0.5208781957626343, -0.061028021981245434
0.3032456630008394, 0.5208781957626343, -0.054476570394921
-0.008954659544179622, 0.5208781957626343, -0.11472226733693217
-0.21848182194998506, 0.5208781957626343, -0.17625919434505855
0.23856199659204544, 0.5208781957626343, -0.051057240655114536
0.15935592655038094, 0.5208781957626343, -0.12993128141139837
0.2717656400219948, 0.5208781957626343, 0.05314869730199898
0.29173036499522925, 0.5208781957626343, -0.00015873638637051157
0.2746412725555557, 0.5208781957626343, 0.07747088081221662
0.3035856406885379, 0.5208781957626343, -0.061930571871268277
0.09912280282921093, 0.5208781957626343, -0.03675194679201404
0.29838039959319324, 0.5208781957626343, 0.12433140511446801
0.2590274640262582, 0.5208781957626343, -0.18089031832630773
0.3325929885796487, 0.5208781957626343, 0.07073857614803497
0.33905891203106686, 0.5208781957626343, 0.16291791723709315
0.1553354662745709, 0.5208781957626343, -0.06637851785300464
-0.10935872388662704, 0.5208781957626343, -0.17456610452537819
0.2843965763802382, 0.5208781957626343, 0.023819024198244082
-0.15422097023923975, 0.5208781957626343, -0.0886847966054139
-0.014350662523470732, 0.5208781957626343, -0.022743328926045792
0.11702005338546825, 0.5208781957626343, -0.0010636458058048762
0.34774276665381076, 0.5208781957626343, -0.03607180082552054
0.22618997882993044, 0.5208781957626343, 0.14318548511873225
0.1040667628894247, 0.5208781957626343, 0.05438557104631088
-0.25973991264680035, 0.5208781957626343, -0.16217587056857086
0.015136048584839716, 0.5208781957626343, 0.029164791990462895
0.014370527485508516, 0.5208781957626343, -0.16102105064416733
0.2085904086634943, 0.5208781957626343, -0.13763934428517124
0.001977447497903989, 0.5208781957626343, -0.17925479660610333
-0.13039449297996047, 0.5208781957626343, -0.16743924777386335
-0.09334975072257125, 0.5208781957626343, -0.03177798816513038
0.382850923512252, 0.5208781957626343, 0.03329218096341752
-0.00808312948808692, 0.5208781957626343, -0.020520522819739394
0.09738890374272684, 0.5208781957626343, -0.008794760384062413
-0.21392990723613636, 0.5208781957626343, -0.16816305878392943
0.06379414709209905, 0.5208781957626343, -0.12134294732015813
0.27400656657357714, 0.5208781957626344, 0.1817922727188643
0.02323935943899011, 0.5208781957626343, -0.05729582819160184
0.047031605507270896, 0.5208781957626343, -0.03943541765612355
0.27520613199216354, 0.5208781957626343, -0.0560403137616229
0.07522785532841066, 0.5208781957626343, -0.09320407609284856
0.07235904549273176, 0.5208781957626343, 0.028952067474897005
0.016727880320387467, 0.5208781957626343, -0.07711037098425363
-0.2569896838170721, 0.5208781957626343, -0.12777231460401964
0.20327727410383517, 0.5208781957626343, 0.028599649042118536
0.20522489945658828, 0.5208781957626343, 0.01423158050230789
0.3347061909972368, 0.5208781957626343, 0.12386469559113453
0.33853185105283995, 0.5208781957626343, -0.08147116212045726
-0.25167921724353504, 0.5208781957626343, -0.11792160611717806
0.17255829569953762, 0.5208781957626343, 0.07533590429127295
0.3706102961184507, 0.5208781957626343, -0.1510334174078663
0.32923900415284213, 0.5208781957626343, -0.054029853028494196
0.30378898216097905, 0.5208781957626343, 0.007123049576407331
0.35866948254579856, 0.5208781957626343, 0.1383094980178285
-0.30592568103615664, 0.5208781957626343, -0.16267300580841543
0.03352125449979619, 0.5208781957626343, -0.05672978404973857
-0.01850386739223471, 0.5208781957626343, -0.11613672487006645
0.1637862379776125, 0.5208781957626343, -0.15316785381110548
0.054269922296183215, 0.5208781957626343, -0.15887250241246426
0.12045803659380754, 0.5208781957626343, 0.0343221467207543
0.08276306688637364, 0.5208781957626343, -0.13047052624667935
0.17001033794546416, 0.5208781957626343, 0.10703205779140025
-0.06638768945517419, 0.5208781957626343, -0.061787035154429536
-0.09759573507833025, 0.5208781957626343, -0.03693748549763365
0.06467627005457922, 0.5208781957626343, -0.051578166955252545
0.12195048268997627, 0.5208781957626343, -0.10141774267490121
-0.23342907748115083, 0.5208781957626343, -0.16745846569911088
0.20695774642705655, 0.5208781957626343, -0.005988999865833275
0.07833989910359251, 0.5208781957626343, -0.04814775446869437
0.20457204220883068, 0.5208781957626343, 0.09266450049888006
0.24555502224400633, 0.5208781957626343, 0.13343625689149388
0.07128510117042786, 0.5208781957626343, -0.060187260208594974
-0.10510180700486794, 0.5208781957626343, -0.10891836682810682
0.30060134032135544, 0.5208781957626343, -0.16716343532741904
0.19497734777918968, 0.5208781957626343, 0.10526525271830214
-0.2041392955356382, 0.5208781957626343, -0.12770340417939288
0.30357342566165607, 0.5208781957626343, 0.10313291202668207
0.14981031394040967, 0.5208781957626343, 0.024685699071884233
-0.07558359629011457, 0.5208781957626343, -0.07742038674491811
0.20797037003304739, 0.5208781957626342, 0.14376120844746046
0.32946788856141074, 0.5208781957626343, -0.03231070472978069
-0.09850376878057271, 0.5208781957626343, -0.1729970032770098
0.16223424186361662, 0.5208781957626343, -0.14162436486158078
-0.17326919070528615, 0.5208781957626343, -0.06852294731876876
0.2975492043176409, 0.5208781957626343, -0.1874874319368155
-0.09513818356588837, 0.5208781957626343, -0.030727969693613293
0.19050541427927595, 0.5208781957626343, -0.06215983769665379
0.3805873567868553, 0.5208781957626343, 0.038927464660573105
0.18280151648222104, 0.5208781957626343, -0.014603518431874365
0.08728295738365305, 0.5208781957626343, 0.07118546479755125
0.23331187564537098, 0.5208781957626343, -0.10697605861148071
-0.06740365139757035, 0.5208781957626343, -0.12141612739012811
0.28575115133192874, 0.5208781957626343, 0.017671769815529356
-0.005174599274702957, 0.5208781957626343, -0.14620645087030915
0.12405889158957023, 0.5208781957626343, 0.04159499636465328
0.24365989837521201, 0.5208781957626343, -0.009484537229209014
-0.34603240980466865, 0.5208781957626343, -0.16540118910787305
0.23732897192669541, 0.5208781957626343, 0.15571269358527828
0.31792233464598185, 0.5208781957626343, 0.0005184303431211151
-0.011787393110223686, 0.5208781957626343, 0.01743978180318366
0.23340266168669854, 0.5208781957626343, -0.12237392965597271
0.21090502946374556, 0.5208781957626343, 0.12888934643950717
0.3398174336744913, 0.5208781957626343, 0.18113923107768337
0.18494120063981279, 0.5208781957626343, -0.15800677428661172
0.31424103110249607, 0.5639156639124788, -0.1883716881275177
0.19610851822658695, 0.671414744370069, -0.1883716881275177
0.19432455417761524, 0.5935883745497365, -0.1883716881275177
-0.17427329786782494, 0.5789863373726403, -0.1883716881275177
0.32744709213099993, 0.6046752035633989, -0.1883716881275177
0.07618435456710529, 0.5347047281036859, -0.1883716881275177
0.2841749798509568, 0.7078156168810145, -0.1883716881275177
0.04734025844118067, 0.5632581889128263, -0.1883716881275177
0.31973461516633395, 0.5512658069062224, -0.1883716881275177
-0.15364535668168372, 0.5652361073850044, -0.1883716881275177
0.16504766584992248, 0.6666577817625837, -0.18837168812751767
0.1441145134399998, 0.5235681874189223, -0.1883716881275177
0.10029661501937706, 0.5377786023479183, -0.1883716881275177
-0.2557549765960895, 0.5278358088416435, -0.18837168812751767
0.38350764409024374, 0.6447757206668935, -0.1883716881275177
-0.2249828839606795, 0.5274136725026629, -0.1883716881275177
0.35671412458395024, 0.639721630871257, -0.1883716881275177
0.12539363557781438, 0.5368967516416129, -0.1883716881275177
0.2672998656159814, 0.6448976288460219, -0.1883716881275177
0.18647699888865804, 0.6553655508066848, -0.1883716881275177
0.22335408437357113, 0.6191396437053821, -0.1883716881275177
0.3175096726979702, 0.5304047591060999, -0.1883716881275177
-0.03065083494197754, 0.5828492259053294, -0.1883716881275177
0.10841781575143998, 0.6069722854176599, -0.1883716881275177
-0.14127564994576358, 0.5741679520681354, -0.1883716881275177
-0.013852644684818338, 0.5240843761633807, -0.1883716881275177
0.2236384940924962, 0.6247239470769481, -0.1883716881275177
0.09792906140150592, 0.6345540394464143, -0.18837168812751767
0.3547406385476024, 0.5940742638995358, -0.1883716881275177
0.2637433795574299, 0.598891696520097, -0.1883716881275177
0.27427641207150383, 0.5361464038333477, -0.18837168812751767
0.05195878295164884, 0.5952910752991512, -0.1883716881275177
0.3863894167890344, 0.6576187999364713, -0.1883716881275177
0.30833157428126146, 0.6823630141761821, -0.1883716881275177
-0.0031411677057535115, 0.6202264088297241, -0.1883716881275177
0.3481396819159508, 0.610219502376294, -0.1883716881275177
-0.26665257667913567, 0.5367321493942128, -0.1883716881275177
-0.13202905213263652, 0.5723105171289182, -0.18837168812751767
-0.13985206363249114, 0.5394215417478119, -0.1883716881275177
0.28073802468044734, 0.5296556926083007, -0.1883716881275177
0.3499915422970432, 0.5592705830530241, -0.1883716881275177
0.31450466001752886, 0.5540403915990925, -0.1883716881275177
-0.2180660957780987, 0.5630001932404578, -0.18837168812751773
0.37503563981330207, 0.6915311989467017, -0.1883716881275177
-0.22457545122802694, 0.5564414851516456, -0.1883716881275177
-0.14702071491172866, 0.5811201013867058, -0.1883716881275177
-0.06482735488931343, 0.5875199302622011, -0.1883716881275177
0.34076230305339034, 0.7057516207880521, -0.18837168812751767
-0.21486551051123975, 0.5264751579940449, -0.1883716881275177
0.013542988169682496, 0.5288327737361223, -0.1883716881275177
0.33702341245114564, 0.5370626397252549, -0.1883716881275177
0.3520368360535472, 0.5582338351252334, -0.1883716881275177
-0.012466097537998488, 0.5895886064810596, -0.1883716881275177
0.25210543607822156, 0.6543585837418214, -0.18837168812751767
-0.26306685755056497, 0.5441225287997665, -0.1883716881275177
0.2511392976401483, 0.6200820206292867, -0.1883716881275177
0.18791779459045888, 0.5963785782059983, -0.1883716881275177
0.04582415638383208, 0.5909633306529474, -0.1883716881275177
0.32177771352532575, 0.6691810569924037, -0.1883716881275177
0.09800291016034166, 0.6426152950939262, -0.18837168812751773
-0.10423878316016218, 0.5713390872698596, -0.1883716881275177
0.2601945348329311, 0.621843680074396, -0.1883716881275177
0.12345605157555223, 0.6201734691730909, -0.1883716881275177
0.02040226762982552, 0.6212509840916225, -0.18837168812751767
0.24033734346580646, 0.5217074870886086, -0.1883716881275177
-0.02327096635094042, 0.5912238620698581, -0.18837168812751767
-0.02713891297657521, 0.5557375316138706, -0.1883716881275177
0.29944782763198624, 0.6708843516150955, -0.1883716881275177
0.16927823840634945, 0.5957063838801137, -0.1883716881275177
0.34499962951342933, 0.5516373747124742, -0.1883716881275177
0.1367041170123174, 0.5392048200662525, -0.1883716881275177
0.022483457101220558, 0.5638696383018404, -0.1883716881275177
-0.14578828842075275, 0.535941646740748, -0.1883716881275177
0.11274406948816379, 0.6558088360547824, -0.1883716881275177
-0.14678785295519237, 0.5315898479147396, -0.1883716881275177
0.037109526011608135, 0.5487568620627257, -0.1883716881275177
-0.11138651643811298, 0.5538371816322122, -0.1883716881275177
0.3781104204633882, 0.5340723282591314, -0.1883716881275177
0.2761856722158879, 0.6404739305283119, -0.1883716881275177
-0.06398216641479049, 0.5413728770915046, -0.1883716881275177
0.24003513803675924, 0.6765427835212283, -0.18837168812751773
0.3303872596787883, 0.6137082643092995, -0.1883716881275177
0.2621184292228983, 0.6683904757361907, -0.1883716881275177
0.33601775866954053, 0.5767511384345991, -0.1883716881275177
0.16267741455450896, 0.5386358020054527, -0.1883716881275177
-0.05948159597332278, 0.5342260869822419, -0.1883716881275177
0.08490000300513564, 0.5236140382348731, -0.1883716881275177
0.05088290295788683, 0.5403602586622764, -0.1883716881275177
0.10965653871434197, 0.6363586490884251, -0.1883716881275177
0.05833787152098384, 0.5463643368111594, -0.1883716881275177
0.1291710003959966, 0.6074841512139956, -0.1883716881275177
0.2335887086156457, 0.6723640172467066, -0.1883716881275177
0.14136511565224893, 0.5994874778391046, -0.1883716881275177
0.3793724636416287, 0.6438581697398822, -0.1883716881275177
0.17488007803464511, 0.5952779630558631, -0.1883716881275177
0.10813849636482711, 0.5267071103620233, -0.1883716881275177
0.3024493678474196, 0.7142736594339748, -0.1883716881275177
-0.14066649797201491, 0.6934273498643417, -0.1883716881275177
-0.3233511004896111, 0.5742964160997296, -0.1883716881275177
-0.16875341611974295, 0.6463729159503645, -0.1883716881275177
-0.3588578557924642, 0.6214182737509502, -0.1883716881275177
-0.015046727164189477, 0.7096616258415153, -0.1883716881275177
-0.12375683320272464, 0.6637757100709762, -0.1883716881275177
-0.3314726402871899, 0.7331392681709201, -0.1883716881275177
-0.27906479585702015, 0.703401931959386, -0.1883716881275177
-0.20850119844836756, 0.7170400667381717, -0.1883716881275177
-0.1989371538713077, 0.6061827979134953, -0.1883716881275177
-0.37216313573203724, 0.738622516962397, -0.1883716881275177
-0.37381598177697084, 0.5839022311522255, -0.1883716881275177
-0.2951675211617974, 0.5543403578157315, -0.18837168812751773
-0.2717873661043113, 0.6476873332631636, -0.1883716881275177
-0.2996921363156055, 0.7214449857293981, -0.1883716881275177
0.06979376719769886, 0.657767892654492, -0.1883716881275177
-0.1604951954304848, 0.6711602986691649, -0.1883716881275177
-0.18596349433357856, 0.604791012149194, -0.1883716881275177
-0.03464797817035328, 0.719610533963316, -0.1883716881275177
-0.1501159438475746, 0.7128487887305599, -0.1883716881275177
-0.1807329292349017, 0.6653729564323334, -0.1883716881275177
-0.07560101431733286, 0.7122452207265919, -0.1883716881275177
0.2590356775489898, 0.7331817190578069, -0.1883716881275177
-0.1393700888924266, 0.7085377322449529, -0.1883716881275177
0.06795729827670229, 0.6904757906550618, -0.1883716881275177
-0.19755061155913645, 0.7068873391542025, -0.1883716881275177
0.19090117238640072, 0.684079836725507, -0.18837168812751767
0.15498907290231828, 0.6886139809775684, -0.1883716881275177
0.0952749007081386, 0.6841107234782353, -0.1883716881275177
0.2605325618203975, 0.7385637761362172, -0.1883716881275177
-0.1101638152975609, 0.6022296635085322, -0.18837168812751767
-0.15139436952965782, 0.6753011911438496, -0.1883716881275177
-0.3320325901007101, 0.5825208456822841, -0.18837168812751767
0.15155634299558438, 0.7242238947858004, -0.1883716881275177
-0.20270048487694958, 0.5823582091123524, -0.1883716881275177
-0.34378180283351856, 0.6488115218935118, -0.1883716881275177
-0.3507057964597866, 0.5831914065107169, -0.1883716881275177
-0.1688664765848335, 0.7207251422505749, -0.1883716881275177
-0.1027145446222816, 0.6522300250239697, -0.1883716881275177
0.12044314333304655, 0.7087013702472968, -0.1883716881275177
-0.0830477615775812, 0.6360198715446428, -0.1883716881275177
-0.2881214048627396, 0.5775679762508683, -0.1883716881275177
-0.115100711052398, 0.6986349573638038, -0.1883716881275177
-0.046051921169075166, 0.6285369738600949, -0.1883716881275177
-0.2514282088440397, 0.579511333496901, -0.1883716881275177
-0.21267517152798254, 0.73695989295408, -0.1883716881275177
-0.18489445190730922, 0.7150749506369246, -0.1883716881275177
-0.25240226374777663, 0.7195935907625924, -0.1883716881275177
-0.1161089674036443, 0.6983108732359571, -0.1883716881275177
-0.19040590492870074, 0.7354297058193459, -0.1883716881275177
-0.01960014836974809, 0.689873391873373, -0.1883716881275177
0.024326863807326002, 0.6855308926733235, -0.1883716881275177
-0.3493910484320284, 0.6041580974520722, -0.1883716881275177
0.22588476308315175, 0.7349597193710211, -0.18837168812751767
0.1470552121233712, 0.7334352772712063, -0.1883716881275177
-0.06475027971899813, 0.673300928875681, -0.1883716881275177
-0.11982401649094004, 0.7276179410736063, -0.1883716881275177
-0.34104396158117645, 0.6381565500681257, -0.1883716881275177
0.05462122427278082, 0.6927913619113925, -0.1883716881275177
0.07128979251342828, 0.7060566651707704, -0.18837168812751767
0.2455368510962703, 0.7123445927912351, -0.18837168812751773
-0.08670250980044088, 0.7020229617021999, -0.1883716881275177
-0.012902820935332876, 0.7093389286639966, -0.1883716881275177
-0.28909517346154556, 0.5800127811339751, -0.1883716881275177
-0.27913311554165415, 0.6344081329594069, -0.1883716881275177
-0.171664732676565, 0.7235254434792994, -0.1883716881275177
0.020547933349698136, 0.6444603153610206, -0.1883716881275177
-0.3664735713981069, 0.5654238474851042, -0.1883716881275177
-0.13130289838206832, 0.5980274419548336, -0.1883716881275177
0.2540713443749079, 0.7370780053022288, -0.1883716881275177
-0.04706091713046283, 0.6590527967810816, -0.18837168812751773
-0.04856157080378627, 0.6956819754158656, -0.1883716881275177
-0.32848080275724706, 0.6790104678698368, -0.1883716881275177
-0.13913833620212762, 0.6988032023251634, -0.1883716881275177
0.14714305562549884, 0.6859982820402432, -0.1883716881275177
-0.3207058635061897, 0.675503302388585, -0.1883716881275177
-0.13541567537854984, 0.6010843662795391, -0.1883716881275177
-0.1384653683335999, 0.6505271656467497, -0.1883716881275177
-0.37383884953047647, 0.5309732218720347, -0.1883716881275177
-0.1562539829283699, 0.6093687615669774, -0.1883716881275177
0.04034963932162716, 0.7152013769294616, -0.1883716881275177
-0.17754274808481413, 0.7088417324894598, -0.1883716881275177
-0.011052751720254758, 0.7008494123090272, -0.1883716881275177
-0.25327686587850945, 0.5964655567071955, -0.1883716881275177
-0.16189755889211385, 0.6096865133542481, -0.18837168812751767
-0.17774592763266214, 0.6098484250850671, -0.18837168812751767
-0.16850195439933957, 0.6069492868182634, -0.1883716881275177
0.09288441781650651, 0.7175227635556054, -0.1883716881275177
-0.039221460973325864, 0.6791068959567057, -0.18837168812751773
-0.01502857515703955, 0.6735984046095714, -0.1883716881275177
-0.1002164702477134, 0.6962814534468906, -0.1883716881275177
-0.22543143202027566, 0.7173322559399888, -0.1883716881275177
-0.3152826337118383, 0.6257579196996942, -0.1883716881275177
-0.226516345508472, 0.5756546053985296, -0.1883716881275177
0.0675622672461951, 0.6608518469595208, -0.1883716881275177
-0.29913676675462936, 0.6820962473546507, -0.1883716881275177
-0.22791516553602864, 0.5870705115412841, -0.18837168812751773
0.3616770301562606, 0.7387102842330933, -0.11086367167229103
-0.14832671558053195, 0.7387102842330933, 0.14403599887144333
0.33228723767553536, 0.7387102842330933, 0.21169004159807925
0.3195398607657167, 0.7387102842330933, 0.1083895853212234
0.06346765862805452, 0.7387102842330933, 0.1257574231798033
0.1442791084188672, 0.7387102842330933, 0.08908149213830709
0.256399034695395, 0.7387102842330933, 0.003773250816454757
0.2620924075642392, 0.7387102842330933, 0.118382370462953
0.19146833730881785, 0.7387102842330933, 0.03657109498480492
0.2930990435966323, 0.7387102842330933, -0.02300729145528574
0.0034299942402770123, 0.7387102842330933, 0.21636279463542935
0.2081602402266014, 0.7387102842330933, 0.1198217478202384
0.08768049824756399, 0.7387102842330933, 0.14894661711244464
0.2855199326537839, 0.7387102842330932, 0.24085408684598938
0.26658034876342884, 0.7387102842330933, 0.23887247532195485
0.06334058386273363, 0.7387102842330933, 0.09518574819038338
0.21488468523249826, 0.7387102842330933, 0.19169985696898942
0.08188428156770652, 0.7387102842330933, 0.24155443805027538
0.0398413798059932, 0.7387102842330933, 0.15711217422129187
0.28235000647661485, 0.7387102842330933, -0.07812423992768153
0.11869350921614176, 0.7387102842330934, 0.04110593854871453
0.11419072574548776, 0.7387102842330934, 0.11447107581190649
0.25510076709127627, 0.7387102842330932, -0.07423743979064651
0.045347939715306235, 0.7387102842330933, 0.20536352064319963
0.10294845702129858, 0.7387102842330932, 0.10961165733374795
0.2314907355728419, 0.7387102842330933, 0.081405466045125
-0.16390329620095956, 0.7387102842330933, 0.23754217777841363
0.08721436500978927, 0.7387102842330933, 0.06478253537960832
0.2590614487456294, 0.7387102842330933, 0.24915802923092187
0.2060618516231338, 0.7387102842330933, 0.23083191416476706
-0.05657748659443938, 0.7387102842330932, 0.14625836905392103
-0.24209735496230286, 0.7387102842330932, 0.1847945909301209
0.2074613098665238, 0.7387102842330933, 0.0839398106958939
0.22852061598165957, 0.7387102842330933, 0.08497234121088268
-0.15848283961377535, 0.7387102842330934, 0.2577381740810285
-0.19233308247179315, 0.7387102842330933, 0.24548386479152232
0.31525011527973973, 0.7387102842330933, 0.12987345670870057
0.0731724402003604, 0.7387102842330933, 0.20684486583761202
-0.04778397262762066, 0.7387102842330933, 0.1884663434199547
0.2425726249820595, 0.7387102842330933, 0.20620347598236186
0.3882203077525296, 0.7387102842330933, -0.048414958446712286
0.34657958354304924, 0.7387102842330933, -0.033721598832582314
0.15237159486817548, 0.7387102842330933, 0.15500821098629425
0.27247852886523755, 0.7387102842330933, -0.1159557575294906
0.16873625229446118, 0.7387102842330933, 0.06675460558530269
0.19792170907063786, 0.7387102842330933, 0.03941027543061555
0.14668999039328734, 0.7387102842330934, 0.0341489877808794
0.09445120530327503, 0.7387102842330933, 0.2544407698857802
-0.00963444575119652, 0.7387102842330933, 0.09820007893291265
-0.009883975413765553, 0.7387102842330933, 0.11811219813654772
0.3497980967442669, 0.7387102842330933, 0.08437133863776791
0.12593567744232573, 0.7387102842330933, 0.0714336626922275
-0.20133724964764455, 0.7387102842330933, 0.16631140756697713
0.14918244456711288, 0.7387102842330933, 0.17596136000161933
0.24297361300444445, 0.7387102842330933, 0.2321155511660327
0.3185038366085615, 0.7387102842330932, -0.013727202353775239
0.015129650108803835, 0.7387102842330933, 0.12472791261914962
0.310465146922142, 0.7387102842330933, -0.04935395505348491
-0.348771893310664, 0.7387102842330933, 0.2579739682597392
-0.1589496828221113, 0.7387102842330933, 0.1574633700499517
0.2929837494479619, 0.7387102842330933, 0.1822201057151777
0.022545903161794306, 0.7387102842330933, 0.21653470702539407
-0.0317528916216685, 0.7387102842330933, 0.10745670872808165
-0.08645548003169884, 0.7387102842330933, 0.24958998233176183
0.15287012415436463, 0.7387102842330933, 0.14285386435788344
0.21038458348298972, 0.7387102842330933, 0.00799638814588561
0.2884000430992483, 0.7387102842330933, 0.008562342258808628
-0.05022807233643767, 0.7387102842330934, 0.08041089865877832
0.09376906032204663, 0.7387102842330933, 0.0028919807529912845
0.06977731118109406, 0.7387102842330933, 0.04730084297672078
0.157163402001624, 0.7387102842330933, 0.14647480995707027
0.15822883675510085, 0.7387102842330933, 0.23975057897447483
0.2502538391465153, 0.7387102842330933, 0.05203595370022572
-0.026775305893947082, 0.7387102842330933, 0.2581978339813518
-0.21088186317659657, 0.7387102842330933, 0.186155808217831
0.34294501678220374, 0.7387102842330933, -0.1010264334038471
0.29600649228089865, 0.7387102842330933, -0.09688362362839636
-0.009709012416859043, 0.7387102842330933, 0.10639004192542385
-0.045914029798475156, 0.7387102842330932, 0.1770234520070046
0.00849124900456305, 0.7387102842330933, 0.12646321178789452
0.15875638017372667, 0.7387102842330933, 0.12431120787523173
-0.14781627104188927, 0.7387102842330933, 0.25828161505123104
0.053239848024079994, 0.7387102842330933, 0.24773110496251594
-0.11322982160916449, 0.7387102842330933, 0.21362912730823463
0.288730636836653, 0.7387102842330933, 0.047102677553045244
0.341631014280316, 0.7387102842330933, -0.14541378538879762
-0.02556274896619304, 0.7387102842330934, 0.13899683073865027
0.31666573837456835, 0.7387102842330933, 0.24573182360324486
0.2921687430308402, 0.7387102842330933, -0.040892175675015324
-0.1958568384627606, 0.7387102842330933, 0.16201816500375896
-0.1271976771689962, 0.7387102842330933, 0.11666676125960725
0.030247141633911956, 0.7387102842330933, 0.11979851795209435
0.18706273067375687, 0.7387102842330933, -0.012587234286011821
0.2961475153520615, 0.7387102842330933, 0.2585299403489621
0.2011503462209276, 0.7387102842330933, 0.16884458302601468
0.34254716091925574, 0.7387102842330933, 0.0503368808922237
0.24612665753051316, 0.7387102842330933, 0.13312103109978393
0.012019471984220898, 0.7387102842330933, 0.041044664819759796
0.11320208822828545, 0.7387102842330933, 0.09781650808473809
0.03266709730495626, 0.7387102842330933, 0.2472477732776874
-0.06853254909638365, 0.7387102842330933, 0.24563416494730494
0.2966505146477328, 0.7387102842330933, 0.13258110226255668
-0.12297391635315147, 0.7387102842330933, 0.1389951204788119
0.21050603016300717, 0.7387102842330933, 0.21914062446869848
0.24243675345396987, 0.7387102842330933, 0.003021474431650073
0.33563548683017136, 0.7387102842330933, -0.1366338220373985
0.27532690581451535, 0.7387102842330933, 0.04092361267554868
0.2971737328088679, 0.7387102842330932, -0.07757157664074815
0.011879111440149193, 0.7387102842330933, 0.20905091023384204
-0.024586234204360652, 0.7387102842330933, 0.24996327006345204
0.03934252699096531, 0.7387102842330933, 0.14271848634702994
-0.03996562326472919, 0.7387102842330933, 0.25504638974401395
0.2575380481192582, 0.7387102842330933, -0.060237904221045004
0.11096526745235902, 0.7387102842330933, 0.1315658402147679
0.2178226560002096, 0.7387102842330933, 0.07842947938920111
0.08276882765278318, 0.7387102842330933, 0.24593602414053373
0.31614818860787325, 0.7387102842330933, 0.07509173373849701
0.2130291496995369, 0.7387102842330933, 0.06729637492943395
0.06584698080542703, 0.7387102842330933, 0.22340374144717784
0.2664633770061898, 0.7387102842330933, 0.22883727490419295
0.05031019400679558, 0.7387102842330933, 0.19412497988265465
0.24549055791807795, 0.7387102842330933, 0.02488107891620659
0.3729357457177265, 0.7387102842330933, 0.24146286598895983
0.2405436519534813, 0.7387102842330932, -0.0535716028848821
0.22639535861022148, 0.7387102842330933, 0.09476891956795343
-0.24121596887448127, 0.7387102842330933, 0.1997939998328046
0.018976864529477513, 0.7387102842330933, 0.07108783318459438
0.3465853828590073, 0.7387102842330934, -0.043198725313873906
0.12272083190749121, 0.7387102842330933, 0.12489659141062834
0.30180733402672877, 0.7387102842330932, 0.18266824620527652
0.27450339060836737, 0.7387102842330933, -0.005991569060319946
0.2704949968719734, 0.7387102842330933, 0.1913544223676826
0.34039875152489507, 0.7387102842330933, 0.14482774038692503
0.21685567754727114, 0.7387102842330933, -0.06015630057319633
-0.06019467878726703, 0.7387102842330933, 0.22921324455639266
0.035422073694466816, 0.7387102842330933, 0.242042694615279
0.18169508597397344, 0.7387102842330933, 0.22118948295966562
-0.15504489406095268, 0.7387102842330934, 0.19124224773793705
0.3101931116989266, 0.7387102842330933, 0.05932205953118516
0.27325194053001506, 0.7387102842330933, -0.1107303467081077
0.29500894094888613, 0.7387102842330933, -0.12194796337628025
-0.12924394113033555, 0.7387102842330933, 0.15304053789185015
-0.15526241734527427, 0.7387102842330933, 0.24943140052841603
0.15965120735848853, 0.7387102842330933, 0.2501340636064856
-0.174209403849835, 0.7387102842330934, 0.19741302137371525
-0.027268888413935002, 0.7387102842330933, 0.11624406881987272
-0.04676737116111196, 0.7387102842330933, 0.17812139113316783
-0.18035044504150388, 0.7387102842330933, 0.227860577835777
0.21072431028511812, 0.7387102842330933, 0.10379807164017923
0.38419908508526496, 0.7387102842330933, 0.1733607115036101
0.23564383606954012, 0.7387102842330933, 0.15159451091023124
0.1987740722212674, 0.7387102842330934, -0.06418477131761732
0.35489018450095977, 0.7387102842330933, 0.08691205491743181
-0.0386596301910232, 0.7387102842330933, 0.15978707227805355
-0.010074118154417465, 0.7387102842330933, 0.0850177655779619
0.2257852242081673, 0.7387102842330933, 0.19814113979915216
-0.040364739232632146, 0.7387102842330933, 0.21141035112631018
-0.25248125779772174, 0.7387102842330933, 0.24455239514209073
0.10275891137950685, 0.7387102842330933, 0.19460597050508732
-0.059011005645072945, 0.7387102842330933, 0.13372714617996223
0.17282435443759459, 0.7387102842330933, 0.05317027656168977
-0.1370331179819435, 0.7387102842330933, 0.19366339812022085
0.33017093679398285, 0.7387102842330933, 0.01391363965348158
0.377817287663349, 0.7387102842330933, 0.23407160370010333
0.306295481054354, 0.7387102842330933, 0.1612168545864781
0.23961501314414968, 0.7387102842330933, 0.05228689527120397
0.31322817127467173, 0.7387102842330933, 0.0047866551597233326
0.3350072695671007, 0.7387102842330933, 0.09872891888320388
0.14989066431171996, 0.7387102842330933, 0.0722544645101606
0.10929279459205876, 0.7387102842330933, 0.1260100788472908
-0.23532987310928688, 0.7387102842330934, 0.2048399722172278
0.0154447880273091, 0.7387102842330933, 0.07482932800178684
0.3530039845026793, 0.7387102842330933, 0.193308565793795
0.0375418455373239, 0.7387102842330933, 0.21736875570977338
-0.19943514643441573, 0.7387102842330933, 0.19612121587903739
0.3741938818954746, 0.7387102842330933, 0.07821566121936688
0.37955053534666267, 0.7387102842330933, -0.005421110583153713
0.31480472713499624, 0.7387102842330933, -0.07731323470006925
0.16832254943379577, 0.7387102842330933, 0.10922314421613381
-0.2697138457936782, 0.7387102842330933, 0.20566863066786956
-0.06848007283986737, 0.7387102842330933, 0.08495086322361084
-0.016358696738364722, 0.7387102842330932, 0.1652354138338145
0.254000567066025, 0.7387102842330933, 0.09915784502296873
-0.1603602118242715, 0.7387102842330933, 0.14240004665675238
0.12643378473684533, 0.7387102842330933, 0.19780753766694795
0.24137367338351468, 0.7387102842330933, 0.14296556387478754
0.3818290730210561, 0.7387102842330933, 0.1361156467239381
0.06540861500771386, 0.7387102842330933, 0.13094161938576304
-0.3058275450238234, 0.7387102842330933, 0.2617836334436413
-0.08932937554830633, 0.7387102842330933, 0.12014733058179293
-0.10240339059474496, 0.7387102842330933, 0.11017350528110588
-0.13123192887804214, 0.7387102842330933, 0.1745165126641789
-0.1336759286650102, 0.7387102842330933, 0.21329023037844308
0.12703274382394558, 0.7387102842330933, 0.1512059924645602
0.1945915479991045, 0.7387102842330933, 0.04216092992754407
0.3778388784653796, 0.7387102842330933, -0.15139496313695383
0.33812416746974305, 0.7387102842330933, 0.17241406806695989
0.22849309683759925, 0.7387102842330933, -0.030601958911248846
0.22932330894765865, 0.7387102842330933, 0.09497655921544543
0.14181932410356546, 0.7387102842330933, 0.18245229404331723
0.23592976142520358, 0.7387102842330933, -0.03605288271511853
-0.04852731092527822, 0.7387102842330933, -0.12424255401261841
-0.28747864696076797, 0.7387102842330933, -0.09553301828814768
0.15816086336921226, 0.7387102842330933, -0.14929276234918648
-0.1689436909999725, 0.7387102842330933, -0.057347095373243034
-0.3501319615763352, 0.7387102842330933, -0.1087159714844464
-0.10847065549344444, 0.7387102842330933, -0.0624746386874666
-0.17194623353436544, 0.7387102842330933, -0.05105096134551441
-0.07274189320710875, 0.7387102842330933, -0.15769547545507023
0.17539052828358337, 0.7387102842330933, -0.06509244774015555
-0.2198372540632449, 0.7387102842330933, 0.11886047332686292
0.061495691016478615, 0.7387102842330933, -0.18781104603500048
-0.17227161685364875, 0.7387102842330933, 0.12506459505448903
-0.17443007327302168, 0.7387102842330933, -0.03742629787500769
-0.31341428034743446, 0.7387102842330933, -0.14274613185650023
-0.1936445782118736, 0.7387102842330933, -0.05834363874701654
-0.16752491056328564, 0.7387102842330933, -0.053633350098127544
-0.00657858870979855, 0.7387102842330933, -0.10508259970921191
-0.17499448489804198, 0.7387102842330933, -0.0005702380223671435
-0.3834897951196913, 0.7387102842330933, 0.002116537617441294
-0.3845948924445548, 0.7387102842330933, 0.24128394684255322
-0.05581496932941227, 0.7387102842330933, -0.12808615860380393
-0.3067348389186487, 0.7387102842330933, 0.12793537093142243
-0.03374478101093746, 0.7387102842330933, 0.0007203277218640024
-0.30297974250733295, 0.7387102842330933, 0.1854598082493375
-0.017921171850677486, 0.7387102842330933, -0.1762581678356498
0.06376231528244061, 0.7387102842330933, -0.16245766263488381
-0.32806604716266663, 0.7387102842330933, 0.0017619325190129792
0.1449444098094985, 0.7387102842330934, -0.07513851151450324
0.14162322382631384, 0.7387102842330933, -0.08220862727529227
-0.31336490654869137, 0.7387102842330933, 0.18344600793936544
-0.10350158050371401, 0.7387102842330933, -0.12880916477024032
0.080674034067874, 0.7387102842330933, -0.08242740092448049
-0.2517407210835674, 0.7387102842330933, 0.17590574112291535
-0.22806690113906541, 0.7387102842330934, 0.060986917431872525
-0.27542113342732527, 0.7387102842330933, 0.19002080752759998
-0.24091552176283915, 0.7387102842330933, -0.15531821907915971
-0.3734066654841013, 0.7387102842330933, -0.1277601833614508
0.13984859930564428, 0.7387102842330933, -0.100374384227821
-0.27535059748318524, 0.7387102842330933, -0.008980296497913792
-0.34510976571325414, 0.7387102842330933, 0.04448415963021912
-0.2613322168717282, 0.7387102842330933, -0.1554455240686137
0.20581433683973666, 0.7387102842330934, -0.11986235040710916
-0.14876800404476553, 0.7387102842330933, 0.025802332653791303
-0.053887658559666846, 0.7387102842330933, -0.15117176993507803
-0.33259813768717356, 0.7387102842330933, -0.15680018120299646
0.048242160638554396, 0.7387102842330933, -0.019494988343085003
0.07342038709009194, 0.7387102842330932, -0.03613155317762916
