0.343950345943369, 0.8019087854522984, 0.7462849343792133
0.2958629119586647, 0.9392975169327433, 0.7671719216312828
0.32456892709453666, 0.8817867124842653, 0.7547033396130367
0.3245090420932608, 0.976006398072053, 0.7547293555158127
0.29691779517770606, 0.7853105983371841, 0.7667137211221403
0.33552274515255853, 0.7492916948519318, 0.7499454958954914
0.2999788111683274, 0.8234249635479116, 0.7653841577273178
0.2979894797690431, 0.8677779049303858, 0.7662482344081503
0.3007005848800443, 0.844691089055529, 0.765070653297858
0.30329027844274825, 0.8113334557530812, 0.7639458073062414
0.3064195354192316, 0.8026379896815249, 0.7625866008652973
0.299209996198965, 0.9208250873432688, 0.7657181005188174
0.3110744501983004, 0.7247468888155932, 0.7605647151206826
0.31170174907418335, 0.8615587609302753, 0.7602922518764488
0.3087858242506837, 0.8461175172866702, 0.7615587954153142
0.4335910548166072, 0.9343769302360597, 0.6984314545883343
0.44794748490460307, 0.9844310150489006, 0.6889371324809732
0.4325057104447093, 0.9301721451483536, 0.69914922412464
0.45637396636033195, 0.8543966571230488, 0.6833644331013642
0.4545748777729054, 0.9611729694640776, 0.6845542391650018
0.4537870425340226, 0.9285137762633962, 0.685075252934157
0.4501762594205657, 0.893536963417873, 0.6874631648313242
0.4441612781487805, 0.9152844743963696, 0.6914410521188663
0.43538498166088335, 0.9140404784291594, 0.6972450749741314
0.4692025322388562, 0.8123210965007012, 0.674880518859137
0.4365060602288672, 0.9790611566052629, 0.696503682394291
0.4433801409397472, 0.7918448478688549, 0.6919576182327818
0.4336650931709811, 0.8242608740766706, 0.6983824691401651
0.4331994451788483, 0.7831265423746552, 0.6986904065352642
0.43371859081788056, 0.8472150563449167, 0.6983470947055694
0.4399561173598752, 0.7462090479357333, 0.6942220144548744
0.4701980594081993, 0.7310251798933325, 0.6742221351090695
0.4192068342604819, 0.8535161788586099, 0.7079441428429493
0.41798572297752734, 0.8412948357178663, 0.7087516965307823
0.4483230400053779, 0.7823150291379197, 0.6886887331765842
0.45752883681181566, 0.7648449396188699, 0.6826006680745882
0.44306299572599284, 0.7269229909985873, 0.6921673411196849
0.5447505867430695, 0.9858507108155844, 0.6162530950519001
0.5568889210229411, 0.9420886868367534, 0.6047430683455168
0.5644578932669915, 0.9300272975286701, 0.5975658831848347
0.577676135848496, 0.7995298404288362, 0.585031846667414
0.5551688972994756, 0.8990002126171366, 0.6063740597596788
0.5425935801896976, 0.9307179823740297, 0.6182984500786045
0.5416867615603121, 0.946815684812568, 0.6191583297294212
0.5444506489951171, 0.960993012680862, 0.616537507345184
0.5631899951337939, 0.8389186893318588, 0.5987681520495403
0.5553576698627174, 0.9551833405876431, 0.6061950584902914
0.5418087774468272, 0.9822952650454195, 0.6190426296605311
0.5535947203686371, 0.7681121192115028, 0.607866753740316
0.5375759623372034, 0.8018976283207155, 0.6230563447083809
0.5497670408719633, 0.8476982654114302, 0.6114963039087642
0.549471700753375, 0.7518926906504537, 0.6117763565563547
0.5343192697103887, 0.7284440607599489, 0.6261444635758335
0.5375090852792249, 0.8491421229926697, 0.6231197600589248
0.5361021557986517, 0.820208466175706, 0.6244538636947302
0.55042807002399, 0.7627260875351878, 0.6108694911173138
0.5566463711374433, 0.8411780689015955, 0.604973063301607
0.53426633798887, 0.8791887488937776, 0.6261946554320017
0.5506572169704808, 0.7962250426484221, 0.6106522053338626
0.05332975217792363, 0.8092673742141858, 0.8193200830660178
0.05873916027107209, 0.7532921146141879, 0.8190778088818366
0.06523653659007209, 0.7942313215296188, 0.8187868073926474
0.04954639068741358, 0.7533427545762643, 0.8194895304724032
0.06705561610782176, 0.8044217121776317, 0.8187053352979089
0.03932408665359408, 0.970068632312125, 0.8204967746839779
0.06419628747297554, 0.9882054396330888, 0.8189703783127292
0.041213204340488814, 0.9774331641457992, 0.8203954514104657
0.04404053925300145, 0.846037852164784, 0.8198962410016271
0.04387754650710769, 0.87841014996467, 0.8199855375407853
0.003414858162082882, 0.8755897831490428, 0.8182662262683127
0.0005705830597116948, 0.9669611526281604, 0.8177236607451374
-0.8198053619086981, 0.7812125883582843, -0.002204976810711156
-0.019429887150811093, 0.7261600030846735, 0.7991133188670309
-0.31738112484952113, 0.7214621535667901, 0.5011617112282067
-0.21926753682596084, 0.7222253256916541, 0.5992754210708682
-0.1325353383055699, 0.7274444056115651, 0.6860077111999094
-0.3032551526105864, 0.7260289197881491, 0.5152876619296011
-0.09434586987957169, 0.7267830245764401, 0.7241972421414533
0.3415986466939943, 0.6628443155343555, 0.7409029806148211
-0.09813303319422928, 0.6628443967235432, 0.8070907075521131
-0.3923993940632227, 0.6628443576514753, 0.7108890606214393
-0.4981639803745152, 0.6628443723770047, 0.49141523189605
-0.7221165845090358, 0.6628444194793701, 0.37407863904319283
-0.805960832204488, 0.6628444194793701, 0.12021757356930338
-0.7832417730795459, 0.6628443002700806, -0.23753727631140228
-0.44748307167312196, 0.6628443002700806, -0.6882912622341517
0.11008271324268193, 0.6628442401096215, -0.812865290628739
0.477151924295549, 0.6628404135000836, -0.6657597977929405
0.8048408014698678, 0.6628404062953109, -0.15446317287884104
0.7131309199112978, 0.6628404855728149, 0.4006276624108694
0.47415763876615913, 0.9990528295305998, 0.6638734680887306
0.7970994732870679, 0.9990527629852295, 0.17763341561379703
0.7138625331375297, 0.9990527528193969, -0.40602160835671514
0.33169327398503906, 0.9990527629852295, -0.7513929644053935
-0.13319522419948368, 0.9990526581366039, -0.8086154993555013
-0.5861437109946057, 0.9990528606967521, -0.5704828234329978
-0.8174369902524001, 0.9990823550507408, -0.0446671483184093
-0.2301087848625411, 0.999052882194519, 0.5802631663410245
-0.26648135046249055, 0.999052882194519, 0.5427197449849196
0.3617836296997481, 0.999052792974778, 0.7309860447105332
0.4514129390153946, 0.6628407115506567, 0.6576629479462213
0.38366117921633985, 0.6628416674400024, 0.625848736846156
0.25575117817103976, 0.6628426101151331, 0.5170003441312249
0.24042372279268862, 0.6628417877528232, 0.45101968410898396
0.3943479404452565, 0.6628423403229576, 0.6774843387924312
0.31058885629435246, 0.6628426431227195, 0.5884078173949998
0.33828650277845046, 0.6628417064895902, 0.570519523499227
0.28004392499557523, 0.6628419361245226, 0.5096593435558269
0.15085314791953292, 0.6628425451777418, 0.38030449460981075
0.29094593790763507, 0.6628426025576829, 0.5612028597082659
0.25567829344301657, 0.6628420245489605, 0.48376608152767053
0.3805332801981921, 0.6628422261137212, 0.6535020484362921
0.278323056233796, 0.6628418673508182, 0.5035846709405345
0.3641537471721148, 0.6628416418837801, 0.599665056476815
0.2747020857357536, 0.6628421040952562, 0.5123921882368884
0.10096153709961006, 0.6628426100243593, 0.3207074441034895
0.4254022442712135, 0.6628408707118411, 0.6336871457054745
0.32124931140124907, 0.662842222809499, 0.5781374113288336
0.42366181974733136, 0.6628419242562701, 0.6911085666844764
0.38179403244732535, 0.6628423013797483, 0.6593607023037427
0.235243877932839, 0.6628427035924749, 0.496285791520978
0.13723155345760898, 0.6628424232830765, 0.3561320503327215
0.19498654546266297, 0.6628419332021745, 0.4016332209980807
0.3781937604857838, 0.662841040441776, 0.5834287310748498
0.21333041199644814, 0.6628422797223756, 0.44450729070015627
0.4333286284196342, 0.6628408159355349, 0.6406383172073338
0.07979623139524551, 0.6628426640140315, 0.2969235582516939
0.3025860016101803, 0.6628415411043374, 0.5158874800299416
0.2504335785755354, 0.6628425026202452, 0.504173140799059
0.3119018922292889, 0.6628424448363618, 0.5788502709607737
0.3807206917695761, 0.6628419161774363, 0.636197949226299
0.17877046801288876, 0.6628422582777042, 0.39946832067337706
0.004196887709012095, 0.6628435896619376, 0.2834425797331918
0.14785177969136998, 0.6628439448242174, 0.4918771683808776
-0.020117765449190757, 0.6628435051626332, 0.24065081144649303
0.2235184399185894, 0.6628442076347436, 0.6249981636936124
0.271135904247007, 0.6628441836268648, 0.6504228397218307
0.1701309363268286, 0.6628441191153074, 0.560928992560643
0.19846966580958827, 0.6628440265723807, 0.551951247198494
-0.008318559995884336, 0.6628434583981376, 0.23437637901598288
0.28811981801085995, 0.6628444710310931, 0.7506727343262274
0.22412852415564202, 0.6628442691642532, 0.6443746827952158
0.3063979241454574, 0.6628443042344937, 0.7118844898816046
0.05963759529174828, 0.662843779000587, 0.37998733201375456
0.16906849456184195, 0.6628441536362104, 0.5708318881873722
0.26440985830366037, 0.6628441744195327, 0.64295022109321
0.01193125139632549, 0.6628435631345646, 0.2806010488418141
-0.0013528982577810378, 0.6628434776403603, 0.24510570512005214
0.025125746152766887, 0.6628435710962592, 0.29214838297159107
0.2571641792465402, 0.66284434146916, 0.6894206775202797
0.2533998883650735, 0.6628444429810222, 0.718099857855445
0.06188808205771034, 0.6628437761982287, 0.38067516186773925
0.18376032035680917, 0.6628439702571385, 0.5244630206857541
0.018508930706742685, 0.6628436076015298, 0.2988341905498053
0.12018162231490205, 0.6628439497490746, 0.47432236397058763
0.1478985218296101, 0.6628439700484742, 0.49968047450307296
0.18806665221974359, 0.6628440424527972, 0.5496732586648997
0.06142087378145378, 0.6628437523515098, 0.37300643526519317
0.06761441517552853, 0.6628437738408508, 0.38389585852270597
0.10213757252685735, 0.6628439019234251, 0.4471511180102022
0.15341911192525864, 0.6628441031437697, 0.544489616063867
0.23615913627475502, 0.6628442514701004, 0.6472157411919252
0.17289240630706007, 0.66284401892293, 0.5319651103238282
0.12836687546891343, 0.6628441045211055, 0.6049802257519523
0.1456622780843806, 0.6628442646264703, 0.7523903126242707
0.0704317934349534, 0.6628438859815173, 0.48048108361057723
0.16273666610237342, 0.6628442879714956, 0.7413634743449214
0.11434117162507541, 0.6628441332133908, 0.6696673095472531
0.14970877398139432, 0.6628442459200179, 0.721608559581301
0.03521186770825728, 0.6628438251809998, 0.4885305307152893
-0.06484506077250951, 0.6628433852782137, 0.20091283847975083
0.11704430115775442, 0.6628440885322137, 0.6117020569802385
0.08524342519739904, 0.6628439773220709, 0.5535292763863531
0.0957722114257806, 0.6628440367487817, 0.599060944372123
0.10063250750525786, 0.662844050734893, 0.6044530009616813
0.07918208885370395, 0.6628440047939865, 0.5990000713053525
-0.05515018001473294, 0.6628434065044867, 0.2039148598897199
0.1329135244668067, 0.6628442077870053, 0.7148263057811941
0.019628659187787438, 0.6628437230754711, 0.40469648451074247
0.07866241566030488, 0.6628439934959364, 0.5870317927262382
0.03423190531109781, 0.6628438166505792, 0.4808071622747668
0.013471427161067542, 0.6628437233873395, 0.41881856248288674
0.18903956931382418, 0.662844373799028, 0.7823252152181435
0.060849791114158225, 0.6628439405654835, 0.5653267985333759
0.15652473972501196, 0.6628442759086193, 0.741226939245134
0.018068505316900345, 0.6628437529336546, 0.44288153498929184
0.006546771967602914, 0.662843690175622, 0.3956974505865203
-0.0402021833533533, 0.6628434638491181, 0.23715124761539425
0.17630533615741195, 0.6628442897448478, 0.7131022126028836
-0.014003791862898046, 0.6628435897372388, 0.3249014321028393
0.06697176761203948, 0.662843903480401, 0.5085489138478279
0.02024429086462099, 0.6628437246009533, 0.4050935049721954
0.13185144832416337, 0.6628441393703676, 0.6376919475221566
-0.0387977032048485, 0.6628437132258451, 0.4000097087094471
-0.007107937587834685, 0.6628440337267517, 0.585389898760749
0.02270519432441163, 0.6628442105090778, 0.7045476030034377
0.026644648798126384, 0.6628441965928035, 0.7037840689102374
-0.0045789503750503086, 0.662843844868648, 0.5052146590187625
-0.02397536464345713, 0.6628438400145484, 0.47647865288912716
0.012236290499925782, 0.6628440312789718, 0.610820510892198
0.018748214648942916, 0.6628441448164286, 0.6700298365207706
0.052729881952105886, 0.6628443526424165, 0.808649903757347
0.04719032028432005, 0.6628443546066263, 0.8019268654890029
0.06501678042753059, 0.6628442777646418, 0.792329328994146
-0.01008189618389074, 0.6628439407186635, 0.5401220480139703
0.005899466560043129, 0.6628439958160695, 0.5864289270998404
0.03923528121657535, 0.6628441075093652, 0.6815883969409343
0.02740659165017397, 0.6628442720034341, 0.7382263813335013
-0.008202590882653966, 0.6628439969898312, 0.5676193989640254
-0.09124877264202375, 0.6628434243533062, 0.2167293983990018
-0.07693032429594371, 0.6628441721275036, 0.6629559946881044
-0.07954633339998632, 0.6628440264826021, 0.5760473505961398
-0.08650226229929402, 0.6628437277524089, 0.39775842590892113
-0.06184769693119463, 0.6628443682064058, 0.7801908540522539
-0.058594779594531805, 0.6628439317250152, 0.5199574926667294
-0.06615783690029958, 0.6628443076158387, 0.7439709933279073
-0.03274073558892297, 0.6628442313393063, 0.6991519841781476
-0.0640513109716529, 0.6628437208011692, 0.3940624646173786
-0.0820854825643836, 0.6628435443727696, 0.28848722063336374
-0.08070224279502577, 0.6628438785259783, 0.48778932628409455
-0.07758796925746139, 0.6628440828095734, 0.6096775073709684
-0.04665099778565882, 0.6628441079837097, 0.6253096058165217
-0.034024752030137946, 0.6628442285795766, 0.6974804964685389
-0.08581641832690498, 0.662843581711624, 0.3106797953086928
-0.07093158950895695, 0.6628442612245254, 0.7162096677042783
-0.08628294589598653, 0.6628437296820664, 0.3989135800907434
-0.05209030265461689, 0.6628440396980942, 0.5844781482640916
-0.0914559818723931, 0.6628434059836742, 0.20577040196393254
-0.07252612012239162, 0.6628436661518231, 0.3613023149697635
-0.07478026940535747, 0.6628439384674559, 0.5236543662492461
-0.0329756099326338, 0.6628442252884894, 0.6955388386770412
-0.05812727618271955, 0.6628438872265754, 0.4934299211301009
-0.06012038848182092, 0.6628440987305886, 0.6195217980560188
-0.01879273765060517, 0.6628442697194755, 0.7223194757854757
-0.08495532270842442, 0.6628434851679792, 0.2531226107766739
-0.0628937483746402, 0.6628439801186692, 0.5487312963497886
-0.17454493140831448, 0.6628441029534526, 0.6539538499805563
-0.13157963910331708, 0.6628436055913106, 0.33827606183013237
-0.14773804076080338, 0.6628439489809419, 0.5516530809196002
-0.13052019913735916, 0.6628437327933859, 0.4149316470485752
-0.11413109567060366, 0.6628435742515231, 0.3133923960122421
-0.1470777166839945, 0.6628437169570649, 0.4109508355862561
-0.09502678926550596, 0.6628441981189552, 0.6846425534778849
-0.1388118566125607, 0.6628443433574565, 0.7874050564031184
-0.1327388069618724, 0.6628443430002241, 0.7851321065197191
-0.14572552155988183, 0.6628438098399674, 0.46672876922645645
-0.1745981489861665, 0.6628440879582057, 0.6448930151014214
-0.12449126233891433, 0.6628436546877687, 0.36560095450411734
-0.10493261692144137, 0.6628437255424513, 0.4018762331036624
-0.09639424155644323, 0.6628434710020119, 0.24487342231627246
-0.10820562755827368, 0.6628435477563519, 0.29534423632724305
-0.14927089761572013, 0.6628442034788647, 0.7062577016661215
-0.1407796043224166, 0.6628438165586996, 0.4691216631579399
-0.10533014503506857, 0.6628442899614291, 0.7437377621593233
-0.16760040665465228, 0.6628442067124719, 0.7144228516131852
-0.1248226717388554, 0.6628437067243514, 0.397218684514275
-0.1415039610683414, 0.6628437535451591, 0.43121548470502574
-0.07388059974714414, 0.6628443415973815, 0.7643501765189588
-0.12325950280838692, 0.6628436920503562, 0.38780495506955714
-0.08262685894747267, 0.6628443632532018, 0.7804236287710239
-0.13237165254116412, 0.6628443561689275, 0.7929807465222657
-0.10460918806907607, 0.6628437398408598, 0.41042365962559085
-0.0984832766371274, 0.662843737531312, 0.40695078046233585
-0.09483120604779427, 0.662843697848704, 0.3816881960941732
-0.20035590958722005, 0.6628442366484854, 0.7436403704053139
-0.10096914852933637, 0.6628439287734618, 0.5235799994067069
-0.12226881871048662, 0.6628436813110798, 0.38096737161227
-0.1021802327042306, 0.6628433386120535, 0.16667750498800632
-0.0852442271750281, 0.6628438745270624, 0.4854112602159874
-0.10631541326081034, 0.6628434232600356, 0.21932793732224484
-0.10770505879214566, 0.6628442389282063, 0.7136440231514163
-0.16618706453234675, 0.6628439384321326, 0.5515141547411602
-0.17433756682980917, 0.6628442556589815, 0.7463390345068955
-0.12316194092269778, 0.6628439582122577, 0.548919371837936
-0.11648766772104621, 0.6628438179163183, 0.46171706504710774
-0.13748354947796806, 0.6628437544968615, 0.43043016262836764
-0.11178068992645634, 0.6628435380505605, 0.2906785845769815
-0.12687268296175414, 0.6628441932298942, 0.692467222792637
-0.0780331309567839, 0.6628443009237074, 0.7411306134287047
-0.0922249255503917, 0.6628439915888494, 0.5586502448891788
-0.0927681096165768, 0.6628440542473335, 0.5967707128244912
-0.13410288451642105, 0.662843701660514, 0.3972955724076571
-0.155729894524262, 0.6628438558962917, 0.4980015477590865
-0.11402212047303195, 0.6628440100514704, 0.5772101324527752
-0.10777337234911938, 0.6628440182213744, 0.5800404276483375
-0.13027769097796277, 0.6628436036623927, 0.3366672901543234
-0.1456135107185224, 0.6628438355974235, 0.482285662250536
-0.12355875219318482, 0.6628434841403038, 0.26202736423880685
-0.12077762312357576, 0.6628441503732607, 0.6644555991672252
-0.08701158580571387, 0.662844246630759, 0.7112995939609148
-0.136129779710112, 0.662844131591114, 0.6582830399668581
-0.10193321775582875, 0.6628434169208761, 0.21400585047784249
-0.09344232769474095, 0.662843773710958, 0.427148572261996
-0.1949214000841835, 0.6628438528968128, 0.46918496456799474
-0.23817611371698802, 0.6628441585128566, 0.6525410824167923
-0.1731108387438087, 0.6628437237236844, 0.3953164615727486
-0.17266367360919618, 0.6628437449971588, 0.41163699489755207
-0.21997618118259302, 0.6628441199682481, 0.6425266955554187
-0.21354258213796853, 0.6628438971360484, 0.4830116539542728
-0.22551070581921387, 0.6628441188976135, 0.6360349835367862
-0.3368784904044982, 0.6628444111418887, 0.7393522024682395
-0.255138198584555, 0.6628440989924033, 0.5907160735387689
-0.22486666999028543, 0.6628442455429786, 0.7311184764424608
-0.2864985143291614, 0.66284423253566, 0.6580186854132886
-0.17253270865387207, 0.6628437739360618, 0.43334723633574507
-0.267183247315822, 0.6628442684000924, 0.7046276272017057
-0.17817007079257946, 0.6628436939180378, 0.36789019134866274
-0.11623049966769208, 0.6628433412613464, 0.1686842845007469
-0.16593788733786966, 0.6628437263307316, 0.40463914046231286
-0.14208945383862176, 0.6628434586393791, 0.22959422944240437
-0.23119762602863614, 0.662844237296637, 0.7184575795598674
-0.21982050251858348, 0.662844305600609, 0.7810857943777415
-0.29232595739350536, 0.6628442618411078, 0.6738726507777693
-0.25998352264734853, 0.662844316881585, 0.7481797243508638
-0.17267854558245851, 0.6628437317798801, 0.401767500724432
-0.1707769959473061, 0.6628436529280637, 0.34493538294379267
-0.19138771828344084, 0.6628437715053053, 0.4121383827145666
-0.2826849389704927, 0.6628442290155351, 0.6593173571245321
-0.20873058395520636, 0.6628439957665887, 0.5614962634295287
-0.24796720005453302, 0.6628441538006083, 0.6389555252003105
-0.21009314966976472, 0.6628438709175659, 0.4670128721464463
-0.12064672779298563, 0.6628433303532617, 0.1560086402872543
-0.16109827487327216, 0.6628435498016423, 0.2780057961674428
-0.16666811923828653, 0.6628436719086661, 0.36331334535803206
-0.12539455216491402, 0.6628434540456756, 0.24334381478214245
-0.24281386461075255, 0.6628439394853336, 0.4844732736381604
-0.17763412589768454, 0.6628438387894757, 0.4764510099612186
-0.19162992474183968, 0.6628439564193951, 0.549752657741313
-0.20387834226296966, 0.662843746997932, 0.38101741309532033
-0.25438191549212386, 0.6628443094570955, 0.7484068720064005
-0.15887670201482665, 0.6628435712596628, 0.2962892935189916
-0.2813914022407178, 0.6628443015585712, 0.7147327993271312
-0.2425722703245872, 0.662844047642234, 0.5653586167427193
-0.20942745071102892, 0.6628441024804161, 0.6403403006187197
-0.2987476214514532, 0.6628442823709624, 0.6825726486306666
-0.21910088463078758, 0.6628440809886303, 0.61436572407558
-0.19301742431900074, 0.6628438816809502, 0.49260375800218814
-0.3235402914330141, 0.662844379822385, 0.7297231414205982
-0.24493279753493516, 0.662844051284772, 0.5656459953647192
-0.19489465370374942, 0.6628436980003449, 0.3537287986540758
-0.26822260937061165, 0.662844344801486, 0.7605197752632229
-0.12100209226630895, 0.6628433433541567, 0.165335937752346
-0.259204346489352, 0.6628442555392932, 0.7032472905544783
-0.20980989906730851, 0.6628441493880769, 0.6749190608647426
-0.25596748606213415, 0.6628440707669645, 0.5688193774067829
-0.2602163120042292, 0.6628442387627542, 0.6896984420353336
-0.19733718841694642, 0.6628440026862247, 0.5783758805654754
-0.18761427762389876, 0.6628440642950575, 0.6343107797382216
-0.15966721759670988, 0.6628437348622711, 0.4174506497879661
-0.36115821044068536, 0.6628441749386207, 0.6302569229671698
-0.34720201326512934, 0.6628441349083022, 0.6067360280061443
-0.2556215387073161, 0.662843842681798, 0.43876242423310235
-0.2764996138930439, 0.6628438785532409, 0.46287254087581853
-0.2539606879647516, 0.6628439609036824, 0.49269344951051874
-0.15361887326740797, 0.6628434221913178, 0.207848287788519
-0.2771468543387881, 0.662844077927287, 0.5550731218757086
-0.3302106442966059, 0.6628440661548621, 0.5688663399320801
-0.35006655686730187, 0.6628441808579072, 0.6289691397711961
-0.2586345430043298, 0.6628438160778956, 0.4275822580214727
-0.16372727748734675, 0.6628434899112905, 0.24274775755622205
-0.288799357585008, 0.6628439424399258, 0.4967976751469488
-0.1833166821653534, 0.662843572615994, 0.28799399959148675
-0.2673392481381661, 0.6628438209657066, 0.43299035147467113
-0.33528118817469654, 0.6628440827260683, 0.5783471267202069
-0.30248351943299034, 0.6628440089127331, 0.532417257104275
-0.13409865882097574, 0.6628433626164473, 0.17329630676014815
-0.2667505852683365, 0.6628440300727856, 0.5292327961061848
-0.3156262687474829, 0.6628440793439783, 0.5696666256917038
-0.35630172182594266, 0.6628442806000608, 0.6772364487088599
-0.3426369924027922, 0.6628442549621325, 0.660459982721499
-0.2903847997888325, 0.6628439394461623, 0.49599109079297954
-0.24847274435085362, 0.6628438531764899, 0.4410135456556117
-0.27408665546308186, 0.662844054926321, 0.5433547447761298
-0.22286353796606784, 0.6628437426812234, 0.38076742734726404
-0.3499125077640885, 0.6628443525567609, 0.7081135835855548
-0.27637141615525473, 0.6628438651182289, 0.437622701287984
-0.3470518474515492, 0.6628441343495245, 0.5662068483826567
-0.27857698042498613, 0.6628438853986904, 0.43331450015954637
-0.31843728462841103, 0.6628440471385664, 0.49889069496903227
-0.3964694172098812, 0.6628443470603365, 0.6389673200629904
-0.33329001886885684, 0.6628440706771377, 0.5490520299693711
-0.18122820207051601, 0.662843528555085, 0.24642857555171072
-0.40624360038809365, 0.6628443662058987, 0.6694167093421824
-0.3485733959083865, 0.6628441689592723, 0.5487924699972342
-0.2927180913565765, 0.6628439091477396, 0.4801351410698083
-0.35308169935749173, 0.6628441213937692, 0.6023393200957459
-0.18960744542771124, 0.6628435202384204, 0.23693491613090867
-0.14070191563779397, 0.6628433668320112, 0.16468678439073148
-0.3904900271294553, 0.662844294064077, 0.6009237711727242
-0.3199180601335585, 0.6628439742913611, 0.4506329822315779
-0.26609783904353157, 0.6628438302233328, 0.3827050979810407
-0.23138232093809752, 0.6628436937870414, 0.31853569429447665
-0.29920620046256086, 0.6628439166103723, 0.42344471178156806
-0.41607899605584237, 0.6628442728419045, 0.5912477455846111
-0.2922850899221195, 0.6628439204112762, 0.42515465927715035
-0.2865259353246043, 0.6628438399150423, 0.3874403091053609
-0.25398304583217607, 0.6628437603651185, 0.3499047941953894
-0.22293779251635748, 0.6628436304509489, 0.2888227169107101
-0.3644363010703664, 0.6628441478390049, 0.5322603301169815
-0.4104401847135822, 0.6628442939715709, 0.6010770384715026
-0.2964343815072971, 0.6628438821846303, 0.38487492704750337
-0.35374685962590346, 0.6628440872227624, 0.45176617940113556
-0.37779495871917423, 0.6628441421078303, 0.521931289471947
-0.4314489290089407, 0.6628443551954315, 0.55598391258502
-0.2569671870984128, 0.6628437470636708, 0.330601162866538
-0.40595891573408555, 0.662844253986441, 0.539772343482167
-0.34087874075530455, 0.6628440249378282, 0.4587079475208899
-0.29423509382377433, 0.662843867339072, 0.3917383973279605
-0.16354754051492906, 0.6628434374174828, 0.18836483687652006
-0.3352082406364215, 0.6628440356822476, 0.4101503998388755
-0.30671707777477913, 0.6628439172806831, 0.3991613487422454
-0.21066378399595453, 0.6628435950018886, 0.2581904531218229
-0.2650914764281814, 0.6628437834234872, 0.3302241378313537
-0.4113132234240163, 0.662844252541721, 0.5738631463046571
-0.4310017016448755, 0.662844334688509, 0.5810153183481981
-0.3676459981049166, 0.6628441048040975, 0.4162526918886519
-0.23657489653393565, 0.6628436705475245, 0.2581206577998965
-0.4112824107699534, 0.6628442499225056, 0.4693617368963288
-0.42874473583327627, 0.6628442978398801, 0.48197805833653573
-0.18084638049732843, 0.6628434887567455, 0.19330627989784194
-0.4434030413441776, 0.6628443408517152, 0.4949401834849322
-0.44987265870682286, 0.6628443810938621, 0.5187398118992245
-0.417079983710093, 0.6628442809209867, 0.48638306236523277
-0.4437600228127936, 0.662844337471079, 0.49149006836214226
-0.31935652181684676, 0.662843961767904, 0.37241103248288954
-0.23850876049754233, 0.6628436753195224, 0.2590632070623863
-0.4399334572944845, 0.6628443552323013, 0.512759689161016
-0.3467651001988097, 0.6628440650901519, 0.41612048304974186
-0.36317834614049815, 0.6628440407377922, 0.3747876091359908
-0.26639879266044564, 0.6628437464330112, 0.27722011371182737
-0.4488482490377419, 0.6628442768835151, 0.4444644941739157
-0.34826117651830535, 0.6628439815979454, 0.35031526155616904
-0.27719878741850484, 0.6628437940204907, 0.29820451782869384
-0.19142934195422606, 0.6628435003309785, 0.18923180155508612
-0.365719044718819, 0.6628440713626909, 0.3930287247489249
-0.43097858731993777, 0.6628442645879647, 0.4552399132938687
-0.4773960881388505, 0.6628443919559008, 0.4925949006355721
-0.46673206857760563, 0.6628443883833273, 0.5016033740699068
-0.45863670839226256, 0.6628443388593163, 0.4763877549536775
-0.34008939160334883, 0.6628439967692307, 0.3694814395510986
-0.37365600003342214, 0.6628440841263763, 0.3932430883042887
-0.1717356505759755, 0.6628434295816796, 0.16272760646467055
-0.450772978795222, 0.6628442404300244, 0.4206553224429024
-0.42062015634338423, 0.6628441908835039, 0.41592705530520957
-0.49910113280338514, 0.6628444098012689, 0.48291601930630046
-0.3344692698724409, 0.6628439035144083, 0.31378765236060435
-0.3460011900699309, 0.662843938816794, 0.3255364647694095
-0.27747385512164685, 0.6628437470026148, 0.26664154453300104
-0.4085202430987231, 0.6628441340455136, 0.39156594918591225
-0.30953437651944765, 0.6628438134838925, 0.2800574106990677
-0.27337367647189315, 0.662843731218785, 0.2604996267886276
-0.371986397720988, 0.6628440144618584, 0.349638050594575
-0.4977708328477358, 0.6628444031957993, 0.4800209663072756
-0.5289733760428799, 0.6628443741273552, 0.44149512383866735
-0.3206459546908049, 0.6628438212594223, 0.27760935514489643
-0.501237029940056, 0.6628442779756988, 0.40827602765296095
-0.525502209527618, 0.6628443304940462, 0.4213587182349808
-0.4314823233550462, 0.6628441140216612, 0.3641036756226692
-0.4644148113423191, 0.6628441848153361, 0.381614765135693
-0.4675015388041225, 0.6628441836807144, 0.37932701564555676
-0.424660617445852, 0.6628440666890589, 0.34395716270204985
-0.23574858544779448, 0.6628435743910511, 0.19991850494713465
-0.4421010479729441, 0.6628441366452197, 0.36964723801887445
-0.5421585127194559, 0.6628443884831002, 0.44143284576430436
-0.5229384829732018, 0.6628443712063659, 0.443369156602267
-0.367910324625253, 0.6628439460867852, 0.3144851908506884
-0.579828065439796, 0.6628443598546453, 0.41236201284366447
-0.3667713908533686, 0.6628438808148237, 0.28405387539164845
-0.2687971206327199, 0.6628436371118648, 0.21466180800442242
-0.5166054269827236, 0.6628442911099676, 0.40685716354608326
-0.33553883812346275, 0.6628438135090724, 0.26653951758572747
-0.4961166828665376, 0.6628442441355125, 0.3941157828117809
-0.2573908424309496, 0.6628436044990433, 0.20470157930158295
-0.24353965454945312, 0.6628435724357962, 0.19595183607485994
-0.3970394923182588, 0.6628439281531378, 0.29309022448016553
-0.5665692753739551, 0.6628443650780362, 0.41992170954965147
-0.35868304218122027, 0.6628438880693255, 0.29047051150814107
-0.461987530802824, 0.6628441495706129, 0.3656520821286139
-0.45481131932805424, 0.6628441113313852, 0.35152303641105187
-0.569080271697755, 0.6628442822360326, 0.3835824808447815
-0.49281921579208915, 0.6628441177896851, 0.34032739552647173
-0.5733852322451616, 0.6628443161036973, 0.3962365690706532
-0.5638262738517075, 0.6628442894102855, 0.38828879723746107
-0.4536593965963209, 0.6628440007681984, 0.3045829773943549
-0.38416573672197635, 0.6628438501153282, 0.26483424690034874
-0.5868993795380604, 0.6628443107895496, 0.38958911035548077
-0.19891275056627553, 0.6628434415889415, 0.1559981689912629
-0.3602259691330617, 0.6628438237575511, 0.2617506211613574
-0.5247392047057529, 0.6628442049443068, 0.3660438704704234
-0.43538232023077045, 0.6628439821070212, 0.30283603827140476
-0.5663825321385867, 0.6628442874495766, 0.3866344860333157
-0.5515435430247153, 0.6628441869068711, 0.3506204318551676
-0.4591870349445925, 0.6628440052061502, 0.30464124247252355
-0.6721966045469457, 0.6628443867306257, 0.39673788890995193
-0.5678345805456853, 0.6628442237189768, 0.3604997208359316
-0.4141990894970642, 0.6628438844798266, 0.2702751242962268
-0.4443914558464544, 0.6628439708330688, 0.2953195481173268
-0.5911271688789731, 0.662844213112105, 0.35113081925867135
-0.5261577728508351, 0.6628441472939781, 0.34182017469056486
-0.6926526722928802, 0.662844403176234, 0.3980802205180223
-0.5241921251242387, 0.6628440918907743, 0.3216956117259767
-0.2841534894308994, 0.6628435957245327, 0.19330795320230532
-0.5857077467619228, 0.6628442519288634, 0.36681451015296074
-0.4371049703254764, 0.6628439232991541, 0.27935850904756954
-0.6130773015160323, 0.6628443110548959, 0.38240170465889073
-0.3423570965367351, 0.6628437486209489, 0.23654554312384987
-0.3498817082317013, 0.662843702544785, 0.20639768693068963
-0.2888196931530601, 0.6628435816115912, 0.17529529080435025
-0.5919101849534752, 0.6628441819714829, 0.329778343293425
-0.6415959858486019, 0.6628442436842953, 0.3135630261925977
-0.27294760204513924, 0.6628435645216905, 0.1834451723337027
-0.42931895545809623, 0.6628438710458007, 0.25950759326191236
-0.2704879622770875, 0.662843555498644, 0.17749367170257035
-0.4851982248516627, 0.6628439449359307, 0.24634642936868634
-0.7109806961856203, 0.6628444151678322, 0.38745976999637666
-0.39114571676159526, 0.6628437908743644, 0.2348923978057632
-0.3712352698813397, 0.6628437425402507, 0.21467670402329242
-0.16840003680622784, 0.6628433527837139, 0.12489459320230029
-0.6978389872009022, 0.6628443646686935, 0.3530701048951516
-0.7034025068811396, 0.6628443918538992, 0.3742003112612849
-0.5046267730964907, 0.6628439933404343, 0.2674764544150366
-0.4329995257280929, 0.66284386871264, 0.25049217187807477
-0.6282425637297813, 0.6628442250856657, 0.3156429864485917
-0.530560437826953, 0.6628440378351427, 0.27291449335840495
-0.5140417409620184, 0.6628440220604856, 0.283672830652451
-0.6300993467562062, 0.6628442349120895, 0.32354787052453626
-0.49088605066791946, 0.6628439549338112, 0.24780983129572703
-0.5746558561857124, 0.6628441119923014, 0.28046565707231097
-0.42098533450886066, 0.6628438427157638, 0.2418796722182341
-0.7163572713299724, 0.662844402690507, 0.3640262894883615
-0.17433035203031097, 0.6628433708207341, 0.13503617080361124
-0.339301758974133, 0.662843686026924, 0.20602875557395806
-0.557567348387908, 0.6628440315545493, 0.19312473904793404
-0.3367839278817273, 0.6628436443494685, 0.1509366901111985
-0.4112459139518685, 0.6628437786055947, 0.17130834526080194
-0.7556503979848035, 0.662844404955221, 0.2745516223385969
-0.5586709377850474, 0.6628440242831246, 0.1779088698089856
-0.5307412274849426, 0.6628440241763967, 0.2544666642418386
-0.49544507461149384, 0.6628439532885313, 0.23266507609452955
-0.7400613931205875, 0.6628443729603903, 0.26377275318072246
-0.7169216714976107, 0.6628443137344349, 0.2281118055738214
-0.4622932706464239, 0.6628438669595824, 0.17909932189801614
-0.46306549444311945, 0.6628438923689475, 0.2195527656802857
-0.5330624119588615, 0.6628440259966305, 0.2511391568832947
-0.6456797385911766, 0.6628442253204192, 0.2757046617970639
-0.29953684472833525, 0.6628435716260921, 0.13141974128836453
-0.5952991209716203, 0.6628441065026687, 0.2150377160945845
-0.7184490484608046, 0.6628443182212542, 0.2314333226647519
-0.17524802675800144, 0.6628433590594724, 0.1167322871317862
-0.39533356741965375, 0.6628437491990877, 0.16575476710807102
-0.7475531292806298, 0.6628443837984725, 0.26134922129077365
-0.769971452935382, 0.6628444133341928, 0.24924419237349651
-0.5820855309578389, 0.6628441245319185, 0.2815511701511421
-0.5855167375761674, 0.6628441201664493, 0.26480932040487837
-0.4976432978185411, 0.6628439665422978, 0.24883306647596692
-0.44676632297726215, 0.6628438274290797, 0.1555234195961166
-0.5792498885323345, 0.662844116405081, 0.27572500209015366
-0.1888150050932507, 0.6628433882089899, 0.12829913964468093
-0.6989865175686333, 0.6628443286975091, 0.3024601270847437
-0.639779231265765, 0.6628442120434518, 0.26966978850742823
-0.33952348491508555, 0.6628436585677724, 0.16723351839903233
-0.6834627018875296, 0.662844280305201, 0.2640270612794007
-0.35689447950978304, 0.6628437005683772, 0.18988174317765222
-0.464085800884797, 0.6628438581299572, 0.15937972320098373
-0.6977820431050541, 0.6628442703417805, 0.20799041243305302
-0.6467617375905488, 0.6628442427886987, 0.30200117131166376
-0.5429958699652097, 0.6628440041707445, 0.18727631317533655
-0.7390108020564186, 0.6628443773436494, 0.2740036918058506
-0.41813806268148146, 0.6628438184718529, 0.21917086026952481
-0.6503028515690067, 0.6628442267531569, 0.2654033503416955
-0.5373576961731031, 0.6628440155663032, 0.22186117896827592
-0.35667777694574554, 0.6628436934319224, 0.1785195153421751
-0.5556669598402355, 0.6628440351766399, 0.20441509862484317
-0.6625163743784072, 0.6628442078880216, 0.2002369891339476
-0.689611175766426, 0.6628442674189748, 0.22554243580692995
-0.7321565779300941, 0.6628444044290395, 0.3382190256845771
-0.28988449631141566, 0.6628435639281194, 0.14504100294999228
-0.5020744041316463, 0.6628439272404447, 0.17080571066644124
-0.7053611199513927, 0.6628443126202969, 0.25800750133412115
-0.7017496360381594, 0.6628442863746022, 0.2239535717064544
-0.7092740508050235, 0.662844360123326, 0.3268513200624579
-0.6318560765569348, 0.6628442068353322, 0.28271202487888486
-0.6528750712169397, 0.6628442214859418, 0.24951062309633693
-0.655377186762257, 0.6628442081887714, 0.22035576872949647
-0.3826886155960571, 0.6628437156308771, 0.1442508338584044
-0.686971637034664, 0.6628442572603578, 0.21577308970936576
-0.7300624681409368, 0.6628443604394383, 0.2702650006920912
-0.5694279984896853, 0.6628440474801958, 0.18722221649942872
-0.629915179617117, 0.6628441195107072, 0.09981242165922047
-0.7684667864204833, 0.6628443546578909, 0.10432568285952193
-0.7937550931638419, 0.6628444139624109, 0.160218442559712
-0.35411851615384526, 0.6628436631641371, 0.13025180911638057
-0.6344826627221366, 0.6628441244504726, 0.0905103622211401
-0.7357483252560942, 0.6628443228024462, 0.18282251695250462
-0.44709686858410774, 0.6628438222584673, 0.1376267861392454
-0.5086978146504867, 0.662843913231059, 0.09400927956211877
-0.5945750972867461, 0.66284407702933, 0.15746565135455898
-0.6357093422741942, 0.6628441310962024, 0.10588845048847538
-0.6630324161963368, 0.6628441769490468, 0.1050330121314063
-0.7685246077801372, 0.6628443603389117, 0.12309053698067823
-0.391026637038942, 0.662843718685975, 0.10753212844156047
-0.30346268580654745, 0.6628435755664004, 0.12313835452760649
-0.6688874222967673, 0.6628441838730281, 0.09509756007541847
-0.7387138690963841, 0.662844307321996, 0.11397728613891168
-0.28732143610389377, 0.6628435412190657, 0.09924589281642732
-0.6371863224043416, 0.6628441567296522, 0.18366094369632938
-0.6467942066075718, 0.6628441628252455, 0.14965769935295625
-0.4558447683612827, 0.6628438293963366, 0.11200366433449205
-0.2299374631174532, 0.6628434464911444, 0.1063267118909833
-0.2230500829829016, 0.662843438227434, 0.11761451729127138
-0.4221217597695957, 0.66284377594564, 0.12362026897405146
-0.7321623585068887, 0.6628443149822564, 0.17687755901584884
-0.7915935342731542, 0.6628443907760527, 0.09455259633545167
-0.7695753968422882, 0.6628443777622043, 0.17568739297028896
-0.7421954289007323, 0.6628443038642853, 0.08261159603389738
-0.2937229852155509, 0.6628435497028089, 0.09145287358476911
-0.7699039970344025, 0.6628443718645154, 0.1540028427507407
-0.6037157664195779, 0.6628440741036697, 0.09579349692945102
-0.7291265747427816, 0.6628443053286162, 0.1616504794834273
-0.6833932241764022, 0.6628442358600408, 0.18754859626504358
-0.7168520033282892, 0.662844267865562, 0.1053575644973457
-0.3967409334868829, 0.6628437398145626, 0.1461335328006775
-0.3897633727806832, 0.6628437248934821, 0.13555868805552246
-0.6003353759602298, 0.6628440678602615, 0.09398189959676789
-0.4157139424268047, 0.6628437630352473, 0.11657175205590002
-0.4182306888902936, 0.6628437628776752, 0.10176892730582475
-0.6959511531538256, 0.6628442428499141, 0.13982022213028136
-0.36241946527486485, 0.6628436798344366, 0.13920008039369178
-0.5557288548704197, 0.6628439976395026, 0.11096147526775711
-0.7347212830733788, 0.6628443220370597, 0.18607488302785394
-0.6682517752736055, 0.6628441918148754, 0.12539347749540977
-0.2656168329908857, 0.6628435065169953, 0.1057127521163437
-0.6263482913147546, 0.6628441367141906, 0.17785883583601342
-0.17526631005403373, 0.662843355398833, 0.11024084056040613
-0.5490064732078057, 0.662844001047721, 0.1605405460144201
-0.7613778261829147, 0.6628443509334679, 0.1320123509899785
-0.5351575806967124, 0.6628439542160478, 0.08169003919130013
-0.7328364363785808, 0.6628443212271333, 0.19404243741189892
-0.32951687427455123, 0.6628436179067679, 0.11767442868261918
-0.6583801329907559, 0.662844171693703, 0.11375540361862155
-0.3348176068261086, 0.6628436200422291, 0.0947891749987504
-0.5950700279859044, 0.6628440773346632, 0.15568490823794623
-0.610714005863221, 0.6628440941993863, 0.12364198530564713
-0.4397077469680106, 0.6628438104635093, 0.13989230597884353
-0.7789973723021225, 0.6628443903156379, 0.1644420079954375
-0.80533825333047, 0.6628444052277384, 0.035944923916071576
-0.673685604640921, 0.6628441840546264, 0.02102430724162819
-0.7973547888680329, 0.6628443916406668, 0.029823359058599612
-0.5429443343138945, 0.6628439660407279, 0.05472661334556893
-0.6558456243257584, 0.6628441543535473, 0.027037851645878744
-0.3959911570864977, 0.6628437202962466, 0.07184036916007451
-0.3639248617935959, 0.6628436667992756, 0.07933961330741635
-0.5543751332433547, 0.662843984869945, 0.04486951456748724
-0.39051528787263035, 0.6628437109117712, 0.06570199730190653
-0.7831484067661252, 0.6628443685353619, 0.05089356493256142
-0.5972749756732358, 0.6628440568135299, 0.045944897015343204
-0.20489193080628476, 0.6628434007402586, 0.09446281116014088
-0.44940067763058356, 0.6628438099384781, 0.07537797310962917
-0.37069674323487756, 0.6628436782605873, 0.08263190930417574
-0.2539960748066569, 0.6628434828835791, 0.08958577442210988
-0.48172970184992164, 0.6628438633787317, 0.05306476079162006
-0.34832448900624424, 0.6628436402645641, 0.06784211864169729
-0.7501292113687235, 0.6628443122135383, 0.02180824597977428
-0.534862458800283, 0.662843952561458, 0.05673343625028082
-0.59070160120369, 0.6628440468217969, 0.07653178468616588
-0.3602256338422754, 0.6628436602891437, 0.07011348880095947
-0.6422289906175703, 0.6628441321178469, 0.044564269455508
-0.6332993936140356, 0.6628441176689052, 0.060018938394074066
-0.5375998908209142, 0.6628439565617148, 0.03920599880139539
-0.6706837148039559, 0.6628441803153169, 0.059538325588780736
-0.4525371800113123, 0.6628438144733608, 0.05384872237598868
-0.7744390971052644, 0.662844353506847, 0.03807266013677549
-0.6178917398273496, 0.6628440901893439, 0.0058753714142312195
-0.5754045136370033, 0.6628440194468703, 0.022327881103999643
-0.2437757262924582, 0.6628434653473825, 0.07696723527954052
-0.6681388009798246, 0.6628441740776755, -0.004951968821342696
-0.6338994490168786, 0.6628441170140658, 0.006236759895038177
-0.4506506277934938, 0.6628438109858372, 0.04223439702872124
-0.7736249325148052, 0.6628443507864209, -0.004803328061029322
-0.7621132733417432, 0.6628443316362709, 0.00030875433636219207
-0.6314816325135586, 0.6628441130094977, 0.007983075796125918
-0.7397795383388004, 0.6628442942748888, 0.002257634090697085
-0.6670176370258617, 0.6628441727834987, 0.0173951568896336
-0.7991388943760732, 0.6628443933475955, -0.011633791169937964
-0.6013400709428572, 0.6628440624342606, 0.004781188331820153
-0.3608651975061331, 0.6628436608875491, 0.053928766786534035
-0.45804139768499336, 0.6628438235147125, 0.047907617388238025
-0.7305157215491888, 0.6628442785753796, -0.004678615126208685
-0.3878359759096895, 0.6628436621764933, 0.012004259662212129
-0.7509276423783843, 0.6628442135498024, -0.09990642633199165
-0.21160396285101493, 0.6628433953644272, 0.06164666766839294
-0.764713898754038, 0.662844234364585, -0.10345684294905205
-0.43392794215814773, 0.662843728763368, 0.017572642065067895
-0.7275425251472138, 0.6628441713087563, -0.05362972763423208
-0.7550392901590416, 0.6628442184961124, -0.09364130202591538
-0.38243799921473687, 0.6628436535287041, 0.016284497008913677
-0.5966447966519133, 0.6628439785762631, -0.048364781380421926
-0.30618073544613755, 0.6628435382356533, 0.03684179292619103
-0.4277207759048389, 0.6628437232097322, -0.0029950125323526117
-0.6640486473591484, 0.662844077418345, -0.0487381658088885
-0.7110205868436713, 0.6628441471060998, -0.05368553568499827
-0.3803233982618983, 0.6628436505265055, 0.015723280153192673
-0.7301292647058824, 0.6628441754791087, -0.055833441994612584
-0.5051018545113093, 0.6628438399250808, -0.0222483138296038
-0.3460470566829554, 0.6628436000880146, 0.01692981203997322
-0.6788420937551142, 0.6628441001994001, -0.05513491509194956
-0.5290083042434183, 0.6628438720266622, -0.005223943390562209
-0.7668541870906965, 0.6628442378917367, -0.10572474620121632
-0.6114533996663174, 0.6628439997279345, -0.045173036606518835
-0.611589790756278, 0.6628440006051537, -0.049105417723468596
-0.501727246954517, 0.662843833186112, -0.011835336719177268
-0.41618309025984834, 0.6628437067316046, -0.00549089491681138
-0.3759595412294642, 0.6628436435256398, 0.019240309905305827
-0.24710293996875232, 0.6628434471252787, 0.06316507957054707
-0.785221705477059, 0.6628442674417045, -0.12101129608326858
-0.5844485195807437, 0.6628439582471206, -0.03410644429024733
-0.23566921440139993, 0.662843431594484, 0.05605384528974744
-0.7395772615101537, 0.662844225824706, -0.19622603661846197
-0.7408998958515379, 0.6628442284256992, -0.198141195521762
-0.359604305527884, 0.6628436383101424, -0.03741747898987461
-0.47287045641211356, 0.6628438147073301, -0.0878566061504767
-0.4721586798131669, 0.662843814166066, -0.08892970070709898
-0.5103853502149536, 0.662843873965173, -0.10660465989568112
-0.7182166970290959, 0.6628441995141499, -0.2037594800117496
-0.7274149736819638, 0.662844230494544, -0.24867087766293908
-0.5481976603470453, 0.6628439373728364, -0.13451958350611484
-0.37319683581626895, 0.6628436582696624, -0.04050751669426481
-0.583624373861746, 0.6628439886255448, -0.1406899211823319
-0.542326096459821, 0.6628439172832975, -0.10508233191590616
-0.3444363338085788, 0.6628436069303145, -0.0116520141174499
-0.7436219193996643, 0.6628442329368085, -0.20001970436188754
-0.7792238026209874, 0.6628442946748693, -0.23129481338670227
-0.45576945896256377, 0.6628437846448949, -0.07183606359133607
-0.6382611331245712, 0.6628440662702322, -0.1467760861915777
-0.7816705891626686, 0.6628442974827173, -0.22992719494591213
-0.6686789856594639, 0.6628441224221581, -0.18183805337346576
-0.18128111343933212, 0.662843352986069, 0.060639236235556115
-0.682050225737838, 0.662844154627913, -0.21568459187958838
-0.5272350963984836, 0.6628439021577681, -0.11888999925276741
-0.3036333514883237, 0.6628435513295647, -0.012950658528729092
-0.6956847622617363, 0.662844155653552, -0.17223384646609236
-0.4432648205245054, 0.6628437689743645, -0.07558912537745924
-0.31542666339692826, 0.6628435619135071, 0.000869550089736229
-0.4373082532742994, 0.6628437538028491, -0.05849049102104876
-0.5180005947290072, 0.6628438793415388, -0.09410774001617728
-0.5922644749413514, 0.662844015715276, -0.1779485975718219
-0.40991666125164183, 0.6628437145321113, -0.05459538903723972
-0.7047279580636935, 0.6628441920739118, -0.23099916896443448
-0.6768946520642393, 0.6628441593427483, -0.34079060876871925
-0.44163761014011643, 0.6628437367997413, -0.13953487111802648
-0.5952749343450197, 0.6628439839613801, -0.256115967159771
-0.6380196948200927, 0.662844091100719, -0.30834984420612094
-0.5020345141453768, 0.6628439278298363, -0.23379441600653691
-0.5267180289292438, 0.6628439318115782, -0.234091233799304
-0.5088307925803062, 0.6628439280004279, -0.2333985212935787
-0.4606527813290829, 0.6628437940558227, -0.16772161287465373
-0.5798593195076711, 0.6628439493308378, -0.23934633415913048
-0.30540378176649113, 0.6628435793448328, -0.06799783684294344
-0.5056439923516222, 0.6628439137168542, -0.2262559712693575
-0.6395150996993852, 0.662844068594511, -0.29663153088582134
-0.3569331652983373, 0.6628436315482934, -0.09126265100567835
-0.5006391340443499, 0.6628438513074202, -0.19441284788913032
-0.23854015218188465, 0.6628434547096387, -0.008454475662038191
-0.39950210121512136, 0.6628437177579488, -0.1327106008469725
-0.7072971332301461, 0.6628442650514361, -0.39316515362123405
-0.3251376908331019, 0.6628435890481134, -0.07159904384966818
-0.470832053218651, 0.6628438512921163, -0.19652728033667205
-0.47566036918508325, 0.662843865558405, -0.20354403291887768
-0.5388335259981016, 0.6628438911789585, -0.2122646188151825
-0.5505279775170396, 0.6628439827745116, -0.2586896946650781
-0.4712335465389633, 0.6628438689167555, -0.20559193720227137
-0.41718458648638557, 0.6628437335456336, -0.13959705695665264
-0.60902227278695, 0.6628440803702702, -0.30487826278216906
-0.26811661857356717, 0.6628434859245821, -0.02245358385864077
-0.41598508836785175, 0.6628437559788783, -0.1512566565023331
-0.6358403445239132, 0.6628441384762139, -0.33294789861935925
-0.637608905218134, 0.66284410056106, -0.31326005514366084
-0.6973691073257348, 0.6628442770423749, -0.40005864706217137
-0.5227834177512508, 0.662843870236, -0.202602125572128
-0.5354049421748232, 0.6628439921260627, -0.2645913200478382
-0.38120815930146223, 0.6628438104707839, -0.1984081346723948
-0.6364977588559584, 0.6628443307966692, -0.5083831173606728
-0.36022304299584074, 0.6628437648931667, -0.18224594465996033
-0.6148815611683812, 0.6628442945290303, -0.4562692587696694
-0.5281113105939175, 0.6628441013063308, -0.4052675559015946
-0.6523672775294626, 0.6628443805666328, -0.4697911771157585
-0.30385291662867214, 0.662843642106319, -0.1400147673799362
-0.17420176097178505, 0.6628433804024456, 0.025870905964407998
-0.34405689413077867, 0.6628437371759355, -0.1452427968573688
-0.5090180505205718, 0.6628440673618599, -0.36557782237809966
-0.6545190502911555, 0.6628443846715381, -0.47333626767708364
-0.5319179619849385, 0.6628441129292637, -0.3970580104726444
