0.4449195861816407, 0.26550596073583627, -0.9064281559030718
0.44491958618164057, 0.02169989923850736, -0.8536076075520245
0.4449195861816406, 0.15420651742169825, -0.36800027022024817
0.4449195861816406, 0.18699925786267313, -0.36947056242711307
0.44491958618164057, 0.23204308166043722, -0.7685070517475014
0.4449195861816406, 0.28613236666778913, 0.641205022141841
0.4449195861816406, 0.07577576577522321, -0.678487826481109
0.44491958618164057, 0.29409658722551196, -0.12359334900249765
0.4449195861816406, 0.2903365175732258, 0.8130234293634033
0.4449195861816406, 0.2186441684276662, -0.902199451453559
0.44491958618164057, 0.27293139388794935, -0.314146635196136
0.4449195861816406, 0.0507809221192417, -0.7763167435185698
0.4449195861816406, 0.18882348949745023, -0.6354899743940484
0.4449195861816406, 0.22940410120949278, 0.3560205741312159
0.4449195861816406, 0.2233930562043745, -0.4083779779914519
0.4449195861816406, 0.2692586678909103, -0.8282857198832104
0.4449195861816406, 0.22557932748921206, 0.3464939729593427
0.4449195861816406, 0.2771742198183976, 0.6261603560400956
0.4449195861816406, 0.15932275456544653, -0.34776818822879607
0.4449195861816406, 0.2764953332942859, -0.28638581298623345
0.4449195861816406, 0.30016718221798155, 0.04423293797689676
0.4449195861816406, 0.06754359260357469, -0.8855315501947228
0.4449195861816406, 0.2310960213716207, 0.07112378791680274
0.4449195861816407, 0.2796591482885151, -0.7874628855403071
0.4449195861816406, 0.2618629706934951, -0.416834264887462
0.4449195861816407, 0.30242834180902944, -0.6313936898700196
0.4449195861816406, 0.11914924035363628, -0.3987072373673691
0.4449195861816406, 0.19181373855489578, -0.6822019335982313
0.4449195861816406, 0.06255274443724834, -0.7075428545722204
0.4449195861816406, 0.2105093798901679, 0.35071642242140416
0.44491958618164057, 0.26326688912588336, -0.13740788864181336
0.4449195861816406, 0.2756829069557116, -0.6905899470299952
0.4449195861816406, 0.11631002693771816, -0.8406939422799097
0.4449195861816406, 0.16858839885596744, -0.5501090578290557
0.4449195861816406, 0.19565845635565696, 0.06666668516641822
0.4449195861816406, 0.12090079474847236, -0.840772405975762
0.4449195861816407, 0.062517523205733, -0.735333672244013
0.4449195861816406, 0.2511158230132455, -0.6675695275584594
0.4449195861816406, 0.09607376662236763, -0.6341008355533932
0.4449195861816406, 0.0533129564608404, -0.9038130052223692
0.4449195861816406, 0.25793505410762446, 0.16314209364827262
0.4449195861816407, 0.29322499361654036, 0.4192908001924215
0.4449195861816406, 0.2895975342387822, 0.1749759206163519
0.4449195861816406, 0.254641858677747, -0.23367561800503883
0.4449195861816406, 0.2507438065165576, 0.2813352776171175
0.4449195861816406, 0.1851897863571492, -0.37916107468456683
0.44491958618164057, 0.2831777636066206, -0.6616111863419435
0.4449195861816406, 0.274976225741292, 0.6300040279906163
0.4449195861816406, 0.27943655923663635, 0.2831889253227175
0.44491958618164057, 0.29221040995399505, 0.6765351025611495
0.44491958618164057, 0.23895783802810458, -0.8152469862534607
0.4449195861816406, 0.1609656537738063, -0.48727749809789755
0.44491958618164057, 0.26604377247937344, -0.7992625670520902
0.4449195861816406, 0.11289853851437115, -0.6717493115334086
0.4449195861816406, 0.30155885543554023, -0.6654211421030876
0.4449195861816406, 0.02606856050369576, -0.8359631503062938
0.4449195861816406, 0.1808379958145622, -0.9135886459404798
0.4449195861816406, 0.23006033185900376, -0.14261130555529444
0.4449195861816406, 0.19914396799290895, -0.4705717547934759
0.4449195861816406, 0.1105023888737668, -0.38445250065470943
0.4449195861816406, 0.2954890086564292, 0.8584865910854167
0.4449195861816406, 0.22172513027715898, 0.17337402629320842
0.4449195861816406, 0.23241058161919081, -0.5916682203962798
0.4449195861816406, 0.29615510042884413, 0.7210060404752882
0.4449195861816406, 0.117287900581117, -0.7292792408677349
0.4449195861816406, 0.020037852135291447, -0.8274124457402161
0.4449195861816406, 0.28053642090320674, 0.4439154990483079
0.4449195861816406, 0.17333358140184757, -0.8368226581408782
0.4449195861816406, 0.2707756667302271, -0.2782186010079817
0.4449195861816406, 0.1400758156024811, -0.8432135442397908
0.4449195861816406, 0.20420442678978692, -0.0521414716671712
0.4449195861816406, 0.2552981700633944, -0.546164728723682
0.4449195861816406, 0.0851322700409562, -0.9192128859640685
0.4449195861816407, 0.12730832410058268, -0.6008821307501518
0.4449195861816406, 0.27102608338955625, -0.8269313625690549
0.4449195861816406, 0.14752720766208782, -0.8368936635152093
0.4449195861816407, 0.2946109657037106, 0.16700258355984093
0.4449195861816406, 0.27772395066417854, 0.41706870633535315
0.4449195861816406, 0.15497601250949636, -0.15986051960911318
0.4449195861816406, 0.1499407844658645, -0.449504362678328
0.4449195861816406, 0.2990753129911349, -0.8413801368846945
0.4449195861816406, 0.2373629580346268, 0.4654811387371748
0.4449195861816406, 0.12047867440021513, -0.5440593580977119
0.4449195861816406, 0.3000660071063723, 0.3346119025995224
0.4449195861816406, 0.19524313353866332, -0.4869038791034485
0.4449195861816407, 0.2968105265996126, -0.517980235856785
0.4449195861816406, 0.1454094250756718, -0.2834987733500269
0.4449195861816406, 0.19326156590576085, 0.0014978829264516436
0.4449195861816406, 0.23539726927949256, 0.47118412184085245
0.4449195861816406, 0.11616832073953366, -0.8399963169273896
0.4449195861816406, 0.1910488719931294, -0.5264106453372641
0.4449195861816406, 0.26703842315514953, -0.06407029173597881
0.4449195861816406, 0.11604467654758432, -0.8112854639180651
0.4449195861816407, 0.20626937352055025, -0.11277959111680441
0.4449195861816406, 0.27075715360434705, -0.6471369140488307
0.4449195861816406, 0.2529163227123737, 0.2946794969941743
0.4449195861816406, 0.08340392455428804, -0.5432369993010938
0.4449195861816406, 0.21420634809375347, -0.7541978457434196
0.4449195861816406, 0.2549096088711154, 0.4726408658873116
0.4449195861816406, 0.11211043404803041, -0.306002215025787
0.4449195861816406, 0.17337246164406428, -0.8161521375211203
0.4449195861816406, 0.06473858662275515, -0.657130379018579
0.4449195861816407, 0.290198469535979, -0.28946772075211524
0.4449195861816406, 0.19536458519872985, -0.5913252832532263
0.4449195861816407, 0.2794764154076506, 0.4786744926558397
0.4449195861816406, 0.23369607256290797, -0.11277778068229596
0.4449195861816406, 0.2802591832212742, -0.13163070228148954
0.4449195861816406, 0.2493750023843366, 0.1489920145755243
0.44491958618164057, 0.25502448338630235, -0.6214849434582261
0.44491958618164057, 0.27646496597575176, -0.5832512627674921
0.4449195861816406, 0.23573702485591203, 0.3377652654004832
0.44491958618164057, 0.25146203662546174, -0.1553660903884049
0.4449195861816406, 0.29500972058883673, 0.7245700934752034
0.4449195861816406, 0.04880693805936637, -0.7221475951232604
0.4449195861816406, 0.035444030993233865, -0.8093659109411595
0.4449195861816406, 0.03921833165408716, -0.8002440303832471
0.4449195861816406, 0.20769812853922176, -0.287275460815083
0.44491958618164057, 0.2728011332180942, 0.2557325231121953
0.4449195861816406, 0.14396734903187006, -0.6255967390340078
0.44491958618164057, 0.244097504224553, 0.4027667303540422
0.44491958618164057, 0.234041567746297, 0.2825741001176379
0.4449195861816406, 0.09057868881252387, -0.6509916884132626
0.4449195861816406, 0.056223129227700744, -0.693095666217076
0.44491958618164057, 0.2463111807328626, -0.6507654681121685
0.44491958618164057, 0.2588585974702078, 0.08582991266690931
0.4449195861816406, 0.11825966889936303, -0.4463792815236661
0.4449195861816406, 0.23655038435692327, -0.7765604826072041
0.4449195861816406, 0.1403076474781515, -0.22913458805275128
0.4449195861816406, 0.23692785419066442, -0.0851770044782012
0.4449195861816406, 0.10664139254459368, -0.8271411864147247
0.4449195861816406, 0.298041930758581, -0.7314613170412513
0.4449195861816406, 0.28629649083244413, -0.35580367408773417
0.4449195861816406, 0.0853324204904298, -0.5314988929025061
0.4449195861816406, 0.19479783110664264, 0.2189608471371166
0.4449195861816406, 0.2034954883211031, -0.2199137926921514
0.4449195861816406, 0.28357806158834337, 0.6826723743270804
0.4449195861816406, 0.23457626652344682, -0.2784197902919513
0.4449195861816406, 0.21889366222507423, -0.4013476738509213
0.4449195861816406, 0.1761753249710532, -0.08770681938803282
0.4449195861816406, 0.2558254634391886, -0.725296272426756
0.4449195861816406, 0.18921611579714404, -0.4817050890225149
0.4449195861816406, 0.13446372390207043, -0.13295097798899053
0.4449195861816406, 0.20152838763010725, -0.028435629477994384
0.4449195861816407, 0.3001042479212476, -0.05825555138649579
0.4449195861816406, 0.2439317418013595, 0.2516477766234442
0.4449195861816406, 0.2596798626563309, -0.6062165966344044
0.4449195861816406, 0.06057630651299302, -0.8903052252454589
0.4449195861816406, 0.10516096963551307, -0.7093984178060234
0.4449195861816406, 0.1113853147153239, -0.5058736688115811
0.4449195861816406, 0.2374488291001147, -0.13384483737158573
0.4449195861816406, 0.07857244930570927, -0.5364869421051963
0.4449195861816406, 0.23379386461774054, 0.17328290684615305
0.44491958618164057, 0.2441001355240283, 0.4953699620723546
0.4449195861816406, 0.15966511678502615, -0.39139375489613004
0.4449195861816407, 0.05091971729183091, -0.8555542642796099
0.4449195861816406, 0.27541726572340697, 0.22524874785003324
0.4449195861816406, 0.2853453962541177, 0.6848075867374188
0.4449195861816406, 0.20220052362593732, 0.022428591671502462
0.4449195861816406, 0.14140748707797454, -0.5096250743047783
0.4449195861816406, 0.16150895319846761, -0.0008165606129504899
0.4449195861816406, 0.2155439794124722, 0.2971620933758719
0.4449195861816406, 0.05492694042165505, -0.6366415798446159
0.4449195861816406, 0.11126307194412798, -0.8462022455506051
0.4449195861816406, 0.233248201502164, 0.4863482763140996
0.4449195861816406, 0.21988346608457296, -0.2559820702974176
0.4449195861816406, 0.2585146716131965, 0.39123553041704157
0.44491958618164057, 0.28223939870231385, 0.34117388457028747
0.4449195861816406, 0.1710746023549058, -0.4585467318412664
0.4449195861816406, 0.2943649926948121, 0.39454011003485234
0.4449195861816407, 0.2944375855301597, 0.2904105145717705
0.4449195861816406, 0.2534512588126265, 0.43293114191540366
0.4449195861816406, 0.16453627929296802, -0.4901525214698428
0.4449195861816406, 0.18252590380622152, -0.26926288605522664
0.4449195861816407, 0.27129243983281565, -0.5050237882461343
0.44491958618164057, 0.2213412960426472, 0.2921985447745692
0.4449195861816406, 0.013324301341810566, -0.8640085475428001
0.4449195861816407, 0.2264482019722176, -0.8435781731438827
0.4449195861816406, 0.23996257780920818, -0.7312503527213088
0.4449195861816406, 0.21031625168800017, -0.0799498338272866
0.4449195861816406, 0.06176350725115965, -0.7298427883983232
0.4449195861816406, 0.2450945959495894, 0.3863231058963644
0.4449195861816406, 0.281108380320775, -0.7190909685673401
0.4449195861816407, 0.20183614437991343, 0.29396886760026353
0.4449195861816406, 0.13593337413056683, -0.8017410085735902
0.4449195861816406, 0.06540065546253718, -0.6385237317351979
0.4449195861816406, 0.03667383604373465, -0.8078765982180977
0.4449195861816406, 0.09346759174029387, -0.752177533492367
0.4449195861816406, 0.08936771617436547, -0.42751760702326413
0.4449195861816406, 0.20556699069983328, 0.31631129096890404
0.4449195861816406, 0.2642009868436545, 0.658382397840852
0.4449195861816406, 0.22517920461814733, 0.38424960236216343
0.4449195861816406, 0.24747838878791673, -0.09523399565247612
0.4449195861816406, 0.168380071355115, -0.8968185396744359
0.4449195861816407, 0.2814436107297796, -0.5505025111236471
0.4449195861816406, 0.11385646033913045, -0.5627262535916654
0.4449195861816406, 0.09633001160073244, -0.36132260247910364
0.4449195861816406, 0.30232258161060493, -0.09180043529347694
0.4449195861816407, 0.2507661107295268, -0.02803711882673443
0.4449195861816406, 0.14812686804914915, -0.8318949794678412
0.4449195861816406, 0.2470352441355005, 0.22902819535615854
0.4449195861816406, 0.18658521167463402, 0.1420709746532104
0.4449195861816406, 0.1735430914531308, -0.17888083223697274
0.4449195861816406, 0.1201136437244246, -0.3811360200799445
0.4449195861816406, 0.2039967549640216, -0.4349443529853465
0.4449195861816406, 0.22129229961859725, -0.1877692010988805
0.4449195861816406, 0.2370651279045653, -0.31498719190983565
0.4449195861816406, 0.23010726646706525, -0.8852365403495694
0.4449195861816406, 0.2409969489568579, 0.009746275904857687
0.4449195861816406, 0.27883038937225935, -0.05126428209456994
0.4449195861816406, 0.2304116003217393, -0.8535915659488523
0.4449195861816406, 0.07894516645637245, -0.7484042116920715
0.44491958618164057, 0.29757280453700313, -0.2648617488225987
0.4449195861816406, 0.07515175008157476, -0.5120025947794691
0.4449195861816405, 0.2560101684266314, -0.3790629080485731
0.4449195861816406, 0.2579067618151019, 0.5845117068971376
0.4449195861816406, 0.24448391277276127, -0.27055945186141794
0.4449195861816406, 0.3031468953682563, -0.7984280699885753
0.4449195861816406, 0.003012918032553237, 0.19803273711186745
0.42335855175966, 0.30454742908477783, -0.34204931747750267
0.43173820471412266, 0.30454742908477783, -0.6786232172397704
0.43282722268821067, 0.30454742908477783, -0.5043797292312727
0.44233963326979703, 0.30454742908477783, -0.8636417541490753
0.42975761982069205, 0.30454742908477783, 0.01877083024722559
0.4328461179736808, 0.30454742908477783, -0.40406633513318807
0.42700964975143996, 0.30454742908477783, 0.2922488541209187
0.4242437171060406, 0.30454742908477783, 0.013420838048307071
0.42402157259156226, 0.30454742908477783, 0.34281199723998057
0.4348117823282613, 0.30454742908477783, -0.504630278481546
0.43237705654798464, 0.30454742908477783, 0.048173045177575376
0.43108816958568585, 0.30454742908477783, -0.8057774443610276
0.4271386328093878, 0.30454742908477783, 0.020027099677472127
0.4364897720337279, 0.30454742908477783, -0.771296956262448
0.42417090638324434, 0.30454742908477783, -0.6996941093578752
0.43784042784630317, 0.30454742908477783, -0.7976082323977869
0.42702322347976823, 0.30454742908477783, 0.12073725956452841
0.42662605913622487, 0.30454742908477783, -0.2477852533629038
0.43553342175214854, 0.30454742908477783, -0.7510336033132929
0.42206134064803036, 0.3036391358404491, 0.49593462910904207
0.44412571465495243, 0.3043915120778986, 0.8399129355379606
0.4224350898127727, 0.0018999773871617785, 0.061626512090436514
0.4219420340606823, 0.003538190169269345, 0.8158114554652778
0.4375786926278057, 0.06839889052449173, 0.9250187277793885
0.43268625517274917, 0.12196133291222226, 0.9250187277793884
0.42475114971494987, 0.21115677275478467, 0.9250187277793884
0.4233652002177294, 0.001642719958908856, -0.2326499373447996
0.4229947953205422, 0.001711458819214626, -0.301414579206844
0.4236936377164614, 0.001642719958908856, -0.7166351728846225
0.42565691109353365, 0.0016427199589088561, 0.19212943374376273
0.42768691146186233, 0.001642719958908856, -0.01684788047179131
0.4285934273034649, 0.001642719958908856, -0.2418873664545947
0.43223381449997184, 0.001642719958908856, 0.3012132560791656
0.4421225194791737, 0.001642719958908856, 0.9221272374438345
0.4381645204144133, 0.001642719958908856, 0.8827010608241517
0.42698063025617594, 0.001642719958908856, -0.5809681561771138
0.42685269808074333, 0.001642719958908856, 0.18694943950173973
0.4292031912968979, 0.001642719958908856, -0.07138268810533005
0.43321053789696473, 0.001642719958908856, 0.6818871438505646
0.43519551272059875, 0.001642719958908856, 0.3327969193453453
0.4306380705354471, 0.001642719958908856, 0.785031974349546
0.43237630667516325, 0.001642719958908856, 0.549079372901202
0.4315398884507365, 0.001642719958908856, 0.45080729885954796
0.43098647733362605, 0.001642719958908856, 0.9127307267465399
0.42979343299688155, 0.001642719958908856, -0.2771788459636643
0.4322738823075146, 0.001642719958908856, 0.7274960958843211
0.4354993005411636, 0.001642719958908856, 0.7478664820617622
0.4219420254230499, 0.30326146342105503, 0.20617393026187814
0.4219420254230499, 0.30308044705666315, -0.4333179253653011
0.42207066801499893, 0.3036672787069747, -0.7491631032808453
0.44488701323427915, 0.30337621565356715, -0.5491370750108854
0.44467274540747964, 0.30402567009350934, -0.5182134090887243
0.44491958618164057, 0.30256724280414377, 0.8849694913070119
0.4230411685100004, 0.3044943173883847, -0.6063846033055358
0.4226879516274169, 0.30437536578646945, 0.40068483288615053
0.44445094480700403, 0.001908201923226518, 0.18305333909735289
0.4221633944764154, 0.0022417868963873714, -0.706369095663311
0.4220370128281026, 0.0026248146776921247, 0.7698121693210868
0.4219420729562887, 0.00342540243228046, 0.33402347964582885
0.4314426893044595, 0.07765660304860852, -0.9250189065933228
0.4325972783657205, 0.15328606398852068, -0.9250189065933228
0.43344303470351336, 0.08549339883715548, -0.9250189065933228
0.44118348221266, 0.07712069343965575, -0.9250189065933228
0.44210925683331814, 0.2790542932087488, -0.9250189065933228
0.43561305510242915, 0.19158711367210077, -0.9250189065933228
0.4449195861816407, 0.003124065890952388, 0.7529246518361595
0.4448885929237076, 0.0028187407467567343, -0.4298912161157674
0.4446173483563546, 0.0019964557942656136, 0.30417790462594513
0.43479646131834193, 0.30454742908477783, 0.20288903943674885
0.435585322107268, 0.30454742908477783, 0.14758736035644648
0.4338823989609878, 0.30454742908477783, 0.5704288621906822
0.42857102140441605, 0.30454742908477783, 0.7257767432353045
0.44239419925241324, 0.30454742908477783, -0.7744220713159405
0.43777769826263385, 0.30454742908477783, 0.5151309333688258
0.4420383981727827, 0.30454742908477783, -0.021439457515741257
0.4423469949872181, 0.3045474290847778, 0.3626003827018191
0.43727683823604313, 0.30454742908477783, 0.7710523842258772
0.43751492789602797, 0.30454742908477783, 0.08024707763040309
0.43799166728131145, 0.3045474290847778, -0.14781054480350775
0.44045660853616625, 0.3045474290847778, -0.14900817421629547
0.4316122956649638, 0.30454742908477783, 0.3916858340452467
0.43811458035307116, 0.30454742908477783, 0.7884458329296978
0.4349198327565044, 0.30454742908477783, 0.4754336873399504
0.44080823756563936, 0.30454742908477783, 0.6515685786691914
0.42769005601515003, 0.30454742908477783, 0.8517408567184552
0.44183102566282206, 0.3045474290847778, -0.36542888049102845
0.44310050688743274, 0.30454742908477783, -0.5873041138112407
0.44428207351070403, 0.3043388420102205, -0.3024239748938765
0.43135876274178986, 0.001642719958908856, -0.4125571965423748
0.4407331933834662, 0.001642719958908856, 0.5864336262771584
0.4353590637466309, 0.001642719958908856, -0.7734737721918206
0.43817924962221766, 0.001642719958908856, -0.047674984858348424
0.4422071812382934, 0.001642719958908856, 0.43220002816933845
0.43528222193519384, 0.001642719958908856, -0.9206935036477181
0.4429069655216128, 0.001642719958908856, -0.825387265754965
0.42940609379368805, 0.001642719958908856, -0.4422587211067015
0.43240666793031746, 0.001642719958908856, -0.12349784521149897
0.43867655125877447, 0.001642719958908856, -0.5257601539160165
0.44028012258405175, 0.001642719958908856, 0.4697843257948955
0.43291618102101537, 0.001642719958908856, -0.7231366735953199
0.4426143176195697, 0.001642719958908856, 0.45122259240800505
0.438430802514196, 0.001642719958908856, -0.1918972111333995
0.4324515942337074, 0.001642719958908856, -0.5636076608552726
0.4384683093576643, 0.001642719958908856, -0.27407219572671804
0.4392530102749369, 0.001642719958908856, -0.8798251379009137
0.4400582465575691, 0.001642719958908856, -0.35914573741953865
0.4420554039174005, 0.001642719958908856, -0.18002415931606586
0.44405265149384154, 0.0017740262141748358, 0.40699403887508945
-0.37516567111015314, 0.0422775688629002, -0.9447861491784233
-0.37516567111015314, 0.08060786222042554, -0.9461404674125051
-0.3751656711101532, 0.2903070761202886, -0.9390631837061062
0.44521719217300415, 0.1825234609793456, -0.9469267681599611
-0.3751656711101532, 0.004374319884769098, -0.9312990926386953
-0.3751656711101532, 0.12891232723551532, -0.930928288584935
-0.3751656711101532, 0.16604381492746156, -0.9329926879758046
-0.3748583233360701, 0.059333459015016576, -0.9253573011559818
0.07774805132072031, 0.21768150036840106, -0.9250189065933228
0.08244929798118081, 0.28430263768215536, -0.9250189065933228
-0.09033810290890469, 0.22143592790187122, -0.9250189065933228
0.34713426000985337, 0.04412141527032119, -0.9250189065933228
0.4025113978740478, 0.17240637226377176, -0.9250189065933228
0.3272455257708435, 0.08573644452990098, -0.9250189065933228
0.37810093772980513, 0.07865262725440614, -0.9250189065933228
-0.055092155754633595, 0.2274944318619651, -0.9250189065933228
0.21611082594810588, 0.0987680535197288, -0.9250189065933228
0.16604621143622283, 0.17270973426804132, -0.9250189065933228
0.2550472196954693, 0.2606365023252218, -0.9250189065933228
0.38866746515911615, 0.1202635158598683, -0.9250189065933228
0.1029782401915889, 0.19428958038547536, -0.9250189065933228
0.24067848670932337, 0.28742495465240325, -0.9250189065933228
0.38810006260692065, 0.19101478354284798, -0.9250189065933228
0.10639066662511822, 0.2370621470267251, -0.9250189065933226
0.15499419287619734, 0.12748212587165028, -0.9250189065933228
0.08643030513930683, 0.27136646648986773, -0.9250189065933229
0.3753061088044015, 0.05789150789110627, -0.9250189065933228
0.3219552323913561, 0.12218887807195744, -0.9250189065933228
-0.0012376781065982084, 0.29539960705789353, -0.9250189065933228
0.221651062783903, 0.209166796207685, -0.9250189065933228
0.15363310411007752, 0.15047097817477403, -0.9250189065933228
0.08158896118143538, 0.2941451932501502, -0.9250189065933229
0.3364404392237043, 0.07890678094254919, -0.9250189065933229
0.326735282080279, 0.15514545767855312, -0.9250189065933228
0.14850055509773774, 0.1768638135073038, -0.9250189065933228
-0.1863861554159009, 0.26446421332042414, -0.9250189065933228
-0.09338615429770039, 0.27521879743142513, -0.9250189065933228
0.28146647536766534, 0.13903178178782247, -0.9250189065933226
-0.011472726461491764, 0.24259605800974476, -0.9250189065933228
-0.20013865916767026, 0.24687373997215148, -0.9250189065933228
0.05292769178338432, 0.301471633539932, -0.9250189065933229
0.21740801591446043, 0.09523217846863909, -0.9250189065933228
0.14398085771594907, 0.12406419294736513, -0.9250189065933228
0.4392763578775023, 0.23040472543118398, -0.9250189065933228
0.34910138554994957, 0.0905379230244209, -0.9250189065933228
0.35652507434249925, 0.24300437649677767, -0.9250189065933226
0.40734229991351617, 0.09589916934847852, -0.9250189065933228
0.35092712944954807, 0.12400544857014048, -0.9250189065933228
0.30104234267735513, 0.07816618814693832, -0.9250189065933228
0.03762201173130844, 0.171633499248529, -0.9250189065933228
0.31043704183960447, 0.14582559608146406, -0.9250189065933228
-0.13853060993144545, 0.23441679979340607, -0.9250189065933229
0.21215256303195024, 0.09616746994671406, -0.9250189065933228
0.421344447415103, 0.20617127587488843, -0.925018906593323
-0.07992847651092266, 0.19891204626982692, -0.9250189065933226
0.3991130231116906, 0.24097290531488189, -0.9250189065933228
0.28874874405324347, 0.19436895661996328, -0.9250189065933228
0.3508401449120149, 0.21894041917933807, -0.9250189065933226
0.3684789280417208, 0.26928531743352957, -0.9250189065933228
0.0165436479335747, 0.26089364511295193, -0.9250189065933229
0.4219791682085829, 0.06831359489004174, -0.9250189065933228
0.3689323943976364, 0.0797655347126516, -0.9250189065933228
0.3308743073826635, 0.29024339839761565, -0.9250189065933228
-0.16375132164140707, 0.268681404067482, -0.9250189065933228
0.40419898812029675, 0.17501827083780944, -0.9250189065933229
0.15897250113821093, 0.25654474773574787, -0.9250189065933226
-0.07144933055913097, 0.25507050600115166, -0.9250189065933228
0.017123816593714397, 0.18162791709523823, -0.9250189065933228
0.19879312542333333, 0.2513467713497757, -0.9250189065933228
-0.002825976198527095, 0.2971871648185179, -0.9250189065933228
0.40810597586863184, 0.19959672134931725, -0.9250189065933228
-0.030412447329700457, 0.23277696801548042, -0.9250189065933228
0.24062410556702504, 0.2804950565824958, -0.9250189065933226
0.12452575446279726, 0.28279372136757136, -0.9250189065933226
0.011803770613206324, 0.24156142151143684, -0.9250189065933228
0.34439122364307045, 0.21263957151907437, -0.9250189065933228
0.13169766641439484, 0.21546380706384596, -0.9250189065933228
0.3699221949373814, 0.2232647354109803, -0.9250189065933228
0.1736688723996013, 0.2388654197524921, -0.9250189065933228
0.4236509403516202, 0.22814850407789225, -0.9250189065933228
0.43268440557817434, 0.09273457544795007, -0.9250189065933228
0.4224802462742549, 0.0603146507505681, -0.9250189065933228
0.12832793810707574, 0.2815288636294346, -0.9250189065933226
0.2688280232764935, 0.2600828125134522, -0.9250189065933226
0.26370540585361535, 0.22609128923410024, -0.9250189065933228
0.30463555389580177, 0.12487937898599676, -0.9250189065933228
-0.11970896024265167, 0.22758428281970436, -0.9250189065933228
-0.21124273490211817, 0.26237509299980605, -0.9250189065933228
0.3872084795230003, 0.2307772970138887, -0.9250189065933228
0.11401317675806817, 0.19822569478176838, -0.9250189065933228
-0.2246055763400927, 0.2691170570604046, -0.9250189065933228
0.35314803830174113, 0.2369557430702178, -0.9250189065933226
0.2910710559460081, 0.20749841450288684, -0.9250189065933228
0.24546808426437655, 0.22972827068109042, -0.9250189065933228
-0.11927633695458267, 0.2789709446940393, -0.9250189065933228
0.3046019410102083, 0.24558731966054245, -0.9250189065933228
0.027681243308100872, 0.2404076890715589, -0.9250189065933228
0.2669780228262776, 0.2099579789260989, -0.9250189065933228
0.40431377191220946, 0.1630750679417511, -0.9250189065933228
0.30557000248813954, 0.28102657501992895, -0.9250189065933229
0.2901901447640265, 0.24604804759494578, -0.9250189065933228
-0.2572809381831276, 0.2692441882208278, -0.9250189065933229
0.23597219127653468, 0.24345396232020922, -0.9250189065933228
0.0851359366349445, 0.20593753362554468, -0.9250189065933228
0.35896611027558845, 0.1222578975931513, -0.9250189065933228
0.35558550189766985, 0.29784220073066187, -0.9250189065933228
0.22571538454836204, 0.14636155373622906, -0.9250189065933228
0.31792070372848513, 0.1937189877891555, -0.9250189065933228
0.15988815817369703, 0.16017253757777286, -0.9250189065933228
0.22790076319805702, 0.24347091507792332, -0.9250189065933228
0.2398983625296236, 0.09685939491724418, -0.9250189065933228
0.14868794883253347, 0.14126344846680552, -0.9250189065933228
0.28310646243964266, 0.12081830296544219, -0.9250189065933229
0.18259945503108213, 0.2405837646674003, -0.9250189065933228
0.27937757676697167, 0.2949874495900404, -0.9250189065933228
-0.07524231189799296, 0.19597422001619771, -0.9250189065933228
0.33891589341364414, 0.29131229609183845, -0.9250189065933226
0.3538298707150864, 0.09503087133907746, -0.9250189065933228
-0.057293007557834064, 0.23666746166794309, -0.9250189065933226
0.008130230922938408, 0.20406483985961252, -0.9250189065933228
0.35524914081838205, 0.04391915631605844, -0.9250189065933228
0.08924998361129949, 0.16778707498027734, -0.9250189065933229
-0.06574110006992735, 0.2528581650726132, -0.9250189065933228
0.27673865604131637, 0.1805251580364652, -0.9250189065933229
0.21572601857131302, 0.1544443646475715, -0.9250189065933228
0.36927212656791525, 0.2322629348471498, -0.9250189065933229
-0.1645544908109577, 0.23033033325746438, -0.9250189065933228
0.2899050759569052, 0.07868815745978638, -0.9250189065933228
-0.059637232023834766, 0.26696015016253766, -0.9250189065933226
0.1885586723396422, 0.2880045805468458, -0.9250189065933229
0.06592107748972034, 0.22541824749516098, -0.9250189065933228
-0.0694379489692496, 0.30123960347916634, -0.9250189065933228
0.3292373015897324, 0.2813591539476291, -0.9250189065933228
0.44521719217300415, 0.11322176617102643, -0.9289456200119206
0.44521719217300415, 0.031823624043107616, -0.9366695419684001
0.44521719217300415, 0.1691379828511475, -0.934165031053483
0.44521719217300415, 0.2065914405867164, -0.9345405590273697
0.44521719217300415, 0.1380409063315231, -0.9407733571387775
0.4452171921730041, 0.26533708495247754, -0.9340617049647292
0.18553242461312114, 0.30304088841713295, -0.948241114616394
0.2368497497671054, 0.3036299418293779, -0.9481235984298205
-0.28681843774265126, 0.30451898589762455, -0.9262035644203506
-0.1978620994626481, 0.003450372690130177, -0.948241114616394
0.3972903318826788, 0.27855494061505776, -0.9482411146163942
0.16976438777462685, 0.25196296269230634, -0.948241114616394
0.3928176369350616, 0.23889035331566777, -0.948241114616394
0.16806546368314512, 0.15437304872505608, -0.948241114616394
0.2552997690419329, 0.21249128156045496, -0.948241114616394
0.42404389122520375, 0.1610414792167302, -0.948241114616394
0.06363366979834699, 0.25349466302318147, -0.948241114616394
0.3047156406355223, 0.2500473795001668, -0.948241114616394
0.05209220903703707, 0.25145677527319765, -0.9482411146163939
0.4172513431644219, 0.1385925665058521, -0.948241114616394
0.2781589998149263, 0.29501849737868197, -0.9482411146163939
-0.0331396016092855, 0.192091978144929, -0.948241114616394
0.3584425689735711, 0.13857193144007185, -0.948241114616394
0.34902782486867967, 0.05252501240025171, -0.948241114616394
-0.06965734463105122, 0.2811232255304585, -0.948241114616394
-0.04020568895166702, 0.18154930269870345, -0.948241114616394
0.44171871011273955, 0.18640397888616722, -0.948241114616394
0.39185596003336653, 0.11649240022319966, -0.948241114616394
-0.1385684273020052, 0.2815538361079634, -0.948241114616394
0.17674417747235366, 0.2181415996408663, -0.9482411146163942
0.3099490429387687, 0.2733930198917095, -0.948241114616394
0.3368887303901697, 0.24037134683377753, -0.948241114616394
-0.06175632898966883, 0.23314464417256936, -0.948241114616394
0.3976567249202682, 0.24539970691525584, -0.9482411146163939
0.17571517961633037, 0.2900009933988887, -0.948241114616394
-0.11857284747263581, 0.2661229291263003, -0.948241114616394
0.3464045793175572, 0.04624711193256663, -0.948241114616394
0.4321209180955484, 0.03337803832602515, -0.948241114616394
0.44117572354184553, 0.15096204215948322, -0.948241114616394
-0.10678325991142079, 0.23829803705816216, -0.948241114616394
0.16261637906975843, 0.2871689873570554, -0.948241114616394
-0.12072674614571725, 0.22012809324648233, -0.948241114616394
-0.13486461512149436, 0.29232575511124986, -0.948241114616394
-0.004638769830256573, 0.26754695181802735, -0.948241114616394
0.33686397958200354, 0.09588054342868421, -0.948241114616394
0.4411092797972855, 0.24694741750223853, -0.948241114616394
0.1337083905449693, 0.14032704674774427, -0.948241114616394
0.1627490364205763, 0.291442228147778, -0.948241114616394
0.32741510270968294, 0.1700207976710667, -0.948241114616394
0.29070247781056996, 0.22243303317343371, -0.948241114616394
0.3745699709127347, 0.22646751554854108, -0.948241114616394
0.2566052554833492, 0.24998241997869491, -0.948241114616394
-0.08734984300106544, 0.1996075085245736, -0.948241114616394
0.38235808078507477, 0.1080120288362402, -0.948241114616394
0.2299303570158207, 0.2148203163986671, -0.948241114616394
0.22637374075416467, 0.15537320788752942, -0.9482411146163939
-0.35814627808539873, 0.3007748896765878, -0.948241114616394
0.19629065941857474, 0.13259231372398866, -0.948241114616394
0.12585774814669998, 0.14620343137715397, -0.948241114616394
0.40509439898192423, 0.1587660016182, -0.948241114616394
0.24810638343720318, 0.27855727407215775, -0.948241114616394
0.35861843366066687, 0.09813766229729005, -0.948241114616394
0.3273667283076404, 0.222691364756185, -0.948241114616394
0.24136987881277683, 0.08564099522282614, -0.948241114616394
0.386359708089647, 0.25550764479822746, -0.948241114616394
0.033675613611703424, 0.18250605195827413, -0.9482411146163942
0.10699074426922023, 0.3000511584230236, -0.948241114616394
-0.045150601565592335, 0.2554753933996792, -0.948241114616394
0.05335440315095366, 0.18933916751393992, -0.948241114616394
0.18363938544295713, 0.14084583952419955, -0.948241114616394
0.3978837902475365, 0.030064988131357065, -0.948241114616394
0.4306134522462751, 0.2882142818646978, -0.948241114616394
0.31643749389227693, 0.07848534781981767, -0.9482411146163939
0.4068024429015377, 0.060105616299193323, -0.948241114616394
0.020922826805916638, 0.16892397634401432, -0.948241114616394
0.3830959987837335, 0.0959077013326784, -0.948241114616394
0.2752093554551067, 0.2839553747300212, -0.948241114616394
0.3893442538849331, 0.13759577011100463, -0.9482411146163942
0.4140484197078507, 0.04940650495962702, -0.948241114616394
0.20909838226790364, 0.17803890745573228, -0.948241114616394
0.22479910765083436, 0.09167658755745188, -0.948241114616394
0.4150650362773567, 0.08980283286379055, -0.9482411146163942
0.4308335181886334, 0.19465701222330548, -0.948241114616394
0.4235813229435603, 0.13723993213814445, -0.948241114616394
0.4318984670794139, 0.010527563001898412, -0.948241114616394
0.32539890372471714, 0.24131692124612267, -0.9482411146163939
0.3704081573593412, 0.04745800739233255, -0.948241114616394
0.026314341598578955, 0.30215510018873193, -0.948241114616394
0.24512863402069957, 0.23811097630005149, -0.948241114616394
0.12111594350080507, 0.21813544926963813, -0.948241114616394
0.1301898732479283, 0.26310752743804156, -0.948241114616394
0.4281307286466064, 0.10832817783430129, -0.948241114616394
0.39171329523625825, 0.0252452125697682, -0.9482411146163942
0.17654863152027955, 0.11084531173149129, -0.948241114616394
0.2735698943980228, 0.29320280296896406, -0.948241114616394
0.3458452139624819, 0.10421076563862416, -0.948241114616394
0.17122524229270975, 0.2593020361984718, -0.948241114616394
0.43608051779905416, 0.26838815779755726, -0.948241114616394
0.26069398071007027, 0.22338208282569277, -0.948241114616394
0.35377916436808, 0.16885795003903353, -0.948241114616394
-0.08837261098962143, 0.27130865098515183, -0.9482411146163942
0.3238731176790903, 0.14693345143735292, -0.948241114616394
-0.2702124470379634, 0.28234862392768717, -0.9482411146163942
0.3975808420126734, 0.05573885427389205, -0.948241114616394
-0.0312686031807066, 0.21043578390240697, -0.9482411146163939
-0.09914202564564159, 0.24890476019963773, -0.948241114616394
-0.1427764491526296, 0.24425338205951488, -0.9482411146163939
-0.046973158626750604, 0.22526062995171084, -0.9482411146163939
0.08293576388682436, 0.2993417606437955, -0.948241114616394
0.25584441233149896, 0.13952097532466273, -0.948241114616394
0.137065187229492, 0.13941865978220586, -0.948241114616394
0.15813581563957912, 0.17170164171820793, -0.948241114616394
-0.06018750785398336, 0.28884930603387327, -0.948241114616394
0.375856238852511, 0.05015329963386908, -0.948241114616394
0.3585567215050982, 0.16415601976905583, -0.948241114616394
0.35934404777208573, 0.26981793899315276, -0.948241114616394
0.21327289271978184, 0.24721195290137918, -0.948241114616394
0.06160015663453791, 0.19994942796634893, -0.948241114616394
0.3802315462896693, 0.05889845541507517, -0.9482411146163942
0.2052421774918491, 0.1872905357545232, -0.948241114616394
-0.17663473721599723, 0.23808440621286256, -0.9482411146163942
0.3686044740130393, 0.2703650429279506, -0.948241114616394
0.32308972965897975, 0.14849484035019847, -0.948241114616394
0.17692393521470567, 0.10281039407833073, -0.948241114616394
0.3266368878619277, 0.13565100553553616, -0.948241114616394
0.037039328069198435, 0.22583706869718725, -0.948241114616394
0.27889568619916716, 0.25795457738081096, -0.948241114616394
-0.296425298647232, 0.28595047274320007, -0.9482411146163942
0.26523024216755475, 0.21634341668858098, -0.948241114616394
0.33555392310012444, 0.2143478861045529, -0.948241114616394
-0.1411726681516784, 0.29586068164740514, -0.948241114616394
0.36435061922920264, 0.055195924400084924, -0.948241114616394
0.41199592906808336, 0.19598604216782306, -0.948241114616394
0.2897368206170406, 0.19278262303956703, -0.948241114616394
0.23049931591668, 0.24082797672272133, -0.9482411146163942
-0.11289212828684451, 0.12705924452796602, -0.948241114616394
0.037765556879496356, 0.06887304660371478, -0.948241114616394
-0.35289523644477017, 0.21905987617418995, -0.948241114616394
-0.36238862545329176, 0.045976371295582484, -0.948241114616394
-0.3544352459531428, 0.11357954094239178, -0.948241114616394
0.17409646030652726, 0.03423076736383845, -0.948241114616394
-0.2563624740413999, 0.1204953831447121, -0.948241114616394
-0.28923952208619297, 0.24864144748421504, -0.948241114616394
-0.33570294885655305, 0.22952942121767744, -0.948241114616394
-0.3644513603613229, 0.19983637967640933, -0.9482411146163939
-0.2151412526191684, 0.09911513807428354, -0.9482411146163942
-0.21150168484770823, 0.15584915645615707, -0.948241114616394
0.07049243699310288, 0.029772802470687264, -0.948241114616394
-0.18246118919175508, 0.05735863676552585, -0.948241114616394
-0.14693416889743116, 0.21149209831734592, -0.948241114616394
-0.3650383481786402, 0.14670380978443387, -0.9482411146163942
-0.3144711996431424, 0.206086755932575, -0.948241114616394
-0.2379144860141737, 0.0556625606673049, -0.948241114616394
-0.2253229762504537, 0.06294631249634926, -0.948241114616394
-0.2357311426684507, 0.08628074838653772, -0.9482411146163942
0.13707255828784232, 0.017789339308461202, -0.948241114616394
0.4320071087394817, 0.004295962074850263, -0.948241114616394
0.09913143386674438, 0.06446921770145043, -0.9482411146163939
-0.2740268994980931, 0.2190137313831568, -0.948241114616394
-0.26765288961972805, 0.07418882282472682, -0.948241114616394
0.12965173562158847, 0.02572195987566921, -0.948241114616394
-0.24051558041426646, 0.1361941177274745, -0.948241114616394
-0.2387792643932283, 0.2133669514092759, -0.9482411146163942
-0.19581430325057683, 0.10327006851106847, -0.948241114616394
-0.12964206819405716, 0.07712592730593719, -0.9482411146163939
0.1606278671875746, 0.008598330333394135, -0.948241114616394
0.4160029899214333, 0.01126696802093443, -0.9482411146163939
-0.2427214888046122, 0.049420444411932135, -0.948241114616394
-0.3092295356562663, 0.15506164245668957, -0.948241114616394
0.1645751593245322, 0.07811857104574589, -0.948241114616394
-0.16426758012557585, 0.15817057740078308, -0.948241114616394
0.017681514895976885, 0.13564164875135692, -0.948241114616394
-0.0362798396848365, 0.016593091398292605, -0.948241114616394
0.2410419466340643, 0.047448977375888615, -0.9482411146163942
-0.26588313862751495, 0.2591529095204255, -0.948241114616394
-0.02652180255337741, 0.05554591121777199, -0.9482411146163939
0.10559284291292662, 0.06370053662867692, -0.948241114616394
-0.172690197503799, 0.06076099369948921, -0.948241114616394
0.17818739595935856, 0.037362609514276335, -0.948241114616394
-0.29277437966028697, 0.077356280980388, -0.948241114616394
0.006299325373931769, 0.055826472002631716, -0.948241114616394
-0.13800913755899885, 0.054052849007095935, -0.9482411146163939
0.002877575800032589, 0.1349103728265434, -0.948241114616394
-0.2940122208638196, 0.17060719530980434, -0.948241114616394
0.19859845784937627, 0.006262480242423709, -0.948241114616394
-0.04241636072269071, 0.13459820076982415, -0.948241114616394
-0.09229022458144054, 0.19350969116399816, -0.948241114616394
-0.08005695316923518, 0.13100064734385095, -0.948241114616394
-0.1334269548536588, 0.14432690949650592, -0.948241114616394
0.31581194160702575, 0.04689482634772443, -0.9482411146163942
0.3043567717163542, 0.048242771889626404, -0.948241114616394
-0.1884100094924752, 0.0329312334720757, -0.9482411146163942
-0.10202518792823058, 0.13900124183143742, -0.948241114616394
-0.015100874863264259, 0.03653149828193003, -0.948241114616394
-0.0722014425461358, 0.12069832422385954, -0.948241114616394
-0.3628309179633738, 0.003751714965352036, -0.948241114616394
-0.13678069161082568, 0.11396267336842249, -0.948241114616394
-0.15872953947399437, 0.10959769492904753, -0.948241114616394
-0.22589246077609865, 0.1344595738110806, -0.948241114616394
0.39358956016828417, 0.014748461990157235, -0.948241114616394
0.0747174491222451, 0.0986562123228637, -0.9482411146163942
-0.24290723832414307, 0.18726293527277543, -0.948241114616394
-0.0031773030417346915, 0.0766210353304866, -0.948241114616394
-0.11057176177668403, 0.15106683789293404, -0.948241114616394
0.20101141454968494, 0.025210636395829843, -0.948241114616394
0.24440001295588215, 0.012248990037132569, -0.948241114616394
-0.204677609491861, 0.15941862643123428, -0.948241114616394
-0.20804854304358633, 0.058522674081178894, -0.9482411146163942
0.04285033019501516, 0.12162365854882987, -0.948241114616394
-0.14847905979119896, 0.11360799760249052, -0.948241114616394
-0.3123607590375196, 0.2518662314976647, -0.948241114616394
-0.03130749132730032, 0.1554588258797297, -0.948241114616394
-0.0029081485887897246, 0.03279809219885996, -0.948241114616394
-0.09868416355846893, 0.03219893766286077, -0.9482411146163939
-0.26728016934563564, 0.18010552699894652, -0.948241114616394
0.13031101295151187, 0.07175295742597447, -0.948241114616394
0.164819353105911, 0.04302561123194094, -0.948241114616394
-0.3501699555076192, 0.09197745392657385, -0.948241114616394
-0.20410816745248733, 0.07287196633746526, -0.948241114616394
-0.19461157106429156, 0.0655077902272381, -0.948241114616394
0.1083406660389194, 0.08219548619783239, -0.948241114616394
-0.3234695126190785, 0.11314552919546864, -0.948241114616394
0.05279555085443166, 0.14622004186584867, -0.948241114616394
0.33327921762304386, 0.02961260782182609, -0.9482411146163942
-0.12369746782589482, 0.14430717020919986, -0.948241114616394
-0.20889935346983113, 0.02517919445834869, -0.948241114616394
-0.01753172508386524, 0.01330861839465166, -0.9482411146163939
0.05686822392783489, 0.1236231298140905, -0.948241114616394
-0.16067278820566339, 0.05418796147117423, -0.948241114616394
0.1695002323875356, 0.044562357736123326, -0.9482411146163939
0.2159717095223, 0.006756837293450678, -0.9482411146163938
-0.2893868888383786, 0.13880114001504432, -0.948241114616394
0.051006467667342986, 0.13203359442954865, -0.948241114616394
0.21220537646679483, 0.06570437969089868, -0.9482411146163939
-0.3266500885621828, 0.24744387176714783, -0.948241114616394
0.030354066861695894, 0.1347616715406482, -0.948241114616394
-0.08355283402967167, 0.16195668105380698, -0.948241114616394
-0.20763761923864998, 0.14189705192436655, -0.948241114616394
-0.29661061388102516, 0.10170803113416782, -0.948241114616394
-0.23485695101619225, 0.13832467437834947, -0.948241114616394
-0.1306379525191455, 0.0430929992685067, -0.948241114616394
-0.22055299951157917, 0.11472833155223343, -0.948241114616394
0.21513725094565184, 0.02483218829100324, -0.948241114616394
-0.057648545613824154, 0.09229783838148425, -0.948241114616394
0.13168926984253115, 0.04728320108808859, -0.948241114616394
-0.10703030284858327, 0.16109470427805697, -0.948241114616394
-0.3203706054573719, 0.15754801275276595, -0.948241114616394
-0.10345736577906545, 0.04787852510537918, -0.948241114616394
0.2911308181913938, 0.013770974999193443, -0.948241114616394
-0.01815777309511729, 0.13267387095888727, -0.948241114616394
-0.13640942828107366, 0.15470519534090296, -0.948241114616394
-0.3276814328525491, 0.16744241471821378, -0.948241114616394
-0.3715466352822864, 0.19350336157269696, -0.948241114616394
0.05630922596369216, 0.012422163097058767, -0.9482411146163939
-0.35515856289566805, 0.29162345981737603, -0.948241114616394
-0.23972217262594347, 0.17261405237571206, -0.948241114616394
-0.2521070241100639, 0.13692107813858728, -0.948241114616394
-0.04879069305739875, 0.17187617726109364, -0.948241114616394
-0.2233408375846035, 0.019035185575373047, -0.9482411146163939
0.20350052319238565, 0.06371308217847955, -0.948241114616394
-0.013962248434878699, 0.05345730514136096, -0.948241114616394
0.37666283331221523, 0.001642719958908856, -0.9467460167130026
0.41120492558947397, 0.001642719958908856, -0.9412680225515899
0.348310482483715, 0.001642719958908856, -0.9388365366926131
0.20130112608668865, 0.001642719958908856, -0.9436482436221978
0.11309288373161046, 0.0016427199589088561, -0.939997324108755
0.09475782878822867, 0.0016427199589088561, -0.9370459111411509
0.32817917598173263, 0.001642719958908856, -0.9442801880683507
0.38798016317949047, 0.001642719958908856, -0.9344859546291702
0.42498082158301015, 0.001642719958908856, -0.9288103704403127
0.39625671974966714, 0.3045474290847779, -0.9452459477776748
-0.2773038674086702, 0.30454742908477783, -0.9458129185698112
0.32025539761443217, 0.30454742908477783, -0.9438949003184994
-0.27422318708984394, 0.30454742908477783, -0.9347546484065846
-0.280419290859382, 0.30454742908477783, -0.9375329073241552
-0.31764674794378744, 0.30454742908477783, -0.9446964404118576
-0.10840670474348638, 0.3045474290847778, -0.9372664954697334
-0.21359675267983705, 0.30454742908477783, -0.9332489563960968
0.012978041966706544, 0.30454742908477783, -0.934336440213607
0.4195106179313996, 0.30454742908477783, -0.9413076628395285
0.0873973938411525, 0.30454742908477783, -0.9306700103116765
0.09939148466841344, 0.30454742908477783, -0.9373174583210555
-0.09117254722344287, 0.30454742908477783, -0.9290620225665596
0.33574575639579207, 0.30454742908477783, -0.9302031993585622
0.03612611350079234, 0.30454742908477783, -0.9348084515075556
0.40239280163259505, 0.30454742908477783, -0.939123332075701
0.21529214585556722, 0.30454742908477783, -0.9311844224549598
-0.35623632572850045, 0.0016427199589088561, -0.929383847844546
0.24565642927652132, 0.001642719958908856, -0.9275757225889909
-0.28127326519657697, 0.001642719958908856, -0.9386635980540565
0.31111641939270906, 0.001642719958908856, -0.9286260156867137
0.0248760628589782, 0.001642719958908856, -0.9281210727880362
-0.3588150719237244, 0.001642719958908856, -0.9406543535892755
0.005355145199282957, 0.001642719958908856, -0.9276574014420635
-0.15113302742544982, 0.001642719958908856, -0.9330289736151439
-0.37496493824616006, 0.2980267423219462, -0.9475794587243069
-0.22303353192417344, 0.3035609615580189, -0.9251134190968401
-0.37476038897644115, 0.0754296556867204, -0.9253057483197394
0.44366360274219707, 0.2867259455091364, -0.948241114616394
0.23173479907405412, 0.002925659540342331, -0.948241114616394
0.20687943291168015, 0.0016427199589088561, -0.9265357656500273
0.15384043761925978, 0.003110252663729086, -0.9250188924782023
-0.07794353215994097, 0.13448428898953885, -0.9250189065933228
0.2207230022738748, 0.02492730998171189, -0.9250189065933228
-0.2636993202533067, 0.2058166763434814, -0.9250189065933228
0.13102146682265942, 0.0488543210659583, -0.9250189065933226
-0.030201947977240694, 0.15546908149796193, -0.9250189065933228
-0.08478455420017172, 0.09888924256962388, -0.9250189065933228
-0.23843578936856769, 0.1956222935174386, -0.9250189065933228
-0.305177087067511, 0.26975054268243853, -0.9250189065933228
-0.15394293138866813, 0.055930560079076125, -0.9250189065933228
-0.09869383304444038, 0.18433644034246818, -0.9250189065933228
-0.14022043089687186, 0.004528055791328865, -0.9250189065933228
-0.1454616400782737, 0.1647449958213266, -0.9250189065933228
-0.016369286930896065, 0.010978085245923166, -0.9250189065933228
-0.22832973238703286, 0.11797794530734564, -0.9250189065933228
-0.050151921591302995, 0.013115064469762688, -0.9250189065933229
-0.13969943774664878, 0.009417711445605485, -0.9250189065933228
-0.18536563443503745, 0.004874915394367902, -0.9250189065933228
0.22168495963830548, 0.024519262367407233, -0.9250189065933228
-0.29814783725519484, 0.04996582089953592, -0.9250189065933228
-0.30088769927865977, 0.12057758091571472, -0.9250189065933228
-0.37174511606094013, 0.08874797896976369, -0.9250189065933229
-0.29151527159970714, 0.0793197846179507, -0.9250189065933229
