-0.30566122362826875, 0.35171170292240705, 0.19431251287460327
-0.31164181857500267, 0.390525873061741, 0.19431251287460327
-0.23980190510153335, 0.349501709124879, 0.19431251287460324
-0.34925900459258724, 0.33506272605887966, 0.19431251287460327
-0.2471016672127948, 0.37699817738535935, 0.19431251287460327
-0.22806456816585896, 0.3679728942532702, 0.19431251287460327
-0.06940120401940651, 0.39237945021963694, 0.19431251287460327
-0.05512069804062799, 0.3930553434510544, 0.19431251287460327
-0.3371217466882217, 0.3762695251140836, 0.19431251287460327
-0.364649056937546, 0.3601878903993968, 0.19431251287460327
-0.1661022903545164, 0.3728721783078431, 0.19431251287460327
-0.20499570571772727, 0.3565434009920907, 0.19431251287460327
-0.2853099833493923, 0.3768675085171146, 0.19431251287460327
-0.1625850373446466, 0.36604654522267455, 0.19431251287460327
-0.23305399527147708, 0.39217396588517817, 0.19431251287460327
-0.13228731599753873, 0.3739648009215339, 0.19431251287460327
-0.119935653892888, 0.39559660569067107, 0.19431251287460324
0.004008759442637362, 0.33307178919541913, 0.21115673275711036
0.004241105634719133, 0.285827522146329, 0.1974417019970279
-0.46397192317137564, 0.4081015401392201, 0.20650657786517812
-0.4374469103487621, 0.4075462092732744, 0.20583619870963693
-0.41816948687524474, 0.4036786831451238, 0.2011674344488793
-0.503766858288943, 0.40898608147825466, 0.20757437026114617
-0.38070042194750425, 0.323468825711283, 0.19431251287460327
-0.38552323412389283, 0.35743517706725036, 0.19431251287460327
-0.5923147768180378, 0.38991603626888827, 0.19431251287460327
-0.5742124624640557, 0.3883215449835019, 0.19431251287460327
-0.4469515870969365, 0.33568908413427595, 0.19431251287460324
-0.5836616626999569, 0.3705288794419756, 0.19431251287460327
-0.7172798165051641, 0.3959367241097278, 0.19431251287460327
-0.44514069498155384, 0.33331667942331394, 0.19431251287460327
-0.43778972542782335, 0.35548503971578244, 0.19431251287460327
-0.42280712779456964, 0.37842111256204325, 0.19431251287460327
-0.420546361552685, 0.3619459571976676, 0.19431251287460327
-0.678903768527172, 0.3956048586389962, 0.19431251287460327
-0.4114618801538268, 0.3483055902411765, 0.1943125128746033
-0.4168078087832083, 0.37322491647176725, 0.19431251287460327
-0.5444440590369077, 0.36418518841505365, 0.19431251287460327
-0.40523787948463363, 0.39183411339357954, 0.19431251287460327
-0.4964100973666454, 0.35721454761614974, 0.19431251287460327
-0.3828335741141087, 0.39293984140117566, 0.19431251287460327
-0.4620358151135311, 0.3723754304044775, 0.19431251287460327
-0.1647187631186254, 0.3403509513868017, 0.19431251287460324
-0.17431770150768702, 0.3248590863013704, 0.19431251287460327
-0.13541811893564557, 0.3273475924586654, 0.19431251287460327
-0.1646114069235361, 0.34638847505062176, 0.19431251287460327
-0.0817991298531539, 0.3267048546167659, 0.1943125128746033
-0.21299086557129734, 0.34330292873390955, 0.1943125128746033
-0.2309503588690333, 0.3383442925952844, 0.1943125128746033
-0.07941422248149323, 0.3455447291670569, 0.19431251287460327
-0.09760902275615878, 0.3480424183918549, 0.19431251287460327
-0.029307761810911822, 0.3422636355067057, 0.19431251287460327
-0.24504036708181184, 0.3415695995421105, 0.19431251287460327
-0.28705403816394615, 0.3242323892496799, 0.19431251287460327
-0.004849129526119098, 0.35492844562140136, 0.19431251287460327
-0.07463508134863528, 0.3371741272721463, 0.19431251287460327
-0.18328508885357234, 0.34038960114150707, 0.19431251287460327
-0.06898518150373702, 0.31727372172306656, 0.19431251287460327
-0.2913225782845701, 0.3262849231064654, 0.19431251287460327
-0.26834887842529304, 0.33087161776149393, 0.19431251287460324
-0.20417182079657184, 0.35012206131191365, 0.1943125128746033
-0.13191662689860656, 0.33706691556259044, 0.19431251287460327
-0.26161694807703784, 0.23095771670341492, 0.208429188261945
-0.08407360943897932, 0.2309577167034149, 0.2092945506936357
-0.17522920589361712, 0.23095771670341492, 0.20720961502164473
-0.42279207331514057, 0.29244855127006275, 0.21169154345989225
-0.5003749151204828, 0.24682536171503855, 0.21169154345989227
-0.5992974992531889, 0.26508939623616623, 0.21169154345989227
-0.4016525995179694, 0.24713213635364784, 0.21169154345989227
-0.6303782980476605, 0.23806503327732023, 0.21169154345989225
-0.542074493955731, 0.24512197455178197, 0.21169154345989227
-0.5169700782987283, 0.27270438434966227, 0.21169154345989227
-0.48872196501629406, 0.2706442379179611, 0.21169154345989227
-0.42218247287994415, 0.25969564030740044, 0.21169154345989227
-0.432751825981014, 0.2590401120615875, 0.21169154345989227
-0.45504603725148285, 0.25861822573413673, 0.21169154345989227
-0.5837385578832499, 0.24134857577890498, 0.21169154345989227
-0.5152742646547208, 0.2574682089844819, 0.21169154345989227
-0.38304554588998757, 0.25744429141035613, 0.21169154345989227
-0.5922564391649401, 0.24296972761100355, 0.21169154345989227
-0.4962294514841967, 0.23943696701425254, 0.21169154345989227
-0.4969729840179826, 0.28460994364589837, 0.21169154345989227
-0.5173601870530807, 0.2689373562697917, 0.21169154345989225
-0.5709849575692987, 0.25847014338751795, 0.21169154345989227
-0.6669002679516752, 0.24646484300765958, 0.21169154345989225
-0.15940610266579383, 0.31216372205009457, 0.21169154345989227
-0.19827407025348823, 0.2947828680214241, 0.21169154345989227
-0.220335086389011, 0.3093069345709306, 0.21169154345989227
-0.1973474672599499, 0.29416453918248914, 0.21169154345989227
-0.1176216112919407, 0.30504239983920356, 0.21169154345989227
-0.12266030052541912, 0.27900336069837894, 0.21169154345989227
-0.09907036265107538, 0.29918568975278237, 0.21169154345989227
-0.15341328154474154, 0.3100611882546208, 0.21169154345989227
-0.23271593007168823, 0.3041565158605873, 0.2116915434598923
-0.22291875844905482, 0.29244957133518146, 0.21169154345989227
-0.066732640728664, 0.31614860953174617, 0.21169154345989227
-0.02201720671028554, 0.30373200672966255, 0.21169154345989227
-0.0504052502906226, 0.26678402186326444, 0.21169154345989227
-0.23047276992380278, 0.30320942202291085, 0.21169154345989225
-0.001398355659138094, 0.31158956248742886, 0.21169154345989227
-0.02969510760377923, 0.3020445155187712, 0.21169154345989227
-0.25380782501788496, 0.2964201168904742, 0.21169154345989227
-0.06746803112706151, 0.2685238757427377, 0.21169154345989227
-0.28366980274028225, 0.3153127548449196, 0.21169154345989225
-0.2384448974654295, 0.299555073386606, 0.21169154345989225
-0.04811706156578391, 0.3079395969859819, 0.21169154345989227
-0.562594344722796, 0.33267752466926287, 0.19431251287460327
-0.6381415616808014, 0.37037252009351634, 0.19431251287460327
-0.4942462460304757, 0.33710813323088906, 0.19431251287460327
-0.5168162154494009, 0.3303852524482941, 0.19431251287460327
-0.632799344664238, 0.31753961303916806, 0.19431251287460327
-0.6740261018198844, 0.36767042184765125, 0.19431251287460327
-0.5282309377419026, 0.3221725825133651, 0.19431251287460327
-0.5728714568396692, 0.33166653248213174, 0.19431251287460327
-0.7166828672731675, 0.38161904997908175, 0.19431251287460324
-0.6174484015257702, 0.3250572734264647, 0.19431251287460327
-0.5219383959478503, 0.3471638865818663, 0.1943125128746033
-0.6252977102967603, 0.3336266072691465, 0.19431251287460327
-0.5715257704425976, 0.3513817477099893, 0.1943125128746033
-0.48529626924496294, 0.3295214816084083, 0.19431251287460327
-0.5652246393432037, 0.3275072273760907, 0.19431251287460327
-0.7116801592429036, 0.37290966653671115, 0.19431251287460327
-0.7334523838888581, 0.32427627137793613, 0.19431251287460327
-0.6672771858855367, 0.3519607352088805, 0.19431251287460327
-0.6848646789098138, 0.3396422250827274, 0.19431251287460327
-0.24988013357127092, 0.39766762240666104, 0.19449849481875267
-0.49864834627761645, 0.39846045431664645, 0.1949735715045377
-0.7117621495482671, 0.2787005862059898, 0.19431251287460327
-0.7230788052191112, 0.27634322412676965, 0.19431251287460327
-0.5665658138066045, 0.2556254667612758, 0.19431251287460327
-0.5374987345765566, 0.24361774192683536, 0.19431251287460324
-0.7235345818158153, 0.29225588035408095, 0.19431251287460327
-0.526401703200667, 0.24633180945123515, 0.19431251287460324
-0.543774959910676, 0.2569310705126595, 0.1943125128746033
-0.6409631484429397, 0.2631991851694505, 0.19431251287460327
-0.7381078534734904, 0.2524652831819494, 0.19431251287460327
-0.6430001519063, 0.2886325533408543, 0.1943125128746033
-0.7355786787421456, 0.3049884745928045, 0.19431251287460327
-0.5117217230838474, 0.25426941788022894, 0.19431251287460327
-0.5373409899933067, 0.23635603835926416, 0.19431251287460327
-0.655420101266054, 0.2618621935586989, 0.19431251287460327
-0.48980742366365787, 0.25762955609901694, 0.19431251287460327
-0.5564537160357761, 0.25710311725761, 0.19431251287460327
-0.7031523349811539, 0.24978268133259057, 0.19431251287460327
-0.5613634075848328, 0.2712245664198694, 0.19431251287460327
-0.7330306906347244, 0.285993731296828, 0.19431251287460327
-0.45178934127033854, 0.24142275913825978, 0.19431251287460327
-0.24710112236401038, 0.2309603931497612, 0.1958722718684966
-0.16632588186742736, 0.23178549774520388, 0.19451131863412374
-0.3967790024824746, 0.2621242876023471, 0.19431251287460327
-0.4000621021032454, 0.3098206293310068, 0.19431251287460327
-0.5127809748105858, 0.295407122831265, 0.19431251287460327
-0.37883803920246373, 0.23637969669334163, 0.19431251287460327
-0.38679228073880045, 0.30323066471126836, 0.19431251287460324
-0.4235196653872826, 0.2698136818749196, 0.19431251287460327
-0.37371974620295095, 0.23930224334860356, 0.19431251287460327
-0.4350262949082164, 0.3011348492318759, 0.19431251287460327
-0.6423527307299999, 0.315817408010382, 0.19431251287460327
-0.6408257466433015, 0.3103611142478503, 0.19431251287460327
-0.41483737160070655, 0.26149842418752683, 0.19431251287460327
-0.3973615787344277, 0.25134004989549724, 0.19431251287460327
-0.6977037742042722, 0.30786993965081383, 0.19431251287460327
-0.46975098727781184, 0.2821871521144282, 0.19431251287460327
-0.5434357032570758, 0.3109374951047944, 0.19431251287460327
-0.4843601289941587, 0.2952395881278031, 0.19431251287460327
-0.49089636884172266, 0.2660644823040514, 0.19431251287460327
-0.4096365347779145, 0.31129920989228704, 0.19431251287460327
-0.490779449801113, 0.2886507355505737, 0.19431251287460327
-0.5301979815955806, 0.2903051255139402, 0.1943125128746033
-0.0071511026211705355, 0.299089955158069, 0.19431251287460324
-0.012596356699176137, 0.25866422111421483, 0.19431251287460327
-0.04948011116734043, 0.24798501613420504, 0.19431251287460327
-0.16634306401185323, 0.2341531515978192, 0.19431251287460327
-0.31398452171142927, 0.24055802106744528, 0.19431251287460327
-0.06866821699836974, 0.2738991776891348, 0.19431251287460327
-0.0561451091067099, 0.28656649870599493, 0.19431251287460327
-0.23256053313836472, 0.2546797163790573, 0.19431251287460327
-0.20535089294782372, 0.2636995234254114, 0.19431251287460327
-0.056629034044874654, 0.29696457462501946, 0.19431251287460327
-0.039707483766280346, 0.3017012216827142, 0.19431251287460327
0.0006321179382989136, 0.31287806713605565, 0.1943125128746033
-0.02452859544742122, 0.2686558425150136, 0.19431251287460327
-0.006416145702058031, 0.2889131407369401, 0.19431251287460327
-0.009650193495907981, 0.2667364597391961, 0.19431251287460327
-0.2846284483035529, 0.24275188202683023, 0.19431251287460327
-0.18847431989942026, 0.2379365591169667, 0.19431251287460327
-0.03215294545119386, 0.3021275411794455, 0.19431251287460327
-0.20405273400879909, 0.26983012976758697, 0.19431251287460324
-0.009934637920084565, 0.28363304076950324, 0.19431251287460327
-0.06393618007335451, 0.267772632809956, 0.19431251287460327
-0.24775119528311018, 0.28498748648982536, 0.19431251287460327
-0.23347771316072685, 0.2801447194887948, 0.19431251287460327
-0.23025574065766533, 0.30169557374554445, 0.19431251287460327
-0.2981908010293571, 0.27050344461785025, 0.1943125128746033
-0.34606726495434553, 0.29461606182817934, 0.19431251287460327
-0.2759010799356105, 0.28766887110093636, 0.19431251287460327
-0.19555977524620805, 0.2854129037860408, 0.19431251287460327
-0.0771415397743716, 0.314623412373188, 0.19431251287460327
-0.24632881535898798, 0.2824616244597759, 0.19431251287460324
-0.25440669132841404, 0.30149229794781873, 0.19431251287460327
-0.3557304389289661, 0.280540624101597, 0.19431251287460327
-0.3152960204789957, 0.2946295357477112, 0.19431251287460327
-0.35184105203721106, 0.23721047209268104, 0.19431251287460324
-0.34255128062628915, 0.28285037572040905, 0.19431251287460327
-0.2118242439326536, 0.3051080335853266, 0.19431251287460327
-0.15542083858635322, 0.30851438782905616, 0.19431251287460327
-0.3692474441299886, 0.3054422879507261, 0.19431251287460327
-0.35315058442122205, 0.28247670305261885, 0.19431251287460324
-0.26579520987911265, 0.2909042252337012, 0.19431251287460327
-0.35505175157818986, 0.3066649197599267, 0.19431251287460327
-0.346337587601502, 0.2320693730993783, 0.1944352451707813
-0.7449227571487427, 0.3158195571330983, 0.20349084019943842
-0.6981833262663522, 0.23095771670341492, 0.2028639491156215
-0.6172811730596957, 0.23095771670341492, 0.20123616231250893
-0.4990469376816412, 0.2309577167034149, 0.20626984354651923
-0.04876630525403353, 0.23134751023544445, 0.2110861582866777
-0.6772016157044944, 0.23095771670341492, 0.19721578702935585
-0.46932209662114255, 0.23095771670341492, 0.1963131775732251
-0.4949823497989465, 0.23095771670341494, 0.20372659820044867
-0.3975025518492962, 0.23095771670341492, 0.1961576131220259
-0.06450985757423305, 0.23095771670341492, 0.20638269619004998
-0.03943133299209638, 0.23095771670341492, 0.20065203881415794
-0.18068060696640512, 0.23095771670341492, 0.1987776869453633
-0.1812033494289618, 0.2309577167034149, 0.19656506952600694
-0.7449227571487427, 0.23793937059598558, 0.20226580153004187
-0.7444858898780476, 0.27067995901661746, 0.21113975348629238
-0.48904701475303597, 0.29739466830014827, 0.21169154345989225
-0.5791799620727894, 0.276956612005767, 0.2116915434598923
-0.6585375787197306, 0.30742917790403534, 0.21169154345989227
-0.5412830582818072, 0.28800889846941985, 0.21169154345989225
-0.7264931231228353, 0.2896327798078062, 0.21169154345989227
-0.6096679940235054, 0.26612721984861654, 0.21169154345989227
-0.7078675079990387, 0.2716419087758455, 0.21169154345989227
-0.589132103882116, 0.2986095488758844, 0.21169154345989227
-0.7356101375682764, 0.30385087650032094, 0.21169154345989227
-0.6111010221006826, 0.26422989077861, 0.21169154345989227
-0.6704356044352073, 0.2789671564214408, 0.21169154345989227
-0.6467994730842818, 0.3007037435546834, 0.21169154345989227
-0.5653995064549353, 0.3094060971502468, 0.21169154345989227
-0.5521083244562391, 0.31423421595366563, 0.21169154345989227
-0.5800904681039575, 0.3127857279542252, 0.21169154345989227
-0.40076692768744127, 0.31071624797499753, 0.21169154345989227
-0.6446078859149412, 0.26983761016082897, 0.21169154345989227
-0.6658954294250106, 0.2523355724963974, 0.21169154345989227
-0.5525533093014505, 0.30716807660760603, 0.21169154345989227
-0.5593605917952547, 0.30918726189195517, 0.21169154345989227
-0.4655822498829846, 0.39557906376578644, 0.21169154345989225
-0.7161663634458586, 0.33878309363196624, 0.2116915434598923
-0.5804986551349852, 0.37459323745443496, 0.21169154345989227
-0.6272346248536567, 0.3912733898602574, 0.21169154345989227
-0.5231301050425466, 0.4064552103709662, 0.21169154345989227
-0.4354371558739672, 0.39968040968490015, 0.2116915434598923
-0.5751213851723166, 0.36132052040756396, 0.21169154345989227
-0.6630102645498821, 0.37113782170661413, 0.21169154345989227
-0.6017736674737599, 0.40553318811606776, 0.21169154345989227
-0.38245589368599703, 0.4078080811529182, 0.21169154345989227
-0.5989441773224724, 0.36985931863234356, 0.21169154345989225
-0.7027803833485898, 0.40509782604012073, 0.21169154345989227
-0.6896465391929026, 0.3400012707560851, 0.21169154345989227
-0.5692853128984905, 0.36961019612777907, 0.21169154345989227
-0.715815301970204, 0.3329305984150841, 0.2116915434598923
-0.7314699921491721, 0.32606192960880204, 0.21169154345989227
-0.7290579392047262, 0.4030469424157357, 0.21169154345989227
-0.6213669818242137, 0.3897395242726124, 0.21169154345989227
-0.5548827194452433, 0.38287762846201345, 0.21169154345989227
-0.7303088070131072, 0.4063915385356188, 0.21169154345989227
-0.5651813608487045, 0.4011437197287274, 0.21169154345989227
-0.7033443460414777, 0.35995482999720985, 0.21169154345989227
-0.7449227571487427, 0.3704793651804376, 0.20851457102295906
-0.12693253485618078, 0.2587764002453836, 0.21169154345989227
-0.2939735057098878, 0.2693831714985171, 0.21169154345989227
-0.08708201159600394, 0.23460040933259693, 0.21169154345989227
-0.25299984721373925, 0.2432735944566904, 0.21169154345989227
-0.2569610435923809, 0.25834362647027415, 0.21169154345989227
-0.3162656808812071, 0.30193862709750807, 0.21169154345989225
-0.12916173721154556, 0.23490755848626937, 0.21169154345989227
-0.3137714680718159, 0.2471689837380884, 0.21169154345989227
-0.3394491371756023, 0.26433754449924457, 0.21169154345989227
-0.1945440698612273, 0.27293382901253244, 0.2116915434598923
-0.28239108257035866, 0.29439877242410195, 0.2116915434598923
-0.36767319918498226, 0.2525099368070185, 0.21169154345989227
-0.1319072122720512, 0.2492162201368366, 0.21169154345989227
-0.3607647819951705, 0.2715873255073949, 0.21169154345989227
-0.1963408336449643, 0.2482604296933743, 0.21169154345989227
-0.26509232509265956, 0.2908196673667067, 0.21169154345989227
-0.3157726354648385, 0.2374649728674279, 0.21169154345989227
-0.22246314288155594, 0.2560544603929119, 0.21169154345989227
-0.2869862929534954, 0.23469668108753378, 0.21169154345989227
-0.3278085037202781, 0.29021719473048124, 0.21169154345989227
-0.25299533994038315, 0.242149700297607, 0.21169154345989227
-0.231276014869777, 0.3288203449978272, 0.21169154345989227
-0.3343303050191958, 0.36268546719068884, 0.21169154345989227
-0.3387335848002909, 0.36701903854310214, 0.21169154345989227
-0.11766822011170738, 0.3361139018733846, 0.21169154345989225
-0.16709202612914748, 0.34078757236859947, 0.21169154345989227
-0.10548173116602128, 0.32699606335916903, 0.21169154345989227
-0.1870635482063586, 0.3539001658794598, 0.21169154345989227
-0.3506775973060514, 0.34370951417459283, 0.21169154345989227
-0.0906615160733989, 0.3357743652192182, 0.21169154345989227
-0.14552367006261718, 0.3261748948665413, 0.21169154345989227
-0.29967736373970927, 0.38963632413284366, 0.21169154345989225
-0.15812173609726848, 0.3253356025658304, 0.21169154345989227
-0.2568519150770152, 0.3399404292774306, 0.21169154345989227
-0.28124820148256563, 0.34823471726620614, 0.21169154345989227
-0.3695615344231661, 0.344689155854323, 0.21169154345989227
-0.32240842223640775, 0.3696972519277193, 0.21169154345989227
-0.35772139397568675, 0.37649129488452804, 0.21169154345989227
-0.10022741248286117, 0.3422864393605723, 0.21169154345989227
-0.2873607570715784, 0.33363304506138175, 0.21169154345989227
-0.19563247142546175, 0.348678711761019, 0.21169154345989227
-0.1905355353374099, 0.34447067537616616, 0.21169154345989227
-0.2609568145543122, 0.3339464500999747, 0.21169154345989227
0.004241105634719133, 0.2927483983170933, 0.2025905336933914
0.004241105634719133, 0.39205599768939114, 0.20162328262892715
-0.6421620604489606, 0.40313875311591696, 0.20051564673235361
-0.6756882376406668, 0.4018496855737014, 0.19895952215261445
-0.730308311207979, 0.39905386131184856, 0.19558448499434214
-0.5283669489985452, 0.4033993674011852, 0.2008302526640491
-0.6693256021845269, 0.40094164283185946, 0.19786335955154127
-0.273333474375771, 0.4044659736964448, 0.2021178285424281
-0.26399375467727265, 0.40331388821671454, 0.20072706469627036
-0.04290597195492567, 0.3999287410908313, 0.19664061423800605
-0.3086964848938834, 0.4020376943253609, 0.19918648081077805
-0.37972231121368527, 0.41102541061641396, 0.21032359965249697
-0.21484163847749485, 0.37449876382366143, 0.2116915434598923
-0.12732544499018453, 0.3816333322485528, 0.21169154345989227
-0.11064093026645029, 0.3754629509017953, 0.21169154345989227
-0.19307793222457487, 0.38813432139892845, 0.21169154345989227
-0.1866640708290333, 0.40734506175270146, 0.21169154345989227
-0.17606542154280486, 0.3663668358242995, 0.21169154345989227
-0.08179378024337138, 0.38767220205964614, 0.21169154345989227
-0.03425777577588678, 0.3803068192357455, 0.21169154345989227
-0.13908116485272412, 0.40120952971399365, 0.21169154345989227
-0.05337784348579939, 0.37309983609231384, 0.21169154345989227
-0.12532376321962727, 0.4026561931466708, 0.21169154345989227
-0.11014373765906485, 0.3760745517318649, 0.21169154345989227
-0.15599919382252286, 0.39678741959935115, 0.21169154345989227
-0.018411143547171063, 0.386625334153419, 0.21169154345989227
-0.2826307935145419, 0.3962220495456922, 0.21169154345989227
-0.21953308840188135, 0.3756656065326921, 0.21169154345989227
-0.09502293100994172, 0.35742717150743664, 0.21169154345989227
-0.004111382880104562, 0.3626424336868881, 0.21169154345989227
-0.1071848849315325, 0.380283733481686, 0.21169154345989227
-0.04072515168297036, 0.36598829198634103, 0.2116915434598923
-0.11323336110828718, 0.35538915487662415, 0.21169154345989225
-0.04739579642132919, 0.40469806263388697, 0.21169154345989227
-0.12827844223341492, 0.4083306731086178, 0.21169154345989227
-0.4966504231519513, 0.36580102487388333, 0.21169154345989227
-0.49295065059537385, 0.3421456264500075, 0.21169154345989227
-0.45585649478090073, 0.32274517768652444, 0.21169154345989227
-0.4034647442599947, 0.3919675175716063, 0.21169154345989227
-0.5078031293149997, 0.3614100423701654, 0.21169154345989227
-0.5347614642229184, 0.33067591527729195, 0.21169154345989227
-0.530549252786115, 0.3692100290226493, 0.2116915434598923
-0.5233598498151429, 0.3705070763652259, 0.2116915434598923
-0.5221700248377725, 0.36965057289171754, 0.21169154345989227
-0.47567056769451405, 0.3707861506741168, 0.21169154345989227
-0.3962705738920179, 0.36927326973983915, 0.21169154345989225
-0.5738083851568082, 0.35872181162320593, 0.2116915434598923
-0.44364819068048816, 0.3175051030154524, 0.21169154345989227
-0.4233290474680415, 0.39122188476758424, 0.2116915434598923
-0.5774275087038334, 0.3384789131776531, 0.21169154345989227
-0.48551379057536553, 0.33987978106166583, 0.21169154345989227
-0.45801392257724693, 0.37767446798335175, 0.21169154345989227
-0.5373943631019638, 0.33095785525280563, 0.21169154345989227
-0.3890269526165474, 0.33900948236460315, 0.21169154345989227
-0.3740508468762768, 0.4027335586119344, 0.2116915434598923
-0.4251519011351558, 0.3769378940698872, 0.21169154345989225
-0.4842667340308203, 0.3776485001161311, 0.21169154345989227
-0.6121462141514109, 0.4101452644926315, 0.21163621764949764
0.004241105634719133, 0.33884308884951997, 0.20066908781778015
-0.3475302775297965, 0.4106367167640234, 0.2095669688304615
-0.1206658230311336, 0.403319767932406, 0.20073416251683415
-0.05669054294040621, 0.40758289775215306, 0.20588048796672126
-0.02293115341609265, 0.40580152401095926, 0.20373006576339042
-0.0028525352114514044, 0.41097567506211524, 0.21017080698615098
-0.696484386920929, 0.20469293078084178, 0.13024919154005507
-0.6964843869209288, 0.1684900926201547, 0.15100974745728957
-0.696484386920929, 0.19968140784949467, 0.15335857604529923
-0.6964843869209288, 0.17828730310163166, 0.1433812709255634
-0.7007991859060075, 0.15859994292259216, 6.0777155048736875e-05
-0.7067133473561689, 0.1585999429225922, 0.05260398150002973
-0.7134023308753967, 0.16323007710623358, 0.036257147383424004
-0.7134023308753967, 0.19383447664954517, 0.1422519916300835
-0.7134023308753967, 0.17316179163802664, 0.11783680731764003
-0.7134023308753967, 0.16403212513248247, 0.04017875171292973
-0.7134023308753967, 0.17138370213160856, 0.0777940029539557
-0.7131462727619087, 0.1594163540106976, 0.1021659015575345
-0.7078862711658881, 0.15859994292259216, 0.05465488205487866
-0.7003570947781297, 0.15859994292259214, -0.014528497111961355
-0.7073414660390424, 0.15859994292259216, -0.0786461174922852
-0.7038303898088547, 0.15859994292259216, -0.13764529108953238
-0.696484386920929, 0.1760500182752924, 0.05507813134331448
-0.6964843869209291, 0.16164538264505884, 0.11665854313178278
-0.696484386920929, 0.18884553980955343, 0.03543751550888285
-0.6964843869209288, 0.18308169277237443, 0.07592331238311764
-0.696484386920929, 0.17836802278190975, 0.03801992244655607
-0.6964843869209291, 0.20592374216414822, -0.11051801150043221
-0.696484386920929, 0.1817812032662109, -0.05613171769162277
-0.696484386920929, 0.20361768659585786, -0.07419289090156968
-0.696484386920929, 0.20389381828403164, -0.055869778926069355
-0.696484386920929, 0.16797454434773, -0.1273184119083104
-0.696484386920929, 0.17975720748465565, -0.06821111115416169
-0.696484386920929, 0.16851675307481215, -0.1387970111358616
-0.696484386920929, 0.1639049073819894, -0.02243556034471965
-0.696484386920929, 0.1668148568860835, -0.11108875703050046
-0.7134023308753967, 0.18810458894135176, 0.009380728867241549
-0.7134023308753967, 0.1785719439569111, 0.021972719404298215
-0.7134023308753967, 0.20578847189289368, 0.08120961246399885
-0.7134023308753967, 0.17136004178786585, 0.0003314175074035182
-0.7134023308753967, 0.2014998135517051, -0.05326230915606833
-0.7134023308753966, 0.19771336419014246, -0.03918669502016055
-0.7134023308753967, 0.18541926352769486, -0.10993581622609969
-0.7134023308753968, 0.19059314204175468, -0.08376462431365339
-0.7134023308753967, 0.17670045235697177, -0.09932099042092518
-0.7134023308753967, 0.18018972795130106, -0.036099608301355876
-0.7134023308753967, 0.1662488351611196, -0.04205651034474132
-0.7134023308753967, 0.16329483502046416, -0.010732100911140402
-0.7134023308753966, 0.18617293738079504, -0.0014606500301597893
-0.7134023308753967, 0.16273465250457386, -0.0985979155741777
0.6964843869209291, 0.16177198045242058, 0.14814553051973725
0.696484386920929, 0.17333121945266725, 0.09928094437114035
0.696484386920929, 0.16709687046325095, 0.0518557712624854
0.696484386920929, 0.16145315361278023, 0.05804262255624872
0.7009455205194941, 0.15859994292259214, 0.029896092231023214
0.7099122534451359, 0.15859994292259216, 0.0322260738981634
0.7134023308753967, 0.19350419001760025, 0.12696371965411218
0.7134023308753967, 0.189608539559532, 0.1504783169377702
0.7134023308753967, 0.20019787082792284, 0.039057554633551726
0.7134023308753967, 0.19061553254857075, 0.11310024502769468
0.7134023308753967, 0.18883423689504908, 0.07178710300599062
0.7132475923619412, 0.1597141665613361, -0.03995234622732946
0.7076727530788748, 0.15859994292259214, 0.12246917724173753
0.7046865002744409, 0.15859994292259216, -0.03347702386585865
0.7118404430159802, 0.15863471899805806, -0.027068853581772464
0.6985378705861758, 0.1585999429225922, -0.024019665057857135
0.696484386920929, 0.1701897807568348, 0.0011806283476957899
0.6964843869209288, 0.17726912024257296, 0.055184215169129365
0.696484386920929, 0.18091200199758406, 0.013602407805205724
0.696484386920929, 0.20443482347265998, 0.007320751833329446
0.696484386920929, 0.17168327763798824, 0.01538415812798403
0.696484386920929, 0.20624171897375407, -0.033518224548350566
0.696484386920929, 0.20462078780639312, -0.057985201123072046
0.696484386920929, 0.1695200407218417, -0.14771433304327802
0.6964843869209288, 0.2043669852969251, -0.13545096243301674
0.696484386920929, 0.16068510230655658, -0.047555300944531344
0.696484386920929, 0.1802532726145808, -0.06726554685916442
0.696484386920929, 0.16766420100883675, -0.050999883820454
0.696484386920929, 0.18805073666535976, -0.029443003137942104
0.696484386920929, 0.1764686021846465, -0.09591066711030909
0.7134023308753967, 0.1693727265433646, 0.0431607156004834
0.7134023308753967, 0.16851178578909198, 0.03691159837916054
0.7134023308753968, 0.1631612342278084, 0.12115832955459536
0.7134023308753967, 0.18853051424928624, 0.0158568346467252
0.7134023308753968, 0.18692655820303378, -0.061799146525046936
0.7134023308753967, 0.20239224184422638, -0.08844062525372429
0.7134023308753967, 0.20503124984945467, -0.12735342120047505
0.7134023308753967, 0.19598866228490372, -0.036919565449418615
0.7134023308753967, 0.1794779000444043, -0.030179436669496157
0.7134023308753967, 0.17893621698926268, -0.12846904921644894
0.7134023308753967, 0.16452886059329158, -0.06039143773451612
0.7134023308753967, 0.17767386882613864, -0.11147543266090373
0.7134023308753967, 0.18542487153103576, -0.10100254701028566
-0.08656691455855847, 0.723080452177336, 0.15473072230815887
0.6600991512854835, 0.5431920549103056, 0.15473072230815887
0.046423283479278266, 0.6662596795821248, 0.15473072230815887
0.24691937470652078, 0.6428714742639939, 0.15473072230815887
-0.37351805511563296, 0.7627074119914561, 0.15473072230815887
0.7140535522124305, 0.3496976876599095, 0.15473072230815887
0.6872200933375037, 0.42221921547466434, 0.15473072230815887
-0.4898890047574871, 0.7248185509664525, 0.1547307223081589
-0.016863394103859564, 0.6068306174924505, 0.15473072230815887
0.7444359440569492, 0.30547223962127673, 0.15473072230815887
0.43372279538675146, 0.6172279429847359, 0.15473072230815887
-0.17727045520205217, 0.7484075822693609, 0.15473072230815887
0.6300028125247294, 0.710119683338736, 0.15473072230815887
0.6148245688500759, 0.6418492262827191, 0.15473072230815887
0.48735675446307525, 0.5642898729301448, 0.15473072230815887
0.5609621064123367, 0.36811261269529194, 0.15473072230815887
0.5172632796052965, 0.4052544078302352, 0.15473072230815887
-0.7413006290059557, 0.7835891362131107, 0.15473072230815887
0.4698832419608984, 0.6245001327628281, 0.15473072230815887
-0.4933841351254562, 0.7646715310625128, 0.15473072230815887
-0.1636282683448462, 0.5855195497891801, 0.15473072230815887
0.4109816767472395, 0.38344640444057243, 0.15473072230815887
-0.15691717404578312, 0.5826311173104084, 0.15473072230815887
0.4269141987979975, 0.6016900167127326, 0.15473072230815887
0.6677985531320221, 0.6125462879764303, 0.15473072230815887
-0.34377196357586537, 0.7098316693129937, 0.15473072230815887
0.061100780732215254, 0.7845291079718829, 0.15473072230815887
0.5497409488315067, 0.4917372240887937, 0.15473072230815887
0.23223092753410146, 0.5063761728293508, 0.15473072230815885
0.3972452806664004, 0.3853396562495287, 0.15473072230815887
-0.07360073234284101, 0.5411574379222739, 0.15473072230815887
-0.370350238843813, 0.6582761217969244, 0.1547307223081589
0.3893256503402906, 0.7256030902361352, 0.15473072230815887
0.7515750706378457, 0.7016428402714362, 0.15473072230815887
0.19243285065035148, 0.7637150715942995, 0.15473072230815887
-0.04641916360907766, 0.7694999730318794, 0.15473072230815887
0.7643851991658653, 0.422456247991169, 0.15473072230815887
-0.20394591024219746, 0.5855598493348019, 0.1547307223081589
-0.5789757006896404, 0.7486018571677647, 0.15473072230815887
0.49888888987273633, 0.6957680046215065, 0.15473072230815887
0.5113465621070212, 0.42152603595892546, 0.15473072230815887
0.7198717442962208, 0.6548575734181716, 0.15473072230815887
0.42867889343563514, 0.7409776465041102, 0.15473072230815887
0.5843905606710313, 0.6950047465025324, 0.15473072230815887
0.7541018432616062, 0.523235778996455, 0.15473072230815887
0.2904116685493925, 0.42839424742313487, 0.15473072230815887
0.6943327084963513, 0.5021524654669051, 0.15473072230815887
0.46796599157728713, 0.6209229510907341, 0.15473072230815887
0.12702414771557047, 0.7644543578471749, 0.15473072230815887
0.7348994894248249, 0.4014607815641598, 0.15473072230815887
0.208393148926503, 0.7081698579043151, 0.15473072230815887
-0.5998112804459222, 0.7574283306260718, 0.15473072230815887
0.5209048280316059, 0.33391543922815564, 0.15473072230815887
0.14877553081248612, 0.452204049947473, 0.15473072230815887
-0.3283604067642216, 0.7589203207085258, 0.15473072230815887
0.27825138511703074, 0.5114091365860436, 0.15473072230815887
0.6799122973506464, 0.4069013653596881, 0.15473072230815887
0.6771122215696337, 0.2951059510822854, 0.15473072230815887
0.48858840292689254, 0.44791283811723476, 0.15473072230815887
-0.10593537815025576, 0.5562515583280839, 0.15473072230815887
0.4255707486406144, 0.49598648162239184, 0.15473072230815887
-0.3096469042004984, 0.7159164306279214, 0.15473072230815887
-0.6281652552957405, 0.7640603488750166, 0.15473072230815887
0.3925510307163155, 0.7421030619105, 0.15473072230815887
0.727957941430043, 0.40443693617285015, 0.15473072230815887
0.4818354637404397, 0.32756545041769514, 0.1547307223081589
0.670788143057868, 0.628374960418953, 0.15473072230815887
0.30737716790897684, 0.46400352864323086, 0.1547307223081589
0.6705295178250132, 0.4413146590325257, 0.15473072230815887
0.027596707270356277, 0.5496311792062596, 0.15473072230815887
0.6693868311418522, 0.6115925874076584, 0.15473072230815887
0.5834228885973477, 0.6960436094283023, 0.15473072230815887
-0.18997238361155758, 0.6555797662271334, 0.15473072230815887
0.5701561041714664, 0.43034462261071105, 0.15473072230815887
0.5432914883396273, 0.3096255041401752, 0.15473072230815887
-0.7004699365245793, 0.7720204439665385, 0.15473072230815887
0.5290384413830658, 0.512510769947965, 0.15473072230815887
0.2746117807063756, 0.5839415489367881, 0.15473072230815887
-0.23323187147018862, 0.6056345262425612, 0.15473072230815887
0.501184921880602, 0.32817582403162104, 0.1547307223081589
0.30667398667519385, 0.3997820873134403, 0.15473072230815887
0.35246438470862307, 0.47875556918733386, 0.15473072230815887
0.3445307470862415, 0.7231580590357031, 0.15473072230815887
0.4625729728433475, 0.7606867600748846, 0.15473072230815887
0.48932680477302043, 0.7045806939678005, 0.15473072230815887
0.22829356913137086, 0.5222353999065641, 0.15473072230815887
0.62318324635099, 0.7714347682328468, 0.15473072230815887
-0.2965199945351571, 0.7826553069303931, 0.15473072230815887
0.09129133638166109, 0.784379743727499, 0.15473072230815887
0.5750146596549734, 0.7274531714060896, 0.15473072230815887
-0.5527159800546393, 0.7751706641369701, 0.15473072230815887
-0.10043825712652954, 0.6517356383889383, 0.15473072230815887
0.5943104466782987, 0.45231237816950554, 0.15473072230815887
0.6476833425750219, 0.6884848710136809, 0.15473072230815887
-0.2139752922604735, 0.7160711416780228, 0.15473072230815887
0.5186728359043868, 0.45769181179515683, 0.15473072230815887
-0.4639466177229365, 0.6933934822754703, 0.15473072230815887
-0.38889219717991613, 0.7398893390915274, 0.15473072230815887
0.6099023130227861, 0.4774828548087307, 0.15473072230815887
0.5353316388981348, 0.3142071352857986, 0.15473072230815887
0.2670022559299252, 0.6253815090189323, 0.15473072230815887
0.035349347713614476, 0.6763355186198898, 0.15473072230815887
0.38145842600266333, 0.44536425498168425, 0.1547307223081589
0.7348241487678346, 0.7537391785608822, 0.15473072230815887
0.08859625111463593, 0.674765767385457, 0.15473072230815887
-0.17577963680399328, 0.605945379936211, 0.15473072230815887
0.03279246919960904, 0.6689667691765815, 0.15473072230815887
0.6518988345187829, 0.6587978698761903, 0.15473072230815887
-0.1813863319417355, 0.6701436588124334, 0.15473072230815887
0.34311705606173915, 0.6666730510411604, 0.15473072230815887
0.05444667619406379, 0.7522439326374175, 0.15473072230815887
0.746788265954687, 0.5390117644279246, 0.15473072230815887
-0.11507660415940965, 0.5680764762737887, 0.15473072230815887
0.6820502382999662, 0.31572512530505425, 0.15473072230815887
0.40581079627107547, 0.4179052529050953, 0.15473072230815887
0.6104484829901053, 0.30945614609803856, 0.15473072230815887
0.5019013528155952, 0.7681673989944193, 0.15473072230815887
0.15923944588390276, 0.6466543596831549, 0.15473072230815887
0.42574043570141773, 0.5665473566353373, 0.15473072230815887
0.4352234412868435, 0.7253642204991657, 0.15473072230815887
0.4425913541900911, 0.6198786651827769, 0.15473072230815887
0.6668513070189761, 0.5407581645529731, 0.15473072230815887
0.21864783971408058, 0.6537657905769438, 0.15473072230815887
-0.09986298906691884, 0.637197354299182, 0.15473072230815887
-0.008544019184384577, 0.7645639875955492, 0.15473072230815887
0.13474020476784887, 0.6072949279045924, 0.15473072230815887
0.7364436696220564, 0.4728345686419849, 0.15473072230815887
0.2829498804397115, 0.5714360064411407, 0.15473072230815887
0.7129316780343866, 0.785539771964274, 0.15473072230815887
0.16606142501409954, 0.4632924140928864, 0.15473072230815887
0.736497137948833, 0.25460236622420157, 0.15473072230815885
0.7599462011248197, 0.7211709579143257, 0.15473072230815887
0.45125782941868076, 0.44177382204021876, 0.15473072230815887
0.6592326552140141, 0.39279028787925696, 0.15473072230815887
-0.44655636477605776, 0.704457723832201, 0.15473072230815887
-0.31477640352231945, 0.6978263119609895, 0.15473072230815887
0.5817174729034829, 0.6711076392555521, 0.15473072230815887
0.6649392968307233, 0.6748670963194578, 0.15473072230815887
0.6823920324548565, 0.45318987612768563, 0.15473072230815887
0.502642261678582, 0.4902485888255067, 0.15473072230815887
0.7667243535759584, 0.46388894252890567, 0.1547307223081589
-0.05035388260962642, 0.6803104138519752, 0.15473072230815887
0.35457571563611257, 0.48202779382700933, 0.15473072230815887
0.5762393574630663, 0.33980852712938225, 0.1547307223081589
0.24859272559706833, 0.6157565851523785, 0.15473072230815887
0.43966099611428927, 0.6455573520961908, 0.15473072230815887
0.6262296907423841, 0.746603817682942, 0.15473072230815887
0.7197549127243621, 0.503580025626014, 0.15473072230815887
0.6074024384999595, 0.743686372043636, 0.15473072230815885
0.5233387606622623, 0.709479010160579, 0.15473072230815887
0.5917370078585936, 0.672983449476853, 0.15473072230815887
-0.14832960098259895, 0.710592100749784, 0.15473072230815887
0.48896933066739395, 0.7074381332146968, 0.15473072230815887
0.17801294934675693, 0.7047181780115725, 0.15473072230815887
-0.27048965242953144, 0.679519682196746, 0.1547307223081589
-0.060462294377689685, 0.7422303984803745, 0.15473072230815887
-0.13511418831862915, 0.6226968924606913, 0.15473072230815885
0.6128565653827589, 0.6652112038928736, 0.15473072230815887
-0.024054324533558907, 0.6591449125511329, 0.15473072230815887
0.6472846788434257, 0.45468267237656806, 0.15473072230815887
0.7058831963121868, 0.2955690102955769, 0.15473072230815887
0.312561827309283, 0.7122465454541886, 0.15473072230815887
-0.2530573847993904, 0.6534066350613663, 0.15473072230815887
0.5798132047381042, 0.5334092046410132, 0.15473072230815887
0.6914609282350096, 0.38921901173311446, 0.15473072230815887
-0.4376258964097036, 0.7413073854341785, 0.15473072230815887
0.13712808498455317, 0.5887301196221928, 0.15473072230815887
0.2520644096388973, 0.6841449591592371, 0.15473072230815887
0.42844413140780946, 0.7434038649257426, 0.15473072230815887
0.025771146596079653, 0.5993997062038573, 0.15473072230815887
0.43000523754885484, 0.4943999861618214, 0.1547307223081589
0.44586200364576956, 0.669210652334341, 0.15473072230815887
0.7013390747659906, 0.6846911566512872, 0.15473072230815887
0.1174725096525808, 0.5607526603609048, 0.15473072230815887
0.7500967448929564, 0.26122990619198355, 0.15473072230815887
0.718947631107655, 0.4768376223899742, 0.15473072230815887
0.7670765704519489, 0.4898322860903358, 0.15473072230815887
-0.2027302861378069, 0.7323398904053672, 0.15473072230815887
-0.08369260961676517, 0.6311605027475278, 0.15473072230815887
0.5454823298982042, 0.747462499741123, 0.15473072230815887
0.23318794601262682, 0.5963670663627156, 0.15473072230815887
0.7285747983519878, 0.5068942665664714, 0.15473072230815887
0.15128319785064887, 0.7849519380108585, 0.15473072230815887
-0.6640301879384859, 0.7530643515018631, 0.15473072230815887
0.5435738018402915, 0.7147589510578651, 0.15473072230815887
0.36548125460039904, 0.4500343894096064, 0.15473072230815885
0.7035336965586059, 0.42419698803947203, 0.15473072230815887
0.47786098579690095, 0.7849989123509453, 0.15473072230815887
0.10864967794935855, 0.5300724499507431, 0.15473072230815885
-0.6325960340030639, 0.7665651875561592, 0.15473072230815887
0.6993734895088021, 0.4381120077822028, 0.15473072230815887
0.08037833667438576, 0.7338367088484814, 0.15473072230815887
0.6120871900667507, 0.6201233170664309, 0.15473072230815887
0.05106478127963157, 0.6656771047227914, 0.15473072230815887
0.49528483252598954, 0.6312194828701531, 0.15473072230815887
0.25481534461206357, 0.5967031841334315, 0.15473072230815887
0.2742706034090186, 0.5510238618308378, 0.15473072230815887
0.5824339231608746, 0.7844566194504415, 0.15473072230815887
0.4154224836177455, 0.44287754823837117, 0.15473072230815887
-0.3860910314411837, 0.6693805042024596, 0.15473072230815887
0.5856558628939308, 0.5690171480253957, 0.15473072230815887
0.12563144635056858, 0.6600821555688996, 0.15473072230815887
-0.23653373369320158, 0.7590941770806139, 0.15473072230815887
0.6051785106100449, 0.6376412359186896, 0.15473072230815887
0.019320263629683018, 0.5163987562919681, 0.1547307223081589
0.21438913254619718, 0.5227620741427419, 0.15473072230815887
-0.008595459545730821, 0.7120256780975387, 0.15473072230815887
-0.08627642601172536, 0.6065947814183529, 0.15473072230815887
0.7596513205263203, 0.6404568510088476, 0.15473072230815887
-0.04923683370513593, 0.7447445370744563, 0.15473072230815887
0.44816421644250337, 0.6334514527806573, 0.15473072230815887
0.48682251847846086, 0.4245566264440885, 0.15473072230815887
-0.5313399882758907, 0.7796154091428533, 0.15473072230815885
0.42914200846055306, 0.5490209767229083, 0.15473072230815887
0.6931458680496612, 0.4715845123859715, 0.15473072230815887
0.524459883993118, 0.45941738495973683, 0.15473072230815887
0.4018023347987456, 0.6240568860066447, 0.15473072230815887
0.119977707025621, 0.6468754312270557, 0.15473072230815887
-0.6838901117822987, 0.7729257832517932, 0.1547307223081589
0.7499969762794041, 0.360069522834606, 0.15473072230815887
0.43581250102983116, 0.43865312696665554, 0.15473072230815887
0.24314947102641635, 0.5096025173211529, 0.15473072230815887
-0.34270195837147177, 0.7265841472666916, 0.15473072230815887
0.07129633596292162, 0.7574541260967884, 0.15473072230815887
0.7339565496591249, 0.5524980027847476, 0.15473072230815887
0.24193261915304157, 0.6855690866787415, 0.15473072230815887
0.386287762496966, 0.6386248125535849, 0.15473072230815887
0.7286667954070852, 0.3371066857266336, 0.15473072230815887
0.3758083598791675, 0.4002821436208706, 0.15473072230815887
-0.04395318285193123, 0.7296756947994467, 0.15473072230815887
0.34925724610356634, 0.7311554747276829, 0.15473072230815887
-0.361125654772677, 0.669715905323604, 0.15473072230815885
0.5706653896807484, 0.49770054756653825, 0.15473072230815887
0.534688298793657, 0.5830314919590909, 0.15473072230815887
0.41925243334703166, 0.74976706290524, 0.15473072230815887
0.5665047976166495, 0.3207061387290913, 0.15473072230815887
0.22822179456798655, 0.7561718432392736, 0.15473072230815887
-0.07852005007354516, 0.5843700480275373, 0.1547307223081589
0.7234911610081473, 0.7665979844291887, 0.15473072230815887
0.5340475898944046, 0.5469494607190724, 0.15473072230815887
-0.13700230701847677, 0.7502159679082161, 0.15473072230815887
0.5334265947885172, 0.7533524563999876, 0.15473072230815887
0.6336736128112912, 0.7057063012299177, 0.15473072230815887
-0.4393140748729155, 0.7768058342697541, 0.15473072230815887
-0.2671062188533806, 0.6165076352634505, 0.15473072230815887
0.46880665377016073, 0.5009916479075479, 0.15473072230815887
0.7389291377926089, 0.6796036445291394, 0.15473072230815887
0.21601824017191146, 0.6683562724562326, 0.15473072230815887
0.7277249892252442, 0.6684274871312966, 0.15473072230815887
0.6471862034804815, 0.5088005696530454, 0.15473072230815887
0.1977113893817644, 0.5824647663446347, 0.15473072230815887
0.2803051485919016, 0.5425517886708084, 0.1547307223081589
0.48068077942462223, 0.5746089016947911, 0.15473072230815887
0.1989520940349419, 0.48710310512146804, 0.15473072230815887
-0.358766740059268, 0.6671986071944052, 0.1547307223081589
0.7431619588464498, 0.4449594873223649, 0.15473072230815887
-0.40159769996914463, 0.7344120704691817, 0.15473072230815887
0.07387994164603554, 0.6141357358733763, 0.15473072230815887
0.41672018823050333, 0.7078273893135794, 0.15473072230815887
0.25175197969377494, 0.7132097031787099, 0.15473072230815887
0.2822501722482073, 0.7457243959529098, 0.15473072230815887
0.6409828751042859, 0.5976694616910131, 0.15473072230815887
0.054079048412113306, 0.5507729154103802, 0.1547307223081589
0.2635118105703759, 0.41196296204582816, 0.15473072230815887
0.4924856898812111, 0.32415188355719565, 0.15473072230815887
0.1533233210715292, 0.5474453126202259, 0.15473072230815887
0.17194273154532602, 0.5353274287649371, 0.15473072230815887
-0.512585017780618, 0.7837823133975165, 0.15473072230815887
0.43691432705977346, 0.7592034056385295, 0.15473072230815887
0.7646172541573539, 0.636827942758853, 0.15473072230815887
0.6833632001116057, 0.6558630987885512, 0.15473072230815887
-0.06579298098862221, 0.6493244685445985, 0.15473072230815887
0.7134487352442674, 0.32834999461516423, 0.15473072230815887
0.11672921466152056, 0.5686035028646232, 0.15473072230815887
0.3713092719454933, 0.670018385761834, 0.15473072230815887
0.431011316851975, 0.6667630146186769, 0.15473072230815887
-0.06343229292162325, 0.6795911688721533, 0.15473072230815887
0.0732432265105529, 0.6478562400108285, 0.15473072230815887
0.6972689077088781, 0.6883982046542282, 0.15473072230815887
-0.062100111466999966, 0.530481703757565, 0.15473072230815887
0.49287305990279145, 0.6918808455515679, 0.15473072230815887
-0.021918084481350686, 0.6878114203043507, 0.15473072230815887
0.7002540369818568, 0.6743895206665647, 0.15473072230815887
-0.08110852451904255, 0.5335795646451882, 0.1547307223081589
0.3954272371855634, 0.7653596791025852, 0.15473072230815887
0.05256056819537605, 0.6560587614176644, 0.15473072230815887
-0.4689290206022009, 0.724100186881345, 0.15473072230815885
0.39693767700015975, 0.681635404392148, 0.15473072230815887
0.4377326228284162, 0.5006160170263538, 0.15473072230815887
-0.48561658143367614, 0.743916493201985, 0.15473072230815885
0.5519107262537214, 0.6357857247011989, 0.15473072230815887
0.5935312869857324, 0.3518208355564151, 0.15473072230815887
0.32065967058471284, 0.483542348687805, 0.15473072230815887
0.5934494089997053, 0.3052806247406531, 0.15473072230815887
0.5856344302664591, 0.7785661561699851, 0.15473072230815887
-0.031927837976341494, 0.6735556847673836, 0.15473072230815887
0.37723034502135333, 0.5824198529663082, 0.15473072230815887
0.4273555361733662, 0.5522576720613448, 0.15473072230815887
-0.22536584164208687, 0.6533163875455926, 0.15473072230815887
0.29023332488961956, 0.4743639336056207, 0.15473072230815887
0.7364167236218111, 0.5564595298061783, 0.15473072230815887
0.6844133791795067, 0.3400032093462096, 0.15473072230815885
0.7140469110226736, 0.6122858636079156, 0.15473072230815887
-0.1895799910502813, 0.5789837542339484, 0.15473072230815887
0.6315789431264135, 0.6184355008224769, 0.15473072230815887
0.02463220097385571, 0.6625860883757387, 0.15473072230815887
0.21891908533097937, 0.7091953500046504, 0.15473072230815887
0.5007319904388361, 0.6952526947731549, 0.15473072230815887
0.5519060327933053, 0.740051970031418, 0.15473072230815887
0.5328756740204005, 0.5370186127257152, 0.15473072230815887
-0.5346616508042857, 0.7543286036065324, 0.15473072230815887
-0.5124167944341331, 0.7265938130424553, 0.1547307223081589
-0.3126932918909802, 0.7266195075389856, 0.15473072230815887
0.4779680174925065, 0.6726111773850969, 0.15473072230815887
-0.13603101693055913, 0.7362454774901626, 0.15473072230815887
0.5407835955193465, 0.5224492450545142, 0.15473072230815887
0.42501888348841554, 0.6197402807617758, 0.15473072230815887
0.45271484114040433, 0.7320415088050751, 0.15473072230815887
-0.06408658910027215, 0.7772907620494061, 0.15473072230815887
-0.5254890803569499, 0.7445703071704846, 0.15473072230815887
