-0.22559650555375058, 0.9782844579703434, 0.20795372128486633
-0.1364617780520321, 0.9588497841740639, 0.20795372128486633
-0.205671814089992, 0.9882720423317439, 0.20795372128486636
-0.09495129013047111, 0.9309710722036848, 0.20795372128486633
-0.1829878426877091, 0.9691228255438185, 0.20795372128486633
-0.21277159518882235, 0.9501058271812071, 0.20795372128486633
-0.17790768372262078, 0.9298079323826759, 0.20795372128486633
-0.003965358715504408, 0.8410966169324203, 0.20515586760807406
-0.44925260693378816, 0.9954383279611263, 0.2079537212848663
-0.35739434741437065, 0.9891390960205347, 0.20795372128486633
-0.40552296373301505, 0.9880807610132113, 0.20795372128486633
-0.40104895704743176, 0.9997993984592592, 0.20795372128486633
-0.33534213227046505, 0.9960280552242073, 0.20795372128486633
-0.3270257713466396, 0.9696251395420381, 0.20795372128486633
-0.2602759576498578, 0.9504898383766108, 0.20795372128486633
-0.31626897310629765, 0.9598400809604228, 0.2079537212848663
-0.3581617214997403, 0.9680141484679202, 0.20795372128486633
-0.24003421417284415, 0.9323214513644807, 0.20795372128486633
-0.24314013422987424, 0.9662103103918822, 0.20795372128486633
-0.4224707683686329, 0.9888949371712545, 0.20795372128486633
-0.2598507946535473, 0.9198712721611227, 0.20795372128486633
-0.34394251024978484, 0.8833844933612907, 0.20795372128486633
-0.31032477046205015, 0.9014743940943473, 0.20795372128486633
-0.3679440345593604, 0.8967702481205528, 0.20795372128486633
-0.3690377298756208, 0.9196311673894758, 0.20795372128486633
-0.34864192641703917, 0.8828272841548911, 0.20795372128486633
-0.27280254418866756, 0.8615993312327503, 0.20795372128486633
-0.2588110708441015, 0.9093853456384728, 0.20795372128486633
-0.36180883575843004, 0.8807078808806648, 0.2079537212848663
-0.2747686874902381, 0.9139750398155471, 0.20795372128486633
-0.2902054472184161, 0.9194612973558948, 0.20795372128486633
-0.25654661944530216, 0.8608137043276071, 0.20795372128486633
-0.3521310762346374, 0.9216892614162897, 0.20795372128486633
-0.2952248610414997, 0.9238246472410009, 0.20795372128486633
-0.3361414656338776, 0.9058803917052358, 0.20795372128486633
-0.47105070948600775, 0.9287518729770498, 0.20379246774050339
-0.4710507094860077, 0.8936160034487798, 0.20442127204766178
-0.042948381605318345, 0.837919298667406, 0.19593755335199298
-0.11164428924627616, 0.8351725934660683, 0.19925330360739638
-0.07115297866498273, 0.8389571997010692, 0.19468462653051383
-0.1492291268521416, 0.8292587738313699, 0.20682477986514367
-0.29760097035253924, 0.8356650137340509, 0.19865886681507725
-0.2440092600700731, 0.8415308236596255, 0.19157781539776478
-0.25775807545196966, 0.832637663880661, 0.2023134039108981
-0.14641202078070387, 0.8412532151495019, 0.20795372128486633
-0.17706776387550052, 0.8427302092054106, 0.20795372128486633
-0.23465026448183662, 0.8931737484413321, 0.20795372128486633
-0.20299111278404086, 0.8417839185335303, 0.20795372128486633
-0.13443267356929137, 0.8633916850856033, 0.20795372128486633
-0.16548382839544987, 0.843534396172402, 0.20795372128486633
-0.13878476849275156, 0.8396900122328683, 0.20795372128486633
-0.17751300639228929, 0.883978931936699, 0.2079537212848663
-0.1502115250054044, 0.8524827420512517, 0.20795372128486633
-0.07999740810009273, 0.8402291745834846, 0.2079537212848663
-0.03675292711223758, 0.8320214546392944, 0.20795372128486633
-0.19376086734265074, 0.8470869520053652, 0.20795372128486633
-0.07081206844355739, 0.8497580133112658, 0.20795372128486636
-0.1835036587289415, 0.8887941315257264, 0.20795372128486633
-0.20545875117752577, 0.8762978396220583, 0.20795372128486633
-0.43030436156886476, 0.8467309979398265, 0.20795372128486633
-0.4437255413576913, 0.8470518474311804, 0.20795372128486633
-0.3438423757649738, 0.858896155909435, 0.20795372128486636
-0.4159120030268522, 0.8338272750093834, 0.20795372128486633
-0.26042449546478724, 0.8327915748631921, 0.20795372128486636
-0.4425057047021526, 0.8983740591051281, 0.20795372128486636
-0.35879358174306764, 0.8634298314692005, 0.20795372128486633
-0.461889269410426, 0.8656482329098778, 0.20795372128486633
-0.4681204877150885, 0.883898323596469, 0.20795372128486633
-0.32371281872870333, 0.8439685821917783, 0.20795372128486633
-0.4179298262447187, 0.8337274744973351, 0.20795372128486633
-0.3663466888624439, 0.8365671283301226, 0.20795372128486633
-0.406173298322825, 0.8591055743452412, 0.20795372128486633
-0.29258369271382895, 0.8332941242709886, 0.20795372128486633
-0.4560462819061515, 0.8408979490361743, 0.20795372128486633
-0.181814115084075, 0.830329180133834, 0.20794293190493748
-0.47096015941298675, 0.8923380172476822, 0.20664105606130934
-0.408496178248813, 0.8327895957812005, 0.2021299957177755
-0.39689507746075514, 0.8340415351766429, 0.2006186874171375
-0.3482411772584304, 0.8341796124598441, 0.2004520041535615
-0.032488862846461186, 1.006186673461242, 0.15473072230815887
0.44757662515953445, 0.5231987305173298, 0.15473072230815887
0.24891351548549498, 0.5620913637822383, 0.15473072230815887
-0.08291111888060003, 0.8687575794831486, 0.15473072230815887
0.2955788103139681, 0.48516061469352645, 0.15473072230815885
0.4461389717550154, 0.720305352460539, 0.15473072230815887
-0.03587680606645546, 0.8482171984175637, 0.15473072230815887
0.24110622442344248, 0.7414051704240688, 0.15473072230815887
-0.14342310287116766, 0.8719013280025242, 0.15473072230815885
0.0006936198408346722, 0.7615192193632654, 0.15473072230815887
0.4410848030851016, 0.6445109869195278, 0.15473072230815887
-0.15447059379585582, 1.009129282747185, 0.15473072230815887
0.041068340711358814, 0.9697860851059998, 0.15473072230815887
0.2467403258754407, 0.6247512205988552, 0.15473072230815887
-0.24878405530058453, 0.9232261935247801, 0.15473072230815885
0.2290758316821272, 0.9450894178152024, 0.15473072230815887
0.16918436292201663, 0.502875196285096, 0.15473072230815885
0.19555020692070535, 0.7116573927227359, 0.15473072230815887
-0.44026378944148453, 0.9996912478724632, 0.15473072230815887
0.2672905188219991, 0.39458835237136974, 0.15473072230815887
0.3490150042229018, 0.847004917816029, 0.15473072230815887
0.04770456498019236, 0.7649491541683344, 0.15473072230815887
0.11259999365099561, 0.6653456220229753, 0.1547307223081589
-0.3338999954600701, 0.9427589861123219, 0.15473072230815887
-0.08561599127827786, 0.830649379039758, 0.15473072230815885
-0.1708429440695259, 0.7703114923750766, 0.15473072230815887
0.38201610574977246, 0.9396161835794445, 0.15473072230815887
0.457306143478098, 0.8322835421421332, 0.15473072230815887
0.4680291685739755, 0.5231617212430321, 0.15473072230815887
0.3605963745375346, 0.9302157359986314, 0.15473072230815887
0.28475931802470744, 0.9665758328224113, 0.15473072230815887
0.4479559406596375, 0.34969266150153466, 0.15473072230815887
0.408740364177847, 0.9606093753421984, 0.15473072230815887
0.4305538986370701, 0.7373430379291122, 0.15473072230815887
0.4427993972180063, 0.3789664156847872, 0.15473072230815885
0.40583228147947953, 0.3027651890065103, 0.15473072230815887
0.23250892762773384, 1.00499492403525, 0.15473072230815887
0.2007591628690303, 0.718771623296776, 0.15473072230815887
0.19759081410726861, 0.6931320316597668, 0.15473072230815887
0.465482647997119, 0.8904830870637261, 0.15473072230815887
0.39803590640580777, 0.9742511838393204, 0.15473072230815887
-0.02360400010187949, 1.010541814462901, 0.15473072230815887
0.1007052536729936, 0.9280235960917939, 0.15473072230815887
0.27605103859065877, 0.5820400795758527, 0.15473072230815887
0.4097423157307941, 0.3984492033293522, 0.15473072230815887
0.07643891416247109, 0.7593435859725146, 0.15473072230815887
0.34476288516121023, 0.7618069812818584, 0.15473072230815887
-0.27342222783038544, 0.8492597136239164, 0.15473072230815887
-0.01576141090136164, 0.7970814380230347, 0.15473072230815887
0.05579544016450774, 0.9893944928252225, 0.15473072230815887
0.29490964657268504, 0.6363721930413218, 0.15473072230815887
0.40038363527794385, 0.7203963414680004, 0.15473072230815887
-0.15937033191079344, 0.7608756004122111, 0.15473072230815885
0.3160352595854642, 0.9397907911887743, 0.15473072230815887
0.3190554335211171, 0.39280767427795116, 0.15473072230815885
0.3897800090063305, 0.7626699276661584, 0.15473072230815887
0.03392443473685113, 0.6538319132100184, 0.15473072230815887
0.16709849633444854, 0.9299332548586072, 0.15473072230815887
-0.27353093277781765, 0.936959402486893, 0.15473072230815887
0.42465568408371573, 0.7163158855943118, 0.15473072230815887
0.47448005219217115, 0.5475432103723116, 0.15473072230815887
0.3422857884715472, 0.9912701089261516, 0.15473072230815887
0.22248948148769238, 0.777257052161133, 0.15473072230815887
-0.37446434880963975, 0.9278529916803725, 0.15473072230815885
0.08862710380417121, 0.556962466592259, 0.15473072230815887
0.2191756645795437, 0.7572361193873018, 0.15473072230815887
0.4431863311412157, 0.2897847071283537, 0.15473072230815887
0.2905292909649732, 0.6819761132589042, 0.15473072230815887
0.27741661009344154, 0.9198962580633008, 0.15473072230815887
0.03045053203397516, 0.8829881845292727, 0.15473072230815887
0.14722066110520068, 0.6927996712074072, 0.15473072230815887
0.27188671341996007, 0.9268206084962195, 0.15473072230815887
-0.051069902445220416, 0.9893836180707996, 0.15473072230815887
0.3408761170715912, 0.5899110572926601, 0.15473072230815887
0.3793538517396894, 0.307087884199972, 0.15473072230815887
0.4748620584707697, 0.6406400353721294, 0.15473072230815887
0.24590626724269396, 0.4869004778544284, 0.15473072230815887
-0.07705391815891657, 0.7314590616537329, 0.15473072230815887
-0.03248833021723199, 0.8042792127029634, 0.15473072230815887
0.3265866106861364, 0.6782278863849966, 0.15473072230815887
0.1142994459772437, 0.5250154366301669, 0.15473072230815887
-0.29192427230768236, 0.8616667922057378, 0.1547307223081589
-0.07229233878088218, 0.9213221678998693, 0.15473072230815887
0.22416839689155582, 0.6836446995276036, 0.15473072230815887
0.3335334275604047, 0.46003078433065503, 0.15473072230815887
-0.06237552221741889, 0.7372477436100766, 0.1547307223081589
0.20946194090957104, 0.4758858925984129, 0.15473072230815887
0.06929648103674838, 0.7662200985509544, 0.15473072230815887
0.1984195379035014, 0.6984856047421898, 0.15473072230815887
0.37699945732300555, 0.5447245554368061, 0.15473072230815887
-0.41789359215414135, 0.9777643544294625, 0.1547307223081589
-0.2003049981663536, 0.9511375584991668, 0.15473072230815887
0.47700415311623057, 0.7948286324925339, 0.15473072230815887
0.4445624859454073, 0.2627801296281881, 0.15473072230815885
-0.034340838525999895, 0.9789991894581535, 0.15473072230815887
0.3233498682981187, 0.7763504657437527, 0.15473072230815887
0.09259960460091769, 0.6995013564240556, 0.15473072230815887
0.35380503061210333, 0.32024297344983527, 0.1547307223081589
-0.0021446150420709603, 0.7856894051672716, 0.15473072230815887
-0.28054308103539916, 0.9430942943673511, 0.15473072230815887
-0.2392593643816074, 0.8557556832826478, 0.1547307223081589
-0.39461235512195664, 0.9700878727295688, 0.15473072230815885
0.308345958293003, 0.8581674226502443, 0.15473072230815887
0.0698152653119935, 0.766617160869957, 0.15473072230815887
0.16040105648506195, 0.6595754643558622, 0.15473072230815887
0.25437901871561985, 0.5884286047191494, 0.15473072230815887
0.4657063196545434, 0.28350809790435794, 0.15473072230815885
0.4279977588086623, 0.5777621963143491, 0.1547307223081589
0.328196100942327, 0.9772754537559843, 0.15473072230815887
0.3828996433073711, 0.8805274958762941, 0.15473072230815887
0.4784677808601767, 0.7561434475458084, 0.15473072230815887
0.4547030840528041, 0.40399233520528044, 0.15473072230815887
-0.08477085573631553, 0.750702255737467, 0.15473072230815887
-0.28842402851710086, 0.9354343690880504, 0.15473072230815887
-0.012306625821958683, 0.8467524107220513, 0.15473072230815887
0.0966370771344619, 0.5298749408128347, 0.15473072230815887
0.029603174937412477, 0.6889108850664539, 0.15473072230815887
0.027771968344705494, 0.9045811228339079, 0.15473072230815887
0.2769647928502229, 0.9155535782630893, 0.15473072230815887
0.4003823556593486, 0.5127851396920889, 0.15473072230815887
0.08212154281988356, 0.8655938637433681, 0.15473072230815887
0.1278409232665807, 0.8485901467442881, 0.15473072230815887
0.3593271356040231, 0.44726761742344856, 0.15473072230815887
0.4683514178562509, 0.8538435995022085, 0.15473072230815887
0.3830360419794784, 0.5392620461349962, 0.15473072230815887
0.19222421369794152, 0.5551360810402441, 0.15473072230815887
0.46952973552870886, 0.7443683281235924, 0.15473072230815887
-0.17777541548345488, 0.8444101449489253, 0.15473072230815887
-0.26551260326635506, 0.9392244471087494, 0.15473072230815887
0.040196447413193614, 0.8002557737735028, 0.15473072230815887
0.41106730169587047, 0.7414055316740691, 0.15473072230815887
-0.21528016361615815, 0.8271941573609873, 0.15473072230815887
0.39523532239526293, 0.6757101359813131, 0.15473072230815887
0.4646434710784002, 0.5036617602140969, 0.15473072230815887
0.1185924281487945, 0.9233962503345967, 0.15473072230815887
-0.1763941037856805, 0.9069857720877321, 0.15473072230815887
0.27041611251126935, 0.41482381474452884, 0.15473072230815887
0.4537135543023107, 0.7252159984480288, 0.15473072230815887
0.36546600828422166, 0.5322031292631634, 0.15473072230815887
-0.21436456524754627, 0.990731831009555, 0.15473072230815887
0.3850684171992586, 0.5944999277898898, 0.15473072230815887
0.2613382038576618, 0.3932148842808059, 0.15473072230815887
-0.33386887421246525, 0.9404337773198449, 0.15473072230815887
0.45806393276697, 0.8725713721564837, 0.15473072230815887
0.16555094407395865, 0.5990938506319818, 0.15473072230815887
0.014949682312766138, 0.9048759772541874, 0.15473072230815887
0.17778256217101993, 0.5013003095761341, 0.15473072230815887
0.05808969767019917, 0.8033001025860138, 0.15473072230815887
0.47650389335399973, 0.5874543906230145, 0.15473072230815887
0.0668036692201255, 0.8350611451214889, 0.15473072230815887
0.42624364989053387, 0.7808239102018487, 0.15473072230815887
0.31582100991676576, 0.41153120849342784, 0.15473072230815887
0.2124574068178787, 0.4854705672538396, 0.15473072230815887
0.4257845974190619, 0.5223688435263467, 0.15473072230815887
0.19105937196213033, 0.5171496767862896, 0.15473072230815887
-0.008851107874627312, 0.7539727479908922, 0.15473072230815887
0.09022395283906517, 0.8634151440876923, 0.15473072230815887
0.32725971092396766, 0.4380462141229735, 0.15473072230815887
-0.1739240501626679, 0.840382166739497, 0.15473072230815887
-0.4112861902491955, 1.000861579353264, 0.15473072230815887
0.038170636052797996, 0.7891625380455456, 0.15473072230815887
-0.0968518761688105, 0.911001660677434, 0.15473072230815887
0.1665877552452974, 0.8084928887709397, 0.15473072230815887
-0.10654154265885302, 0.9667023588253258, 0.15473072230815887
-0.03189850923673895, 0.8853424471846654, 0.15473072230815887
0.21390893557265295, 0.8235153031444022, 0.15473072230815887
0.30323520207443744, 0.7558134335406781, 0.15473072230815887
-0.2391299517047304, 0.8807067204045254, 0.15473072230815885
0.08293746632054005, 0.5514475233345428, 0.15473072230815887
0.28247340035078594, 0.8368724548727163, 0.15473072230815887
0.14984483172269925, 0.9573607640008934, 0.15473072230815887
-0.23773502213976933, 0.831345861221336, 0.15473072230815887
-0.2543711655010932, 0.9418477651588255, 0.15473072230815887
0.2689632262971349, 0.46572130482012586, 0.15473072230815887
0.0009070072501204951, 0.7180574285603516, 0.15473072230815887
0.42894597614745744, 0.9640273295479109, 0.15473072230815887
0.05782960915560428, 0.576961198605599, 0.15473072230815887
0.3194972303050178, 0.8780747554565439, 0.15473072230815887
0.43514189605984555, 0.9885159766617212, 0.1547307223081589
0.1962688130670292, 0.5287810668804265, 0.15473072230815887
0.15809844925755, 0.8319590411542147, 0.15473072230815887
-0.24464255635518772, 0.9314969776035467, 0.15473072230815887
0.3834670166027741, 0.9179022236330601, 0.15473072230815887
-0.10243557231671205, 0.9818346764895365, 0.15473072230815887
0.042164977552926114, 0.791760440245816, 0.15473072230815887
0.14849517134759252, 0.5101328652724058, 0.15473072230815887
0.4102763607801021, 0.3606754923198813, 0.15473072230815885
0.3567759803817278, 0.862948299233632, 0.15473072230815887
0.10803604079059143, 0.7077247036394495, 0.15473072230815887
0.3777748245839379, 0.5758172047631561, 0.15473072230815887
-0.030894154016950143, 0.9453922801037398, 0.15473072230815887
0.05634711074947553, 0.7012035944016412, 0.15473072230815887
-0.17871671741481, 0.8818893014808984, 0.15473072230815887
0.44881754870760415, 0.4034111146295894, 0.15473072230815887
0.04836246364674794, 0.7390764072484785, 0.15473072230815887
0.1211063804460655, 0.9638202249446195, 0.15473072230815887
0.3950502444520555, 0.3991188520932268, 0.15473072230815887
0.1636435699474684, 0.8896324193496374, 0.15473072230815887
0.19367047272950788, 0.8880775064948075, 0.15473072230815887
0.121922242530169, 0.7974414737038045, 0.15473072230815887
0.2530957245791572, 0.8599427078054538, 0.15473072230815887
0.37998750452046764, 0.6894725418176328, 0.15473072230815887
-0.10625111565496138, 0.8638615749279491, 0.15473072230815887
0.013731432068869898, 1.0008053539460453, 0.15473072230815887
0.2659348215506411, 0.7680205569399372, 0.15473072230815887
0.47558988051530116, 0.39507481575669245, 0.15473072230815887
0.1667824309400775, 0.8035784770282545, 0.15473072230815887
-0.26769923970411924, 0.8656723435206707, 0.15473072230815887
-0.31086499521108973, 0.9841529884244586, 0.15473072230815887
0.10268015360914906, 0.5892033301708006, 0.15473072230815887
0.09250391129242332, 0.6490253441889731, 0.15473072230815887
0.1903730145371793, 0.536891104769581, 0.15473072230815887
-0.20078067756233348, 0.8568865700619891, 0.15473072230815887
0.37509365089200253, 0.5722950176794948, 0.15473072230815887
0.18128154288907083, 0.8881075420848243, 0.15473072230815887
0.3843241783067187, 0.6386791238754577, 0.15473072230815887
0.1018038018031433, 0.6213306105573797, 0.15473072230815887
-0.012291711925181248, 0.7632764249975685, 0.15473072230815887
-0.14509797571636315, 0.871659548046685, 0.15473072230815887
0.2759932556085907, 0.5801480317476782, 0.15473072230815887
0.14179261071734928, 0.8123601891228871, 0.15473072230815887
0.014991495718059383, 0.7023992654935511, 0.15473072230815887
0.4192141549371537, 0.29773626869267755, 0.15473072230815887
0.34363829001392854, 0.8452212438515552, 0.15473072230815887
-0.3015182647324694, 0.8984947418818297, 0.15473072230815887
0.34972907315393004, 0.8828162705146415, 0.15473072230815887
0.07325137901055093, 0.6362903228781442, 0.15473072230815887
-0.2002241474632611, 0.9240549062346934, 0.15473072230815885
0.3760049716947095, 0.3940982402234131, 0.15473072230815885
0.2952047576636011, 0.7674461375698909, 0.15473072230815887
0.30452292382027935, 0.787316422918395, 0.15473072230815887
0.39132047116395274, 0.4517061528819456, 0.15473072230815887
-0.16735050133647972, 0.9348019235364793, 0.15473072230815887
-0.04064139531342001, 0.7858868107712729, 0.15473072230815887
-0.20676246460715705, 1.0035736865831824, 0.15473072230815887
0.1249332538887519, 0.6599208682716153, 0.15473072230815887
0.29392313448374985, 0.6659540180006189, 0.15473072230815887
0.028788167210151386, 0.7922792232651609, 0.15473072230815887
-0.08491653819618888, 0.900017783482798, 0.1547307223081589
0.2613388418295888, 0.874448031243644, 0.15473072230815887
0.25517661924453405, 0.5953841989168005, 0.15473072230815887
0.47645143985719396, 0.44489091364609057, 0.1547307223081589
0.3052206375785314, 0.7462985931325004, 0.15473072230815887
0.2847321486791816, 0.6215066692306084, 0.15473072230815887
0.3950222687431431, 1.0005548330727037, 0.15473072230815887
0.18627624933266798, 0.5033655314375041, 0.15473072230815887
0.3587123771885053, 0.9595553580416203, 0.15473072230815887
0.35995115627571883, 0.8482623091030185, 0.15473072230815887
0.12143912801337217, 0.5557065550782924, 0.15473072230815887
-0.02336229034083409, 0.768553788164473, 0.15473072230815887
-0.06605115319731561, 0.9313339424070821, 0.15473072230815887
-0.11405548887913294, 0.8680088594795815, 0.15473072230815887
0.4334708533554599, 0.33224709990402346, 0.15473072230815887
-0.10799217582696456, 0.8157488912262578, 0.15473072230815887
0.12926913813814517, 0.8937057107847257, 0.15473072230815887
-0.11709396290587828, 0.8121050325765999, 0.15473072230815887
-0.06364750614737828, 0.7407563208122696, 0.15473072230815887
0.20977236370337704, 0.5817619656402228, 0.15473072230815887
-0.4052197767794174, 0.9703110760998547, 0.15473072230815887
0.3721430295451849, 0.4505463597175686, 0.15473072230815887
0.23034369373968086, 0.9513389816688318, 0.15473072230815887
-0.11803640117212166, 0.9125272321829735, 0.15473072230815887
0.30843611836477786, 0.979897377551011, 0.15473072230815887
-0.2649358881325033, 0.9716904485469505, 0.15473072230815887
0.3752543232861062, 0.45709777812915253, 0.15473072230815887
0.2622848992444053, 0.7505879529849634, 0.15473072230815887
0.11355874504747081, 0.6839888055672569, 0.15473072230815887
0.40273779241383, 0.8121679280468068, 0.15473072230815887
0.4680927547887618, 0.5469963759028821, 0.15473072230815887
-0.4434217351703073, 0.9921348778860174, 0.15473072230815887
-0.17962413229528237, 0.9860349678260636, 0.15473072230815887
-9.583532159182506e-05, 0.8274816785659491, 0.15473072230815887
0.18719470929036064, 0.6127503934838461, 0.15473072230815887
0.22387614648281762, 0.6709595256528111, 0.15473072230815887
0.4377508740993129, 0.25760247962252936, 0.15473072230815885
0.2818679575270772, 0.5418333528191311, 0.15473072230815887
0.06859110082677786, 0.9076024298842928, 0.15473072230815887
0.1820547685445357, 0.5220341867857615, 0.15473072230815887
0.2586837457904282, 0.8577390329707543, 0.15473072230815887
-0.025848076309294837, 0.9834664916658387, 0.15473072230815887
0.39722683585151297, 0.30705780762901075, 0.1547307223081589
0.312625044991054, 0.7397091406044772, 0.15473072230815887
0.4696986737908541, 0.5490050558254388, 0.15473072230815887
0.20313554517543733, 0.564707969380176, 0.15473072230815887
0.4145745737487905, 0.7158419064220789, 0.15473072230815887
0.4108741283228742, 1.0023601965349027, 0.15473072230815887
0.21636141196100245, 0.7858570266115994, 0.15473072230815887
0.36816669848566896, 0.36052399925494977, 0.15473072230815887
0.4496151899941784, 0.4732640421951416, 0.15473072230815887
0.28578180714594603, 0.6193925500423368, 0.15473072230815887
-0.12378641512594662, 0.9702292231842129, 0.15473072230815887
0.40158363754928145, 0.40577333737368126, 0.15473072230815887
0.42847036715327486, 0.4553643541344011, 0.15473072230815887
0.13592388465919414, 0.7801729330428245, 0.15473072230815887
0.26920859309292716, 0.6659062116389771, 0.15473072230815887
0.04641896039679069, 0.7844137498964172, 0.15473072230815887
0.23406096762692477, 0.5504443060090072, 0.15473072230815887
0.03872523757984081, 0.9996555544314577, 0.15473072230815887
0.05434094178782664, 0.6986023380809931, 0.15473072230815887
0.002612989850050984, 0.6909740254729646, 0.15473072230815887
0.029989945678569024, 0.8927606000002024, 0.15473072230815887
-0.05132885367995185, 0.9056440821137248, 0.15473072230815887
0.06353911382059452, 0.9443904514342483, 0.15473072230815887
0.4652355651454855, 0.7454875118788084, 0.15473072230815887
-0.08316012388728958, 0.6850373933677455, 0.1547307223081589
0.2496990861777875, 0.9930929599537736, 0.15473072230815887
0.131777449677917, 0.8219529511400391, 0.15473072230815887
0.28154792374212867, 0.7350341261892638, 0.15473072230815887
0.4547060901430269, 0.5117807274700871, 0.15473072230815887
-0.3966230700763293, 1.003947452002883, 0.15473072230815887
0.1548784014858801, 0.8061257679232096, 0.15473072230815887
0.1264249444006848, 0.5115470356737314, 0.15473072230815887
0.2496592459782687, 0.9634059380348116, 0.15473072230815887
0.43681029642489644, 0.5080229631739639, 0.15473072230815887
-0.008810315795818216, 0.7355473541434053, 0.15473072230815887
0.20198537263918317, 0.8318213196534777, 0.15473072230815887
0.40484909393969526, 0.7507293336075995, 0.15473072230815887
0.4336857378475969, 0.880736349824439, 0.15473072230815887
-0.44252387024007783, 0.9960216577824388, 0.1547307223081589
-0.009041828832945964, 0.8821163575270932, 0.15473072230815887
0.052866770224818005, 0.8255665569126793, 0.15473072230815887
-0.006993777574523935, 0.8325420402692658, 0.15473072230815887
0.23185860155539162, 0.5825109818927654, 0.15473072230815887
0.2993695340407436, 0.7280949451232418, 0.15473072230815887
0.2116809183415068, 0.5619651015994033, 0.15473072230815885
0.45418747513260815, 0.5061320349783702, 0.15473072230815887
-0.14254542761041755, 0.7786459782524618, 0.1547307223081589
0.37722746106667826, 0.7204304631558053, 0.15473072230815887
0.04164520430271229, 0.948101047045171, 0.15473072230815887
0.3181313523699629, 0.703242401911436, 0.15473072230815887
0.4500801135659896, 0.5182800726634331, 0.15473072230815887
0.423333756349858, 0.9914125967715874, 0.15473072230815887
0.09870795673136866, 0.8376717013869504, 0.15473072230815887
0.13360501527812194, 0.7040744746027606, 0.15473072230815887
0.14127940818916668, 0.8015539043485358, 0.15473072230815887
0.291542161163482, 0.5520279992633081, 0.15473072230815887
0.3112180284458639, 0.49654703342889805, 0.15473072230815887
0.048385216045091634, 0.7189375586807363, 0.15473072230815887
0.35869773937980065, 0.3408697757511816, 0.15473072230815887
-0.07767607427406922, 0.7024753666997714, 0.15473072230815887
0.42648038170206193, 0.3598109938375481, 0.15473072230815887
0.1598267557432123, 0.8266546356758058, 0.15473072230815887
0.05301239199879175, 0.6049149582229111, 0.15473072230815887
0.28901567697473274, 0.5382716910992761, 0.15473072230815887
0.3010707048947981, 0.837385068370484, 0.15473072230815887
0.28192505240568805, 0.5811043087505692, 0.1547307223081589
0.4502050393270459, 0.7815506688785911, 0.15473072230815887
0.3826257572956794, 0.9739624591423774, 0.15473072230815887
-0.12890777566313644, 0.9379324840664465, 0.15473072230815887
-0.078588057303189, 0.763947679749271, 0.1547307223081589
0.4722329269458619, 0.3765066377192287, 0.15473072230815887
-0.14968523524284066, 0.8780398170662466, 0.15473072230815887
-0.10178883310346024, 1.0103940679126198, 0.15473072230815887
-0.22016600588204618, 0.8212152486234578, 0.15473072230815887
0.4404247161892471, 0.8904167316894409, 0.15473072230815887
0.24028194867852926, 0.46236741721172575, 0.15473072230815887
0.027835772645709078, 0.8362719937364983, 0.15473072230815887
0.464057669655776, 0.9217392393066339, 0.15473072230815887
0.05209125917821439, 0.9343450836148177, 0.15473072230815887
0.011901370666568753, 0.7519826408973862, 0.15473072230815887
0.4517633597893135, 0.7792017913252002, 0.15473072230815887
0.13371118797880166, 0.909636353089152, 0.15473072230815887
0.08869024584207025, 0.7204747242308371, 0.15473072230815887
0.2577163280412733, 0.7807947957608934, 0.15473072230815887
0.1305058251980359, 0.628747132520817, 0.15473072230815887
-0.04535847000630894, 0.8092145063794787, 0.15473072230815887
0.40171953779022906, 0.46371472685909854, 0.1547307223081589
0.3580725814566036, 0.9952432689022294, 0.15473072230815885
-0.09594885775271303, 0.7655054705542034, 0.15473072230815887
0.37490417151581074, 0.4904010468958689, 0.15473072230815887
-0.04109028722291257, 0.6633824568106761, 0.15473072230815887
0.41938853154718725, 0.7226242273137155, 0.15473072230815887
0.4325213341936927, 0.45881886135606514, 0.15473072230815887
0.3978924105647898, 0.3235761756213439, 0.1547307223081589
0.21944898479077293, 0.47267408965378926, 0.15473072230815887
0.22735690826790428, 0.8833304236178846, 0.15473072230815887
0.31648199699840573, 0.6389414090672736, 0.15473072230815887
-0.3233846298429014, 0.9840456740996466, 0.15473072230815887
0.2217929296390339, 0.888483039795196, 0.15473072230815887
0.26682244345525274, 0.9994279109428899, 0.15473072230815887
-0.07273033972429133, 0.9179380652813091, 0.15473072230815887
0.11767719128309603, 0.799316801912467, 0.15473072230815887
-0.2181743291357876, 0.8543426400588255, 0.15473072230815887
0.34568510832806737, 0.3746476463917331, 0.15473072230815887
0.2711600294006309, 0.783014035688421, 0.15473072230815887
0.23928989359166686, 0.8378801788234754, 0.15473072230815887
0.19434336372903338, 0.8361555517868151, 0.15473072230815887
0.13135456037283413, 0.82251870493394, 0.15473072230815887
0.3469753478768517, 0.5044619832432419, 0.15473072230815887
0.02536225248784435, 0.6474526620129902, 0.15473072230815885
0.3021175293950008, 0.9808944320472792, 0.15473072230815887
0.22550492121349866, 0.6060921942402582, 0.15473072230815887
-0.32823458060732996, 0.8968974797527477, 0.15473072230815887
0.46643866612066825, 0.567978600594178, 0.15473072230815887
0.11412321438455289, 0.7703740916067325, 0.15473072230815887
0.24137640444311154, 0.5352485524739368, 0.15473072230815887
0.280633674036611, 0.699110542041218, 0.15473072230815887
-0.13146949348959439, 0.855902974855756, 0.15473072230815887
-0.027250190254099724, 0.6688732911475691, 0.15473072230815887
0.3476099798459714, 0.6030940154249387, 0.15473072230815887
0.1465290375215634, 0.7210821206469409, 0.15473072230815887
0.06907334858515499, 0.6976384849414632, 0.15473072230815887
-0.07617862708556505, 0.9474621042321917, 0.15473072230815887
0.32470380706248514, 0.9832729924838418, 0.15473072230815887
-0.05240784462343992, 0.7382922010759727, 0.15473072230815887
0.31380356183080876, 0.8284267934614523, 0.15473072230815887
-0.329653482014139, 0.9621676356072998, 0.15473072230815887
0.42667931948854565, 0.8355408085576146, 0.15473072230815887
0.08090013444898553, 1.0058501940930769, 0.15473072230815887
-0.3991487252525602, 0.977741243335219, 0.15473072230815887
0.32716167390960865, 0.7562233043067643, 0.15473072230815887
0.061415963690904934, 0.9712037366757782, 0.15473072230815887
0.14825324908935886, 0.97549367438867, 0.15473072230815887
-0.07202814643397504, 0.8975854625538326, 0.15473072230815887
-0.36619886467046603, 1.0014644751903121, 0.15473072230815887
0.41054846296651, 0.8872008995628717, 0.15473072230815887
-0.12737463443353225, 0.8657698998715628, 0.15473072230815887
0.23581299797679683, 0.6845728559004367, 0.15473072230815887
0.38846340864688383, 0.44992728828104367, 0.15473072230815887
0.3958477136165684, 0.36521208282448053, 0.15473072230815887
-0.05698673292121839, 0.947060029606259, 0.15473072230815887
0.020207390045502538, 0.9939405389861289, 0.15473072230815887
-0.12689788001169627, 0.9868666637382546, 0.15473072230815887
0.21809230112699365, 0.6695492434284506, 0.15473072230815887
0.2827021094785287, 0.9096055022978083, 0.15473072230815887
-0.15522631761123012, 0.9235972846680249, 0.15473072230815887
0.3467323854327504, 0.6492904921531686, 0.15473072230815887
0.4369286190587323, 0.780289719630989, 0.15473072230815887
0.4744663738778082, 0.2934976828112663, 0.15473072230815887
0.07545880736492212, 0.6270300903322734, 0.15473072230815887
-0.12728042529131645, 0.9462822154066228, 0.15473072230815887
-0.08700916023994898, 0.7691916406275139, 0.15473072230815887
-0.07765385520437026, 0.9843476691798088, 0.15473072230815887
-0.16176158264834242, 0.7613001664941708, 0.15473072230815887
0.22742044423411698, 0.5801442452439436, 0.15473072230815887
0.2584691017859759, 0.4552697390769419, 0.15473072230815887
0.467855254340256, 0.9817189028590033, 0.15473072230815887
0.4357066165071474, 0.5004159099078773, 0.15473072230815887
-0.18477229376134888, 0.9392033326222151, 0.15473072230815887
0.21295398881726815, 0.8195593936616246, 0.15473072230815887
-0.2033438562134338, 0.830474329107573, 0.15473072230815887
0.1827703945981724, 0.6700415303493525, 0.15473072230815887
0.22538952341619228, 0.7636443312654471, 0.15473072230815887
-0.10071925033612195, 0.7495567886879962, 0.15473072230815885
0.2866117365393193, 0.8258168635139328, 0.15473072230815887
0.42229894122589506, 0.7834029171329285, 0.15473072230815887
-0.3042430676176102, 0.9171644995468516, 0.15473072230815887
0.3071974703763688, 0.44191154298325563, 0.15473072230815887
0.46815474565588666, 0.8513454906987135, 0.15473072230815887
0.36128224231344575, 0.7723717566601216, 0.15473072230815887
0.1256939526348831, 0.9963770100397367, 0.15473072230815887
-0.13059424001761752, 0.9940895106609122, 0.15473072230815885
0.15160372416718818, 0.7053133652455312, 0.15473072230815887
0.34821738658694984, 0.4554899270238587, 0.1547307223081589
0.46038661016664795, 0.6610007517562944, 0.15473072230815887
0.426782624350253, 0.7084277915636173, 0.15473072230815887
-0.3137603583806452, 0.9822624975489254, 0.15473072230815887
0.16024097829789688, 0.5304872144015881, 0.15473072230815887
0.01463604333970625, 0.700990057957301, 0.15473072230815887
0.44841707185321583, 0.3919647357859105, 0.15473072230815887
0.032706728145224684, 1.0020540799750424, 0.15473072230815887
0.35052607274142844, 0.3812684235050351, 0.15473072230815885
0.04846920477687243, 0.6886530778707072, 0.15473072230815887
0.4021571118530787, 0.3001393131571618, 0.1547307223081589
0.469865943090606, 0.9543075819255655, 0.15473072230815887
0.39636129068661685, 0.6836480906707458, 0.15473072230815887
0.396266940218428, 0.5848803316574648, 0.15473072230815887
0.2431314708140658, 0.7029533172004633, 0.15473072230815887
0.40994514082252226, 0.7137928718051882, 0.15473072230815887
0.15913676426058534, 0.5737867683567419, 0.1547307223081589
0.38264311658927774, 0.5410876554923493, 0.15473072230815887
-0.2297047844208366, 0.8089319640652441, 0.15473072230815885
0.36236267836260305, 0.4968250591467005, 0.15473072230815887
-0.20713554603112325, 0.9636312974246131, 0.15473072230815887
0.2888497950719854, 0.63483811569761, 0.15473072230815885
-0.1669919531853279, 0.9923875752420641, 0.15473072230815887
0.31803876792281477, 0.6374257380179007, 0.15473072230815887
-0.14317123655708455, 0.9413179257068173, 0.15473072230815887
0.41365380536995183, 0.46647456546024046, 0.15473072230815887
-0.29092521444937597, 0.9915964983580363, 0.15473072230815887
0.12664954447719695, 0.7028414926952584, 0.15473072230815887
0.060838563157641426, 0.7434117385795329, 0.15473072230815887
0.19924892039917108, 0.8413814461845939, 0.15473072230815887
0.17538810721700424, 0.8493165845274706, 0.15473072230815887
0.08465794110912556, 0.9049604777993199, 0.15473072230815887
-0.11935240284344024, 0.8823726577963902, 0.15473072230815887
0.11798727472133574, 0.9499849261881479, 0.15473072230815887
0.21356240167740542, 0.5015268875460716, 0.15473072230815887
0.32681307293783046, 0.8724341238494286, 0.15473072230815887
0.3325821699854544, 0.6618141193574081, 0.15473072230815887
0.40997778081278097, 0.3139650571118769, 0.15473072230815887
0.10336629451865899, 0.7268123976030548, 0.15473072230815887
0.11019752291023407, 0.7522331284197425, 0.15473072230815887
0.05602888680977366, 0.6423294338527022, 0.1547307223081589
0.008565570835681269, 0.6887255218123669, 0.15473072230815887
0.10978745801183665, 0.9051820919455789, 0.15473072230815887
-0.07524978684862058, 0.9418422494317464, 0.15473072230815887
0.271095057643278, 0.6893943731874501, 0.15473072230815887
0.37503850754680523, 0.7217304652884923, 0.15473072230815887
0.47526760565205295, 0.49645213837550317, 0.15473072230815887
0.4656284207635148, 0.9648534645371305, 0.15473072230815885
0.4105407483507138, 0.552585794952402, 0.15473072230815887
0.3135863605310313, 0.4192363807656795, 0.15473072230815887
0.39104650355908666, 0.6633593077473723, 0.15473072230815887
0.034351801878903035, 0.8381924193990424, 0.15473072230815887
-0.10132627811213651, 0.7734066121437866, 0.15473072230815887
-0.3695171378206993, 0.9452592911764521, 0.15473072230815887
0.3789733831720208, 0.6478591889802015, 0.15473072230815887
0.08834946129874506, 0.8411649466043422, 0.15473072230815887
0.41840997032196303, 0.5643809879750068, 0.15473072230815887
0.467522560694886, 0.8774755605490232, 0.15473072230815887
0.4069974808127096, 0.9999226195955251, 0.15473072230815887
0.4461665429680568, 0.7222819004989536, 0.15473072230815887
0.010843509670661763, 0.7815794873298179, 0.15473072230815887
0.4214154469196604, 0.6928529681054871, 0.15473072230815887
-0.4094987522322224, 0.9758641871071632, 0.15473072230815887
-0.19610815118520014, 0.968529584326463, 0.15473072230815887
0.3817371708649778, 0.753636398930347, 0.15473072230815887
0.4558947763636487, 0.5168557987164927, 0.15473072230815887
0.0963394574740445, 0.6716728645791838, 0.15473072230815887
0.4006336299427898, 0.3996261752191466, 0.15473072230815887
0.43217926668099305, 0.8118335924854395, 0.15473072230815887
0.08828045793822555, 0.6569882595280843, 0.15473072230815887
0.4100756883852996, 0.5781658950487812, 0.15473072230815887
0.008988167667584562, 0.9314481804102644, 0.15473072230815887
0.19187684920577802, 0.9558262982068588, 0.15473072230815887
0.08748962172643807, 0.9307528812262138, 0.15473072230815887
0.4064840506859556, 0.7556250812775787, 0.15473072230815887
-0.30697282543883264, 0.9069402231472159, 0.15473072230815887
0.0071301833423676325, 0.7360571490638947, 0.15473072230815887
0.34749247969185015, 0.6552122306077461, 0.15473072230815887
0.07224403983373875, 0.7714448927923654, 0.15473072230815887
0.1260389604466043, 0.5825577581140644, 0.15473072230815887
0.3775612725657972, 0.9038593401418761, 0.15473072230815887
0.2679369838018876, 0.5042619734139827, 0.15473072230815887
-0.09546827838167948, 0.7153248462558432, 0.15473072230815887
-0.07897123775354173, 0.47126920791839244, 0.15473072230815887
-0.3971837431969273, 0.3532869651250298, 0.15473072230815887
-0.3407654526816396, 0.20796389918057392, 0.15473072230815887
-0.3002031135422229, 0.8182084953502884, 0.15473072230815887
0.04406645195233748, 0.36969525684774956, 0.15473072230815887
-0.34096825141793, 0.305860039851668, 0.15473072230815887
-0.2951403655065258, 0.33871840087511756, 0.15473072230815887
-0.38524151840966403, 0.23505723967991757, 0.15473072230815887
-0.10794404146157846, 0.6591730040771894, 0.15473072230815887
-0.176736891742038, 0.576105069436699, 0.15473072230815887
-0.3702820129188109, 0.30137580176270096, 0.15473072230815887
-0.054602531875156096, 0.37673272827229226, 0.15473072230815887
-0.03196274262307092, 0.4013878926920007, 0.15473072230815887
-0.2789287939529118, 0.31604431920807524, 0.15473072230815887
-0.14744789839895178, 0.6076919942903746, 0.15473072230815887
-0.3514157713969614, 0.7567953170372, 0.15473072230815885
0.33381277753460237, 0.3164035631828574, 0.15473072230815887
-0.46990351063423297, 0.5479223603919876, 0.15473072230815887
-0.23290571501027074, 0.35078571749568155, 0.15473072230815887
-0.2747236343094519, 0.8007800848365051, 0.15473072230815887
-0.3258362221575931, 0.7467316368929584, 0.15473072230815887
-0.40976284439934807, 0.6123573946017145, 0.15473072230815887
-0.3778657581711953, 0.42203634921462707, 0.15473072230815887
0.28490776259141964, 0.21507539366137385, 0.15473072230815887
-0.45007466839367993, 0.7429660664281691, 0.15473072230815887
-0.3509810690252412, 0.7783480934066125, 0.1547307223081589
0.059245961067528635, 0.26543696014078655, 0.15473072230815887
0.15038817026521883, 0.4197709970590379, 0.15473072230815887
0.058800046982228384, 0.5031472723139457, 0.15473072230815887
-0.228767485277395, 0.29930903589370206, 0.15473072230815887
0.26945463852997503, 0.334068987717131, 0.15473072230815887
-0.46993625609134637, 0.45995298434510823, 0.15473072230815887
0.22609117470467233, 0.3123601675985878, 0.15473072230815887
-0.10189624648410586, 0.6665145586110017, 0.15473072230815887
0.046095385111795756, 0.215385724363215, 0.15473072230815887
-0.43658054396435964, 0.5718066038336099, 0.15473072230815887
-0.35463269727527247, 0.5399974570160633, 0.15473072230815887
-0.16662886655579667, 0.5558501605620032, 0.15473072230815887
-0.360678012095858, 0.22449308505247123, 0.15473072230815887
-0.4215788339356001, 0.4926510326449196, 0.15473072230815887
0.03544412591760315, 0.31906813445526383, 0.15473072230815887
-0.03633454337303148, 0.5502299835969241, 0.1547307223081589
0.022061305764380312, 0.3567038464100508, 0.15473072230815887
-0.19757772761115444, 0.6969678585561864, 0.15473072230815887
-0.4484750916209045, 0.484375507489848, 0.15473072230815887
-0.129092306106624, 0.6498717762298297, 0.15473072230815885
-0.06805981234515858, 0.6120114058358651, 0.15473072230815887
-0.31319300952230605, 0.5097463402128619, 0.15473072230815887
-0.15148830864526797, 0.39909927158448366, 0.15473072230815887
-0.14499168587989283, 0.7021770147966883, 0.1547307223081589
0.18054612413951257, 0.36133726951655804, 0.15473072230815887
0.14501531899512735, 0.21450124294017603, 0.15473072230815887
-0.366928882530457, 0.42967948573444686, 0.15473072230815887
-0.30690911489280004, 0.41916755134759676, 0.15473072230815887
-0.4554865691159157, 0.4057966456495653, 0.15473072230815887
-0.05262850197015634, 0.3415567306819795, 0.15473072230815887
0.12722501146812862, 0.39561685413636005, 0.1547307223081589
-0.09875158451485988, 0.41689076536697706, 0.15473072230815887
-0.19820896349277908, 0.46122808103727153, 0.15473072230815887
-0.19122260484347448, 0.6853724109865436, 0.15473072230815887
0.04822523380111465, 0.5522328480658861, 0.15473072230815885
-0.4577982674149814, 0.9276649986291798, 0.15473072230815887
-0.08268341579255815, 0.6130309763870929, 0.15473072230815887
-0.16181769859863301, 0.6380320736390076, 0.1547307223081589
-0.31233897166161195, 0.40680780253003873, 0.15473072230815887
-0.2636953742022765, 0.40435752757848514, 0.15473072230815887
-0.26796177397604537, 0.5978618868863607, 0.15473072230815887
0.11615226232439976, 0.2672047607451073, 0.15473072230815887
-0.4417261146378416, 0.7919072663970613, 0.15473072230815887
-0.014055217722629049, 0.26377498839886193, 0.15473072230815887
-0.4230829929690159, 0.2853481212020669, 0.15473072230815887
-0.450855469758915, 0.44264043528062763, 0.15473072230815887
0.053559137072502566, 0.3379982219351354, 0.15473072230815887
-0.19507730774999735, 0.22854374670149777, 0.15473072230815887
-0.20180903335965783, 0.3293647382878654, 0.15473072230815887
-0.464652092220549, 0.3809806483211613, 0.15473072230815887
-0.22822507102941203, 0.5158384371038935, 0.15473072230815887
-0.10782983958946138, 0.5385977057415737, 0.15473072230815887
0.3178630467128208, 0.3126183518242681, 0.15473072230815887
-0.19822596193983186, 0.6076650936647208, 0.15473072230815887
-0.23754021389025412, 0.6447142663435341, 0.15473072230815887
0.16522478757267994, 0.32379368002105297, 0.15473072230815887
-0.2982044063777634, 0.3061785950631346, 0.15473072230815887
0.22723965447213612, 0.33305778161294214, 0.15473072230815887
-0.16452219326312092, 0.2202871187641211, 0.15473072230815887
-0.3504885197340361, 0.5951772967104029, 0.15473072230815887
-0.2708108221861136, 0.711100902075759, 0.15473072230815887
-0.13606311148299172, 0.2912007793259852, 0.15473072230815887
-0.4819386198650614, 0.2725891398225358, 0.15473072230815887
-0.3413432381425071, 0.269844443433761, 0.15473072230815887
-0.19010505288521565, 0.6446109934486759, 0.1547307223081589
-0.3577663230682957, 0.6935637404792988, 0.15473072230815887
-0.059190561574677114, 0.482303735731908, 0.15473072230815887
-0.2183803706872521, 0.7307909918666806, 0.15473072230815887
-0.273436883857414, 0.6864789409231776, 0.1547307223081589
0.1815826513145811, 0.2875154373232812, 0.15473072230815887
0.27962358357910755, 0.31787726101754815, 0.15473072230815887
0.07862045385877642, 0.29824403644553993, 0.15473072230815887
-0.31615763207077696, 0.5069782543366929, 0.15473072230815887
-0.30966585056853957, 0.7164632863919354, 0.15473072230815887
-0.44072114999622114, 0.27246008261114313, 0.15473072230815885
-0.06112035459168147, 0.2383787341359085, 0.15473072230815887
-0.2166868580338992, 0.3795707859517169, 0.15473072230815887
-0.09727836433376724, 0.5117368134128629, 0.15473072230815887
-0.29120245342101847, 0.5524539503791833, 0.15473072230815887
-0.2066553502652992, 0.31491586968569535, 0.15473072230815887
-0.03715729171749131, 0.6070163757647503, 0.15473072230815887
-0.10079210965645047, 0.27073601137009085, 0.15473072230815887
-0.42802535718671564, 0.42771734832022634, 0.15473072230815887
-0.34128593791483763, 0.6662959446396688, 0.15473072230815887
-0.47242644701356384, 0.3159141280174077, 0.15473072230815887
-0.2642148080732145, 0.25019986756954204, 0.15473072230815887
-0.20852933407768998, 0.6339604172179737, 0.1547307223081589
-0.3962159095425888, 0.4017878131585634, 0.15473072230815887
-0.0429808913407769, 0.22438812083152693, 0.15473072230815887
-0.2869696377086983, 0.6946802048522368, 0.15473072230815887
0.029498506669364863, 0.5049478087220378, 0.15473072230815885
-0.3375988590176392, 0.7738422030153712, 0.15473072230815887
0.23339705134418157, 0.3273908155521631, 0.15473072230815887
0.09247172471702661, 0.4011937482572596, 0.15473072230815887
-0.18268590230111673, 0.43347268764840774, 0.15473072230815887
-0.457138706804798, 0.30103215155184926, 0.1547307223081589
-0.11326774535019832, 0.6497904335675578, 0.15473072230815887
0.1757918611275555, 0.4208665367497634, 0.15473072230815885
0.13184265748893673, 0.4580298720624746, 0.15473072230815887
-0.42503708890527997, 0.267926384290083, 0.15473072230815887
-0.3796074521520728, 0.6351452896536995, 0.15473072230815887
-0.22530644593553303, 0.5055684486908306, 0.15473072230815887
-0.39085155859052373, 0.7647068409981425, 0.15473072230815887
0.45343607886134174, 0.21018745577001538, 0.15473072230815887
-0.11890668229806209, 0.22083414279576372, 0.15473072230815887
0.4336785404743567, 0.22674645379595995, 0.15473072230815885
-0.3559411324441715, 0.3718760584573974, 0.15473072230815887
-0.19509082262640606, 0.3081659542641081, 0.15473072230815887
-0.46652808165247855, 0.5231058668536841, 0.15473072230815887
-0.363392147204824, 0.42416210848732805, 0.15473072230815887
-0.2984113520345162, 0.4337853051914879, 0.15473072230815887
-0.19124008338147266, 0.5224477173712142, 0.15473072230815887
-0.11224194215320024, 0.49882416485994635, 0.15473072230815887
-0.4465821626665778, 0.5658456485505643, 0.15473072230815887
0.074391217249374, 0.49851629835855577, 0.15473072230815887
-0.47356634875439696, 0.36697225098353914, 0.15473072230815887
-0.07453906782908071, 0.32128269845791024, 0.15473072230815887
-0.11482804350077484, 0.5008528145035911, 0.15473072230815887
0.1638286401985522, 0.34477294284132104, 0.15473072230815887
-0.40413876742762156, 0.3146817223030894, 0.15473072230815887
0.3787409974504008, 0.28995224125523017, 0.15473072230815887
-0.35922942599235574, 0.5843909459853828, 0.15473072230815887
-0.3230576309062286, 0.6231982810504546, 0.15473072230815887
-0.0522034946633603, 0.24044652874868988, 0.15473072230815887
0.1317911336975594, 0.3984326256902221, 0.15473072230815887
0.008446654890135102, 0.29022650296310626, 0.15473072230815887
-0.08132184039870828, 0.6758276463952783, 0.15473072230815887
0.22059970978378873, 0.31624644171221494, 0.15473072230815887
0.04407027509621875, 0.4730632089789217, 0.15473072230815887
-0.028637204530866323, 0.6166709447717275, 0.15473072230815887
-0.2735145919723531, 0.8042166615102411, 0.15473072230815885
-0.28146647139106595, 0.7181678738503802, 0.15473072230815887
-0.317543115952299, 0.6726342874118163, 0.15473072230815887
-0.42886127381825256, 0.5042575245016891, 0.15473072230815887
-0.06271339103388857, 0.380569623972408, 0.15473072230815887
0.20762548852040108, 0.29885246726853104, 0.15473072230815887
-0.42110144489187157, 0.921723945814314, 0.15473072230815887
-0.4779576334372168, 0.7453576862598515, 0.15473072230815887
-0.017363391117790394, 0.38521007480363934, 0.15473072230815887
-0.2941860954997024, 0.7696772578119937, 0.15473072230815887
-0.3965687664394124, 0.3463481819774914, 0.15473072230815887
-0.17821386766346614, 0.7124237404436484, 0.15473072230815887
-0.26424879469122975, 0.7731084192327002, 0.15473072230815887
-0.29996262654148603, 0.4163222050968779, 0.15473072230815887
-0.4466320227067143, 0.5413491976474673, 0.15473072230815887
