0.06282068619580845, 0.004183383195331947, 0.014992687973179715
0.05174089154579449, 0.0001056698887654222, 0.012306104362758884
0.04859160226791614, 0.00023967974159207962, 0.00273007456084726
0.04008705403935231, 0.0005302950013781725, 0.006588253380829119
0.052302747495997406, 1.050289724335985e-05, 0.005441193216979745
0.061407534412820694, 0.002972486372334132, 0.009329066698190672
0.046220575278043234, 0.00033449663440776074, 0.008753777135544129
0.05495035570428278, 0.0006384837852906576, 0.0045571910971890246
0.06393423019725929, 0.003918224593550161, 0.0029277715441830424
0.05698463200552898, 0.00117101744416374, 0.0030831983124607427
0.044761123835050896, 0.0004570125029158713, -0.004207490863408025
0.04164897213962421, 0.0005341803492722949, -0.0010509097542143802
0.03599974405006396, 0.0005134110598955244, 0.0010413827671469779
0.038280091841384395, 0.00052284101673661, -0.004775067103787929
0.05240690816272919, 2.277455377297892e-05, 9.172743645973315e-05
0.05298364254110528, 6.15333844342086e-05, 0.001088399531268808
0.05731236236754186, 0.0012483248073376903, -0.0019785452280878645
0.05727148096518528, 0.001228944841239471, -0.0012065483525949782
0.05632159714808002, 0.0013641857464631805, -0.012978818072685671
0.05615330693524391, 0.0009608749744706463, -0.004471071361318132
0.04474524695519951, 0.00040768446638199006, -0.009756244745469007
0.06286676458403964, 0.003344314909976496, -0.0003977846405615806
0.06999828030781162, 0.010724445576668268, -0.01970050761787434
0.0719331976801604, 0.01171420750096984, -0.015605905822853459
0.07352318617913223, 0.014964038468602704, -0.017866493186677403
0.06654194004885863, 0.008947256552421408, -0.024857213812703328
0.07102171055297962, 0.012668150199118771, -0.021487547456965024
0.07166086670701398, 0.015611633808337457, -0.025375882893831733
0.06835780743262035, 0.011194962794552754, -0.02609268571300608
0.06840888818573258, 0.015523246445724918, -0.033045269496232564
0.05859686141303613, 0.0067851061396560376, -0.035479621691538746
0.05784824197831283, 0.007569172397988494, -0.038530646144337384
0.06268420457937904, 0.008648492143797211, -0.03286329106918515
0.0674492749084125, 0.015399448079604037, -0.034860944455793796
0.06431144779332681, 0.013944967579332642, -0.03861588153575413
0.060426823451128577, 0.010284919088378116, -0.039703103539657086
0.05205450309542656, 0.005974260446122184, -0.04280928641992875
0.049481773886152346, 0.0070165738327179, -0.04778193607883308
0.06175486014954616, 0.014449246161043367, -0.04310154948112543
0.06035096802076799, 0.014307314370648121, -0.04492134331482164
0.05093353872552764, 0.009487611165508147, -0.05029966696718849
0.046872617258623635, 0.007681964785313375, -0.051528438556015715
0.04212805214190591, 0.007862341437471304, -0.05579234861653422
0.04804726132572651, 0.009101792616791426, -0.05251721575392441
0.05119655494257816, 0.015335391882790067, -0.055957461642559735
0.04959623792312588, 0.013660500640889372, -0.056021080128081914
0.04677949316579388, 0.011476290967996454, -0.05662632947065444
0.040511973749195275, 0.007965421032573717, -0.057158914254109384
0.0352746151475573, 0.007744700036083667, -0.0601758542644732
0.04538698910988442, 0.013196379936258669, -0.0591058110947277
0.04338301397034895, 0.014482596210651058, -0.061591696391345346
0.03686206744772981, 0.01476565662640246, -0.06587755888144894
0.02949175527580663, 0.007104265600290393, -0.06225853594104635
0.021890499527859854, 0.006229407562171952, -0.06410782917802234
0.030407010053537832, 0.008841485727337638, -0.06408916261845522
0.03382257512487876, 0.015343441799455206, -0.06792769561142083
0.031008441435177662, 0.011929222926783757, -0.06689155986425904
0.02466685653716712, 0.010974039604596607, -0.06866061335824268
0.013688610957538556, 0.0072941927928424615, -0.06777114176845563
0.0167500618209001, 0.006961734435617226, -0.06665257894790184
0.026190693482025858, 0.009303416710024697, -0.06640984684128803
0.01994453193901036, 0.014483953804384716, -0.0726276589574153
0.01763458522328183, 0.010740822771239255, -0.07059690887052678
0.005196127647964716, 0.009544850915009903, -0.07145015272655326
0.008441230253089033, 0.0073662909594922376, -0.06871964095625883
0.008788147665033112, 0.011026939661896922, -0.07247396321540096
0.012371928091815237, 0.009698696149565866, -0.07068982946629046
0.006155506114537152, 0.014191853470979395, -0.07492907596591449
0.008156898175598278, 0.008832937921751868, -0.07045377891377747
-0.0006226000208789578, 0.010216235767755575, -0.07226722202852469
0.0007076523834996262, 0.00877650450536454, -0.0708976708707658
0.0007012048709535971, 0.01268243501229243, -0.07422638607766513
-0.0021136344546591026, 0.011754037144196351, -0.07359415919483439
-0.010723746486669718, 0.012373585954086032, -0.07325229903189837
-0.006875378879880941, 0.008357423979221422, -0.07015134532669118
-0.011946523296583206, 0.009058222769567484, -0.07015526413260992
-0.015997399391168135, 0.011256292322986996, -0.07147431433668297
-0.020132579676908284, 0.011411038475179816, -0.07055283517948854
-0.014900564757518869, 0.012870058932996795, -0.07280494881587776
-0.021768961510854466, 0.0053983188398292565, -0.06297336929666357
-0.0192175608801464, 0.004925737088472067, -0.06314074235743754
-0.02643735214148422, 0.01072171438866892, -0.06775229335660903
-0.025190177988829776, 0.015581792454382862, -0.07170960968769906
-0.027052878851717324, 0.010172149929032596, -0.06696972746912956
-0.030706780420829784, 0.015648389398052347, -0.06957226228707866
-0.04040849311142616, 0.010425750394069965, -0.06011611512564923
-0.030303743687845136, 0.006169817776582023, -0.060514489250495074
-0.03127912233320821, 0.013578510803919263, -0.06789389406147235
-0.035437365957975364, 0.012287860961666269, -0.06491291177629041
-0.04259633583686962, 0.01317270650824474, -0.06113952944099145
-0.04285053876687642, 0.00579629404533006, -0.05172025431102407
-0.03727345009992469, 0.0050556185233937186, -0.05466393675505575
-0.03979401230182289, 0.008244535369130014, -0.058039304090148125
-0.04869719661873618, 0.01466932471267188, -0.05766003309855666
-0.04332560524427791, 0.009131627320615527, -0.056518351303140986
-0.05837064167799468, 0.011443807243779068, -0.04451734337885462
-0.050903543696697785, 0.008850810748017869, -0.04944249462570782
-0.04757217473795917, 0.006320194094301816, -0.048413241959132436
-0.04993362355998146, 0.010398607952058075, -0.05244809307576763
-0.05515942015231823, 0.012774371104247853, -0.04971819313529652
-0.05963982953853509, 0.014412252684965784, -0.045928457695791465
-0.06386385325928512, 0.010722585022873463, -0.034781591458950836
-0.06098568424127482, 0.010797217316513053, -0.03974097575356634
-0.057384275654368794, 0.012233793628474487, -0.04660552413598085
-0.05734892257138405, 0.009403709873532472, -0.0426888526562687
-0.06043624588027451, 0.008896672286432188, -0.03731937798281518
-0.06315902693934092, 0.006717525583291738, -0.026308175137630833
-0.06013357096017319, 0.0061455908653632275, -0.03099380908396676
-0.0653877887472961, 0.012097162708107182, -0.03434734103082615
-0.06855975279524865, 0.014191759640762256, -0.03074377315668285
-0.0695354372223492, 0.014770924811743396, -0.029485709349289044
-0.07140357732692704, 0.015418573815047264, -0.025726921515555647
-0.07016999082603918, 0.009594309193995426, -0.014477242342720242
-0.06657731054465231, 0.007940641309318389, -0.02177856956741233
-0.07063962791494184, 0.012328578444012627, -0.022065901295904883
-0.07197478013367117, 0.012804686907478009, -0.01841955163841638
-0.0727362181661872, 0.013447120757896894, -0.01708120798821937
-0.07331586417992761, 0.011426042108030925, -0.003148139821876015
-0.07237273128743299, 0.01097558646456797, -0.009229331526076854
-0.07241678677253588, 0.012095675563844282, -0.01438854910523214
-0.06958120424182002, 0.008370005087530968, -0.011487631383768066
-0.07493251796873632, 0.014078847281413804, -0.004797811266071358
-0.07117865944320445, 0.009423552666334134, -0.006796170244605243
-0.06686517572238435, 0.006144193635407581, 0.01026889327597977
-0.07351649010958695, 0.011519635926770124, 0.0003067553873870041
-0.0745692365082383, 0.013355904915604648, -0.0026186257926910355
-0.07259149501133705, 0.010537769398753838, -0.00013563612255443244
-0.07040326763412866, 0.008341362660811402, 0.0027779168877434127
-0.0746341831104425, 0.014176194328286802, 0.008565550586935377
-0.06337718109137767, 0.0053120404254704216, 0.020273974742847343
-0.06715326000487182, 0.006770511813646566, 0.013221502698255247
-0.07009788062062278, 0.00875893916131386, 0.010567976536928737
-0.07221364109956906, 0.012546775515172214, 0.0168441455705021
-0.07077862114106595, 0.01040094231097714, 0.015337715938865156
-0.06525715202046518, 0.0075758100365919505, 0.02395337245866709
-0.06555550169547085, 0.008328755102872268, 0.025836336776787205
-0.06835790714280288, 0.011117070500559684, 0.025878950546090757
-0.07042614500400349, 0.013929653275360302, 0.025706448679247942
-0.06422963473795815, 0.009710882555403175, 0.03207153467859282
-0.06894014976264044, 0.013838174772513352, 0.029394250362705487
-0.06467768142893285, 0.008271485841261604, 0.027839040310269545
-0.05448609315827635, 0.005901240970926147, 0.039566077202026664
-0.06604791533606413, 0.012951375992582908, 0.034253670109207074
-0.06458281852592213, 0.013707962866194068, 0.037830315111673465
-0.05890916282962283, 0.010217948138100688, 0.041860376682218044
-0.05360990739112321, 0.007984815618942853, 0.04515944510002157
-0.05136895998232485, 0.008076549792641198, 0.04781903604901101
-0.061600679420306635, 0.013913998744432329, 0.04273428204828135
-0.06014830076666533, 0.013933299604214681, 0.04480343525474943
-0.051372834484410004, 0.00985692932012967, 0.050340278878817646
-0.0556799610796175, 0.013333988346755025, 0.04966671960081729
-0.053649923262470124, 0.009556280553337375, 0.04745664212186805
-0.04167654194805036, 0.007888871386839445, 0.05619329578422077
-0.047341040014880445, 0.010612315966273154, 0.05512030304514977
-0.049176550548811294, 0.014593063693604852, 0.05719710131993786
-0.04777259830257124, 0.014127032969867705, 0.057960422799522626
-0.046166763535971767, 0.009418037222341103, 0.05462411729766317
-0.033219513285177006, 0.00721867468134708, 0.06052429333183362
-0.04500805980603672, 0.011606876111023234, 0.05814829031296086
-0.04185424394854059, 0.014064920325811298, 0.06230127433486907
-0.03708593322477945, 0.01523276553663213, 0.06608444393202734
-0.03676531805858166, 0.010750460814804288, 0.06278305033244877
-0.03770265230323992, 0.01032236147213282, 0.06179278269398163
-0.03082575743687862, 0.009339526236532943, 0.06441613968534961
-0.030902663907174242, 0.011234511761274279, 0.06635921279666258
-0.029089691532373847, 0.0148400899116604, 0.06976525187424563
-0.02333869856222199, 0.011140838323285655, 0.06931926875427916
-0.013554941218404405, 0.006912681911908776, 0.06727989819262908
-0.020278684560723875, 0.007677550758751715, 0.06664771253827462
-0.02265286624726674, 0.011483759260894193, 0.06991385762520567
-0.022862581851789812, 0.013811004916423012, 0.07137093726234545
-0.017702386439932292, 0.01359729547122326, 0.07268810808408135
-0.017111881060617416, 0.008229751652069055, 0.06827044591514217
-0.001056336719548244, 0.005629091797137843, 0.0669330516971724
-0.005697239122399836, 0.006080077300281506, 0.06732004554286194
-0.010727820681591851, 0.013974362506669247, 0.07425226344799249
-0.009666536925642465, 0.012470523850388231, 0.0734379605147458
-0.007626946537563077, 0.008191663819591917, 0.06990416723578269
0.004759819543513932, 0.006484932247138771, 0.06792752164795342
0.0045140196468201645, 0.009365941577918048, 0.07130722159055475
-0.002030542634739078, 0.012451630986109775, 0.07403072605719979
0.008966834318196192, 0.01055852916700126, 0.07200558374560247
0.007447184210639286, 0.014846829476402593, 0.07518561284962334
0.009964884746265048, 0.006867356327383666, 0.06787055812611564
0.011790708584409358, 0.008393345745016434, 0.06954347433282637
0.006522417515340978, 0.015200545957317442, 0.07551607022488525
0.015904596880570207, 0.015145685862650651, 0.07404520682390839
0.01758833366447284, 0.011238407344164496, 0.07110015049431549
0.02269162380786509, 0.0051427674501750755, 0.06227030869323557
0.020755431309453655, 0.007397389076684074, 0.06612578231795084
0.01831068902680652, 0.008774343934042264, 0.06846894723925745
0.018120370011461738, 0.01346380763819123, 0.07248417437941498
0.025066745297965504, 0.008627040035188408, 0.0661409559198846
0.03196553188072824, 0.014713828351997731, 0.06835339694279813
0.04073786553630354, 0.010940117833000758, 0.0604826324844641
0.03544362956159107, 0.010279315168613438, 0.06301130318331996
0.030080334589574275, 0.013450762059399563, 0.06835916768694969
0.037535779217051944, 0.01469034783692939, 0.0654466370784682
0.034930819943705775, 0.01189383917002042, 0.06491635452938868
0.04468258823849094, 0.007428699984200997, 0.053043125914148656
0.039281734934999445, 0.006188579997154651, 0.0551361041760781
0.04055760767145267, 0.008228397980726988, 0.05751076647142184
0.04715858634912851, 0.013488926360980563, 0.05794021999691766
0.04231473559359176, 0.0082029449790423, 0.05619401326165019
0.05021985930433062, 0.014726413844822444, 0.05634551085649331
0.055482688389756146, 0.01030525410508451, 0.04643656347329547
0.05200942081612632, 0.009735477200269882, 0.04948187106776218
0.05064287180981749, 0.012058834843182166, 0.053700041632761555
0.054049798939812446, 0.012218860500877768, 0.050410778179031016
0.0522196355333725, 0.009124836489150932, 0.048401386545538286
0.06429958239159524, 0.010868350624241034, 0.03428649332952673
0.05395613394759732, 0.0057587522626327, 0.039933967315649715
0.057233786520586916, 0.01165335278021809, 0.04621455245164292
0.05572105436957172, 0.009389562429066427, 0.04473187286053282
0.06545061762204087, 0.014770647759260458, 0.0376306318277344
0.06106064719259139, 0.009641438714702915, 0.03765599911698976
0.06272866740959324, 0.006485775845612907, 0.026504854345226724
0.05997737574346412, 0.006102226898632854, 0.031154553208407168
0.06837650105868835, 0.015411601492736494, 0.03294992712432215
0.06860655896734896, 0.013049293998648407, 0.028948354148058037
0.06546320577602806, 0.009334580334614446, 0.028542912784510804
0.06644423106450173, 0.006701129832615335, 0.016210543515854943
0.06375330681269147, 0.00567718754391494, 0.020727651164591635
0.06879836672222077, 0.012078940953676896, 0.026799833372576385
0.0720984933376763, 0.014699822997036899, 0.022314878103500763
0.0728848638813034, 0.013508279276031526, 0.016528627799104
0.0672689213278914, 0.006201409592880931, 0.007504157831856093
0.06706238009118086, 0.006638120763716676, 0.012775094097339937
0.07196574293734642, 0.010374483690865502, 0.007817961686077662
0.07426661504258868, 0.014125558544172342, 0.011405101545666024
0.07344447677416335, 0.012301931173990205, 0.008720590464210297
0.06981100540746155, 0.008217188180867894, 0.00862033971248986
0.07075892543907826, 0.0098423644848935, -0.012722827403533064
0.06956005397347069, 0.007781807815720203, -0.00604547433686998
0.06619765203900774, 0.005138313532113029, 0.00312820342736635
0.07306397803483079, 0.011225589952032372, -0.004715585603667926
0.07600406035105732, 0.015614218888016822, -0.0018017109374181685
0.07525791492703648, 0.01458387532812729, -0.004500216279951264
0.07169146592806519, 0.010366139578596743, -0.01006938553204725
0.07443433757626776, 0.013680404856831821, -0.007635688437600134
0.07368091536216045, 0.012553083173580113, -0.008048927916416022
0.022425897366298086, 0.07873472620499533, 0.08140100931145662
0.014637692419237477, 0.089815009088461, 0.08324787379186985
0.016749019966348935, 0.08676908677678409, 0.08281433327631431
0.03672896806766096, 0.07528306264730715, 0.07600548690366705
0.03737752295696296, 0.08289042034970275, 0.0757828469086332
0.027522347835444348, 0.08992210159067818, 0.07991810945439437
0.02640001272453164, 0.09145680721889754, 0.08033931992857068
0.02066666792587333, 0.08764033875101557, 0.08196176466664357
0.020055832485223753, 0.09143999323076882, 0.08215108344217201
0.029857293632210156, 0.0824138321942833, 0.0790153421558531
0.041174079816738075, 0.08945322048208933, 0.07379261564917267
0.042444767067423, 0.08731581130192105, 0.07307029112789523
0.04769764789021474, 0.08223231144288093, 0.06971351547650326
0.048755562266454125, 0.0809197441283998, 0.06899235522732593
0.04331011775918331, 0.08359427265734307, 0.07256655402260681
0.04399649377339917, 0.07506880400367504, 0.07209310891023567
0.03377998592398956, 0.09186194539887955, 0.07748809086646882
0.03428009104492245, 0.08551538857581788, 0.07722733131768589
0.05019129570669576, 0.09073336977560423, 0.06804241590350832
0.05640757210679903, 0.08332057362982365, 0.06289380488478905
0.05780784281379528, 0.08173716793196223, 0.061579927196566284
0.04442816042654143, 0.08997720964535733, 0.07194658941334578
0.04486158177406226, 0.08588605936226279, 0.07163572873585282
0.05424202361449561, 0.07824516420385942, 0.06474663566623112
0.052548146158983115, 0.08286639310827684, 0.0661357453708736
0.05544549618730653, 0.0848446387623775, 0.06379448890872738
0.05564286553353704, 0.08728271292804524, 0.06362643230040241
0.060971451471841784, 0.0969321716984491, 0.05857689748432099
0.06465238660579131, 0.09579197990441506, 0.05452633136700202
0.0652421769159395, 0.09432746351806459, 0.0537680456766494
0.061385993083298465, 0.07237770689189578, 0.05789206804905196
0.06166363535716465, 0.07372310441764618, 0.0576097341459319
0.0662015770052412, 0.0703576443287066, 0.05228063115302524
0.06648381119549182, 0.06977583542274982, 0.051914106002273676
0.0690967061942978, 0.09599563494219168, 0.04874075445194416
0.06967161878991975, 0.09503656256998541, 0.04787275149153583
0.07269786495730689, 0.09279171740247447, 0.04315817142544147
0.06925110155506443, 0.07152592808035946, 0.048214249071077034
0.07160553181225737, 0.0808615799277759, 0.044843194328760834
0.07363473345230365, 0.07018455320180188, 0.04115306034522296
0.07507459871883768, 0.07732022462795334, 0.03871535509484022
0.07638766893547044, 0.09154171292495031, 0.03616402126586046
0.07546630591911974, 0.08897689683622402, 0.038136415833184285
0.08022855734062134, 0.09694083259852952, 0.02676865851095276
0.07862210831365979, 0.09184007059375365, 0.031058563643361112
0.07682208187613351, 0.06991660960223986, 0.03484056907682381
0.07901011647494596, 0.07310128463499094, 0.0296263841133999
0.07904712528009988, 0.0744074585666319, 0.029560450179407942
0.0806166786599797, 0.08859562222026107, 0.025452227051351004
0.08069524612379021, 0.08718930368442858, 0.025151157997120078
0.08111070564186428, 0.07240151051378525, 0.02324286489605572
0.0811337575302728, 0.07253221358911453, 0.02316549628800443
0.08244141587219034, 0.09337455758585883, 0.01876956930327999
0.0822423911199235, 0.08808585156293917, 0.01965253327610843
0.0836050412809384, 0.09261710321741004, 0.012681781537500676
0.08299569284465297, 0.07119472382227429, 0.015185717063228719
0.08260875788069352, 0.07346494555168476, 0.017236306377585824
0.08400087614286861, 0.07020475009370378, 0.007960862283901506
0.08424332717564646, 0.0822673467282082, 0.00684652081151511
0.08441195116358619, 0.09145658490567228, 0.00417742904295665
0.0844370579004414, 0.09442783473045713, 0.0038665056025566405
0.08443195922133245, 0.07306273010623204, 0.00035119790835719673
0.0843981966810052, 0.07233397881722303, 0.0010403603348487307
0.08453919869614306, 0.08905718931980135, -0.0006798543945620937
0.08449868147305502, 0.09302698365002396, -0.0021465973241769605
0.08425826560083055, 0.0719869633649081, -0.0045164661752263744
0.0840205245239683, 0.09093423139872163, -0.009107902300605139
0.08404363658834643, 0.09503113576440446, -0.009063467922353904
0.08405418107722201, 0.07095116668584345, -0.007568414088470911
0.08360355472385891, 0.07944312108947903, -0.012036191359424776
0.08264845184455191, 0.09347196505862433, -0.017731484591299335
0.08315382686353132, 0.09445228099371875, -0.015213305076882587
0.08304895094104804, 0.07236173158393072, -0.014972720850076114
0.08303140937168815, 0.07103292756126027, -0.014998861977881538
0.08193240813475575, 0.08944061411217093, -0.02079957614246777
0.08086831041993396, 0.07455650401763451, -0.024175015994216148
0.08176086079261988, 0.07068947111297978, -0.020879740260921778
0.07911592830287911, 0.09500868265244544, -0.029759999749098105
0.08013087319250106, 0.0908800609813545, -0.02695778292768061
0.07715972156700784, 0.09550028083512196, -0.034530062860030956
0.0772857277604411, 0.09681774125476189, -0.03427030994328094
0.07859598688093626, 0.07235591280641815, -0.030729211074917724
0.0783464245630389, 0.08015933575427024, -0.03161087724253111
0.07619558270716466, 0.07474835012602973, -0.03630497404555851
0.0751315594173279, 0.08975058079875324, -0.03878623772490136
0.07404768238428996, 0.09634157374524098, -0.040779742184068615
0.07283357346503974, 0.07438481699697988, -0.042661784539201934
0.07312048594260401, 0.07621561667051338, -0.04218366067180515
0.07172643997887786, 0.08775479451280666, -0.04474040440944607
0.06925852551999845, 0.09741211562544415, -0.04850962830902583
0.06560914167778541, 0.09336942277708014, -0.05329596422054983
0.06703638132447166, 0.09720324773106837, -0.051512545587833844
0.06893090636370532, 0.07348489918788856, -0.048725682392181
0.06382579065906294, 0.09535302318935071, -0.05547867661192708
0.06065991937016098, 0.09540697351672583, -0.05890427156939311
0.06760705385823045, 0.07122282755241745, -0.05051078491347031
0.06533910874094569, 0.07354292319303962, -0.05342143874681166
0.05981512423695892, 0.07180811258060421, -0.05958402655681583
0.06008998552939719, 0.07305818969244679, -0.0593034231979153
0.05541226342481677, 0.09669511176134558, -0.06389508973495245
0.059502255055038825, 0.09152293237413053, -0.060084318555051246
0.054871653742799835, 0.093215411822856, -0.06436596107588663
0.05605681103398262, 0.07267061729894742, -0.06308594478043597
0.057861639875035495, 0.07011046451054793, -0.061386028292239075
0.05362768005165309, 0.07278624408965553, -0.065167711014006
0.05131582212930328, 0.07208665745529039, -0.0669823501366592
0.046152328632928494, 0.09593436957299518, -0.07082571466682094
0.046827622925484286, 0.09467397378381541, -0.07036799629841518
0.04182816001335767, 0.09038140881679213, -0.07343087375674659
0.043453495765527636, 0.08922859602219027, -0.07251479180042368
0.04670770896307205, 0.07439060491589668, -0.07028900398944421
0.03437086254070832, 0.09646305365373858, -0.07723767496235855
0.03722208995724034, 0.09676080712459076, -0.07592487129524554
0.041257203108476935, 0.07261199808538762, -0.07360176538346389
0.038585118221291535, 0.07605504354300398, -0.0751343673983696
0.03598131408116147, 0.07476423815722674, -0.07634491769366926
0.03315583571945954, 0.07121334006190583, -0.07761165577453216
0.03159190643618132, 0.08637387124475315, -0.07840011790447075
0.03052515280755384, 0.09598007457444502, -0.07883805228520939
0.022497255641662155, 0.09497758404548336, -0.08147859355241538
0.028604516942272593, 0.07674929429302392, -0.07942260802156066
0.02731270835138966, 0.07284595482219536, -0.07986137745628383
0.01853558380980947, 0.08972743091792508, -0.0824719095620964
0.018004846097365232, 0.0943992862840545, -0.08259812465662611
0.023071395203378323, 0.07567924054834424, -0.08119009554111081
0.020185017582582312, 0.07282015213236002, -0.08197688684758644
0.015391117618592404, 0.06994389070104551, -0.08294321932183563
0.015988787519451455, 0.07314345088647212, -0.0828540097694791
0.009857076818153229, 0.09493249173234158, -0.08394931823510521
0.0008124559303150107, 0.07740686199140803, -0.08445342575640036
0.0029676725290953324, 0.08179175941558814, -0.08440858434199025
0.009636873863309706, 0.0760221629173488, -0.08385598693917265
0.0089757444441311, 0.07206907335767589, -0.08389794265339451
0.0025955620953012097, 0.09506018879129603, -0.08448983588991561
0.003203168940883556, 0.09657461126568292, -0.08447248729375842
-0.0015555796047143225, 0.08890358228980684, -0.08450408769178006
-0.0007103173982240003, 0.08746567237011123, -0.08453112053223663
-0.01249099216493351, 0.08200005811096729, -0.08357318284350831
-0.011732056907120786, 0.07407095860864014, -0.0835902297464156
-0.005541392097546359, 0.07558760374519986, -0.08425075495938435
-0.01690172355500751, 0.08725021014919762, -0.082786066405258
-0.01584444493423995, 0.08676952949527415, -0.08299431838323597
-0.02513944730399044, 0.07380837408082358, -0.08058927139329349
-0.023224350181882944, 0.08332512662914418, -0.0812193052223324
-0.01754148272118375, 0.08142096844330325, -0.08262193464288498
-0.019195992368074018, 0.07982939640286248, -0.08227794561208104
-0.00896889625619756, 0.08986826628112739, -0.08403230965865816
-0.0110278025378378, 0.08534893664716584, -0.08376905603254711
-0.03447374022349392, 0.08183702950936712, -0.07711071914842997
-0.029462558044401874, 0.08520487539568508, -0.07918041461111838
-0.029206856184793125, 0.09043499596362171, -0.07929889985665266
-0.021621443144613915, 0.0877879506212095, -0.08169320504014826
-0.020932196068326022, 0.0841216678077734, -0.08187106187558696
-0.028636013175886307, 0.08017952860064761, -0.07944427135792265
-0.0322991400466887, 0.07299004861782235, -0.07802282760173847
-0.040503561225835635, 0.08404819307361233, -0.07414135165744774
-0.04179966060899258, 0.0875220172416444, -0.0734326322414186
-0.04784936084147301, 0.08069511637158461, -0.06959531463578184
-0.032919260937046016, 0.08637766340378988, -0.07785868086523118
-0.033309713455949644, 0.08411135711106997, -0.07766790774940793
-0.044074240676254504, 0.07794077270783538, -0.07207953989963897
-0.041552412756359194, 0.08114037676894768, -0.07352542976251901
-0.051474581563978834, 0.08834015216972706, -0.0670174286121813
-0.051021200755678495, 0.09034710978239435, -0.06738594920459418
-0.05934578814640171, 0.07924427622604786, -0.06012751659269308
-0.05501645113637928, 0.08351920523977611, -0.06418206146302276
-0.04507973310099198, 0.08495658687726465, -0.0714851408353968
-0.05215177388845299, 0.08337249176708587, -0.06645412929550726
-0.05354018060469391, 0.08349361985235665, -0.06536087188699725
-0.057226287521472866, 0.08832191841786952, -0.062169033036469125
-0.056826668915233663, 0.08646250472027289, -0.06252743750492645
-0.06059476550044546, 0.08879315306588381, -0.058932533139137856
-0.06028704842077649, 0.0885843204407075, -0.05926412909593725
-0.06557187323763486, 0.09624552274910289, -0.05336328674772588
-0.06542458817620521, 0.08992879415044261, -0.053505935106508924
-0.06425645195089712, 0.08212117355119218, -0.05491718467348419
-0.06809705813062189, 0.08130129708137837, -0.05003751256307269
-0.06789599769337859, 0.07062158848174824, -0.05013542214230666
-0.06855367299119661, 0.08840342622261343, -0.049494406520052034
-0.07046402113508163, 0.09170412864719646, -0.04666071535467442
-0.07435158529484477, 0.09670912430629593, -0.04024035974021103
-0.07350480839604917, 0.09376082449350256, -0.04172605890021841
-0.07152422260263974, 0.07172577067452607, -0.04481510755190721
-0.06947827196506216, 0.07188810658460584, -0.04788015398507469
-0.07506221428707197, 0.07386942149586306, -0.03867315163267407
-0.0761922673383167, 0.08994383423488726, -0.03657144713614154
-0.07657242733372373, 0.09177006959404149, -0.0357655673042038
-0.07980559588487163, 0.09417569878851992, -0.027880396741863534
-0.07998089142508269, 0.09626977964004353, -0.02743150913217816
-0.07772061331258294, 0.07889188087961353, -0.03308648381137395
-0.07780960514880683, 0.07058981474775533, -0.0327127903429044
-0.08031305789262502, 0.07901130170053172, -0.026250765310614682
-0.07858009195630003, 0.07063807432758656, -0.030727010296623905
-0.08065466083076989, 0.08609811756140681, -0.025277727368043193
-0.0817054090280855, 0.07739448473135971, -0.02130131889162303
-0.08085021585979696, 0.06984425617678461, -0.024080892202010717
-0.08288028966582753, 0.09126504965277582, -0.01651721307049861
-0.08226731033359269, 0.08901115721416081, -0.019547923741208957
-0.08354942380788435, 0.08815435746584664, -0.012987661776687047
-0.08385186336597751, 0.09060374878328753, -0.010521251495113187
-0.08307915539385057, 0.07030498269650046, -0.01472475831531138
-0.08289777394637554, 0.07175817225266706, -0.015704156575925846
-0.08365301967615084, 0.0737589681316718, -0.011177067463960562
-0.08446604134157003, 0.0940121526331281, -0.003084285229723196
-0.08434725798731416, 0.09368454805216195, -0.006066799939448219
-0.08447763144113196, 0.08978389807641798, 0.0023244570978590107
-0.08452551712160726, 0.0924834178657998, 0.0014046531682258224
-0.0844552394727063, 0.07416786194968956, -1.6022535435693775e-05
-0.08444703994136081, 0.07671342437724821, -0.0008139640052870014
-0.08432427357842219, 0.07851551880538223, 0.004351081807917261
-0.08429284404310976, 0.07647622500777909, 0.004677440352592703
-0.08362561315855127, 0.09653662395092504, 0.012652398819712876
-0.08370918338135852, 0.0749238060056843, 0.010792660739181578
-0.08351835091196208, 0.06987546165436988, 0.012014449667877465
-0.08277654300365792, 0.09454147343232303, 0.017111280682960677
-0.08314728265153583, 0.08934487183354065, 0.01513277912041023
-0.08247192076828255, 0.07432674929269821, 0.017964295825528498
-0.08221962248330003, 0.0729562265838325, 0.019168307403685483
-0.08115052519986889, 0.09400843112856248, 0.023645300189883606
-0.08207053081486639, 0.09221881743159437, 0.020353911750738057
-0.07959166105796356, 0.09208609744977135, 0.028434067613552362
-0.08049001057669228, 0.07996907510892677, 0.02569818017726222
-0.08096779300741413, 0.0708428348686023, 0.02369740959921156
-0.07605358951052042, 0.0951756952365146, 0.03692639977040109
-0.0763673263087225, 0.09443366313973074, 0.03623807068064758
-0.07920076494018564, 0.07308742656560963, 0.02910934575410152
-0.07815273587007084, 0.07055836343148805, 0.03188309497030325
-0.07359233747120525, 0.09681121488113417, 0.04159679881372965
-0.07385568421561695, 0.09347796354112065, 0.04109710675220482
-0.07687189440176267, 0.06974568415784016, 0.034728803830528475
-0.0719796265501772, 0.09239315459910355, 0.044397519852215975
-0.06949746278179929, 0.09480566820015938, 0.048131631917690286
-0.07307870360187746, 0.07161391818636237, 0.04217243152024812
-0.07219432325132635, 0.07004504939023917, 0.043722132962337484
-0.0686018575112152, 0.07268794110833499, 0.04920508726426507
-0.06977771759399926, 0.07567259035272868, 0.04749398895105392
-0.06699843258448637, 0.09183857560644954, 0.05152313399343683
-0.0669048678928933, 0.09533254449192577, 0.0516662314558302
-0.06280800743120235, 0.09482867123304778, 0.05657646588366893
-0.06439641873893083, 0.08020629423790612, 0.05471505837548685
-0.06661729701312337, 0.07100927093804794, 0.051762945728395335
-0.060047629268106535, 0.07347773055903159, 0.059354837480869616
-0.06126389125398626, 0.07427435786076753, 0.05804962348407637
-0.05884178628934844, 0.0943638613506812, 0.06071148639331512
-0.056204598072662905, 0.09393098959155104, 0.06314641976140967
-0.055499547536761305, 0.07097669889540154, 0.06357997404715254
-0.05584097600855871, 0.07248253879759828, 0.06328307584980686
-0.052395631233927584, 0.09617527666015768, 0.06633442939913668
-0.05402012264094702, 0.09132498454405305, 0.0650268911216499
-0.05142462700647978, 0.07839932527735553, 0.06696975420283521
-0.04627732944534718, 0.09557889925934261, 0.0707403306582106
-0.049651549158222855, 0.08739983444971106, 0.06844347021265093
-0.04116061730924881, 0.09211816510978584, 0.07381337055828781
-0.04224722554034606, 0.09293528006454285, 0.07320880714342502
-0.045945133464308355, 0.07212762494542302, 0.07077367363380715
-0.04500726003234419, 0.0782810676161872, 0.0714676565770628
-0.03875819552605211, 0.0823890225072974, 0.07510353045880493
-0.041654813901498076, 0.07425650377713536, 0.0733962177645456
-0.036931317435406466, 0.08749604738529464, 0.07601473007387008
-0.029666247364829056, 0.09369035482314284, 0.07914441555120369
-0.03091162728046404, 0.09123686552150097, 0.07867356428478761
-0.03547679006285784, 0.07255511366097431, 0.07655529976640729
-0.03354909694798133, 0.07008581589810073, 0.07741907491733137
-0.027551489012828376, 0.07046787429397129, 0.07975017351259822
-0.03040393381918537, 0.07303887778444916, 0.07872262221678442
-0.024160144286523313, 0.08886428724223247, 0.08098224150245369
-0.02325711055677597, 0.09433361578783167, 0.08126145557810524
-0.018891016554675663, 0.09336589196038597, 0.08241724097396019
-0.021094045484598346, 0.07280716774191605, 0.08172044201923225
-0.02000715375007333, 0.07495803738146198, 0.0820472615280018
-0.01355576082607438, 0.07177038381862798, 0.08332538617458272
-0.018150471546972566, 0.0720941598665561, 0.08241414301706214
-0.012854585507897923, 0.08461302672480167, 0.08354975234732104
-0.011857606097181728, 0.09241263644292859, 0.08370167515539584
-0.0029023568948104094, 0.09732618599447707, 0.084487572429395
-0.0057257754411441965, 0.0861488099106838, 0.08432805635310309
-0.009390175494098091, 0.07512281686291476, 0.08387692848121422
0.015582521136462454, 0.08107532560303254, 0.08300851948025045
0.017566045261820203, 0.08232336691663573, 0.08262543594564578
0.007517723822856937, 0.09427449732244136, 0.0842231815733562
0.008487697961300545, 0.08693589988687034, 0.08407645785353465
0.010541981280150926, 0.07985973218874479, 0.08378411861234927
0.009855801923121991, 0.07970820589534477, 0.08386390083817288
-0.002764400987962569, 0.07385657763631723, 0.08434425419203298
-0.0006884358283563312, 0.07771311680468496, 0.08446109616647117
0.0032883202550573498, 0.09138891993648662, 0.0844466654457606
0.00478698405471668, 0.07837767813159793, 0.08430587346449897
0.005204833969766535, 0.07685013389779516, 0.084275507550585
0.010727452129150104, 0.1458444908433103, 0.0836869236019982
0.006760342882877931, 0.14860419531000202, 0.08409268629906502
0.022138079856852424, 0.1482271413179702, 0.08135856842636899
0.02290876252062566, 0.1349989520866003, 0.081394154387061
0.022003209849727798, 0.1353786367032385, 0.08164948718690229
0.017118953504138945, 0.14992833837428526, 0.08252010813033586
0.01686296786712186, 0.14732098050232342, 0.08263183222530354
0.018483434643639572, 0.1308210082709727, 0.08253645016905164
0.019229072114673278, 0.13542065036171422, 0.08238808648321452
0.01237250376842002, 0.1334386649919491, 0.08368256401700491
0.027493372442207162, 0.14149688446838843, 0.07988911563233639
0.02644328965291034, 0.14425674159843344, 0.0802093235971672
0.03307410471910615, 0.136528146141571, 0.07786178349110263
0.03774922854816908, 0.1293570704634513, 0.07570686525803841
0.03376346554501761, 0.1408505742390046, 0.0774617473654482
0.0323220505875099, 0.13176594740001954, 0.07820280160354179
0.028246628317859637, 0.12687195281631455, 0.07970658268688233
0.04678670179674135, 0.14637056904144782, 0.0701917920367688
0.04556318703834129, 0.14310778671175792, 0.0710989323539546
0.04578111914608891, 0.13568855303014984, 0.07110527949133368
0.03957209718682413, 0.149599816043843, 0.07443719660397974
0.042551508718471576, 0.14783125720769855, 0.0728147566842081
0.041163004345781753, 0.1368058893577789, 0.07386107395105787
0.041209865485494726, 0.13661069013832475, 0.07383482668661684
0.058531974995813286, 0.14805968605620587, 0.06071662683364626
0.057462732302168584, 0.13382726914346993, 0.06203112948926784
0.0583404156196845, 0.13004013051448987, 0.06121990632365223
0.05215057679914542, 0.14528815390203734, 0.06633537296983788
0.051539876837125596, 0.1428390694882121, 0.06688818293868745
0.05173360729014888, 0.13486117675323595, 0.06688850692674456
0.05985895216955478, 0.1480840963113385, 0.05945909015747415
0.06156757454339768, 0.14767864755945015, 0.057624138908659375
0.06412660116014707, 0.13075074215871535, 0.055195580741652955
0.06360884737743693, 0.12765319815560647, 0.05575575135508837
0.06534000209724582, 0.13480996230575176, 0.05369762857953617
0.06705853091682894, 0.13523705440762754, 0.0515179524462636
0.06699945460447836, 0.14837395470844597, 0.05119433204905589
0.06868139546338847, 0.14442537628534188, 0.0491275144541021
0.070550572525893, 0.1461799697452112, 0.04625751254325044
0.070737777398449, 0.12945369011338975, 0.04633119148279283
0.07170546228468822, 0.13002729653432726, 0.04488275864833623
0.07358936795738076, 0.13365159961166356, 0.04164806858610674
0.07270180980856394, 0.14813705990572712, 0.04273883588733051
0.07343373510901566, 0.14499252230501447, 0.041579204512182374
0.07527141013909794, 0.14550211001676622, 0.038261310703192185
0.07522449368417151, 0.1486030332596283, 0.038193716702210716
0.07833173514890004, 0.1498898655021883, 0.0311596255686668
0.07771928274263892, 0.12925692077228762, 0.03338321799172708
0.07803985762582247, 0.1301702632463489, 0.03268772666214598
0.08010263236005824, 0.13305549629659713, 0.02717321878760578
0.07980012302720699, 0.13571817221192886, 0.02799305632508805
0.0809024759934989, 0.143892104573255, 0.024120810631524214
0.08226545423048012, 0.14839936628770556, 0.018577863199088038
0.08218629805139113, 0.14427521659233264, 0.01945889075804247
0.08284737667096953, 0.13229420992529925, 0.016920647665327478
0.08313580971326757, 0.13395407417102, 0.015471075170367122
0.08143917631319292, 0.12407794774083074, 0.022748994766495383
0.08361445463641642, 0.14110378495125941, 0.012262661989697476
0.08344085562347772, 0.144435360978022, 0.013081701327532315
0.08445279378414543, 0.13316347479323642, 0.004300373614131789
0.08441593677313292, 0.137111668711292, 0.005236921903996012
0.0843250692373084, 0.13253666701209887, 0.006940955113985194
0.08420062920433402, 0.14467629748388092, 0.006583116710490335
0.08424880088907746, 0.14273053322242904, 0.006490443385989645
0.08449524944813305, 0.1412753161092198, -0.001074051360432978
0.08429635365587082, 0.14742893411277547, -0.0025502148059988686
0.08438537932956411, 0.12456017320907975, -0.006014104202827644
0.08401874111792638, 0.14922816573630038, -0.007264032848028607
0.08394202312642943, 0.14589686594048906, -0.00856094426605131
0.08403553020106985, 0.13746944396732913, -0.009388823740213116
0.08388971318905902, 0.13626550138553734, -0.01062150454431348
0.08303688087632606, 0.14323415624723917, -0.015306286282255603
0.08266633924060685, 0.13035017447442315, -0.017830767914586237
0.0828323270771115, 0.12710361966691958, -0.01699655614472143
0.08063250321322069, 0.1321467369269821, -0.02561011110458747
0.08085582120521989, 0.13725457625962595, -0.02481809666797463
0.08159945395303916, 0.14411795033921784, -0.0216300836562281
0.08146573457402215, 0.14317374036170383, -0.022183880204169965
0.08014351773788359, 0.1492323836406685, -0.026293049431586862
0.07869405921668352, 0.12805400036162773, -0.030990759466782557
0.07914324370604389, 0.12681309207296732, -0.029773418161281175
0.07625610477866808, 0.14653767186178607, -0.03606854051913875
0.07714182861799634, 0.14950648552044504, -0.033984779141857206
0.07734577759579707, 0.13454592062959703, -0.0341936503586731
0.07490907107232177, 0.14366388873292554, -0.039007422933468865
0.07453585614291533, 0.14500885707984554, -0.03961082011345674
0.07084185176347893, 0.13744891551384472, -0.04617546231601803
0.06999686147896983, 0.1327453569316179, -0.047440251590800044
0.0713203865546832, 0.14684925879203198, -0.04507776398648855
0.07246216392711848, 0.12794026953126103, -0.0436606267938961
0.07312948305930178, 0.13158420650518116, -0.04246920874334925
0.06693917697252708, 0.14396859355358316, -0.05143353210771134
0.06811547789585941, 0.14493874621290168, -0.04990575973394557
0.06792314833066593, 0.12463928222514092, -0.050421383596873495
0.06084843067914153, 0.14979618017368088, -0.05833090712990772
0.06240729017848404, 0.14656115087208665, -0.05675331452891738
0.06322867158922071, 0.13710563155570585, -0.05616711569360248
0.06381644523658073, 0.1374028177961963, -0.05553118781989119
0.059064597535735355, 0.14163160050766563, -0.06042450988200634
0.051621345752800155, 0.13621009822586477, -0.06697704823309744
0.049860603487666195, 0.12958836723900458, -0.0683652820072746
0.05639702477206638, 0.12975960269436176, -0.06301617213059478
0.05702114891252218, 0.13585692380987183, -0.06243930498004193
0.04666322106722633, 0.14089595763688978, -0.07042485607835507
0.03910933304157236, 0.1312576893893924, -0.07501136080133596
0.039768697383148754, 0.1353675627357504, -0.07464204443925762
0.04663841433250469, 0.13380382085247192, -0.07053255316088312
0.0461623816185781, 0.13555391221667984, -0.07085058577677203
0.05458457354997694, 0.14781968548715052, -0.06434263785887168
0.05259553922671467, 0.1432458844585892, -0.06604404555588635
0.04356049384453069, 0.14137412004500577, -0.07241885818205233
0.035278132062171126, 0.12825058036586362, -0.07684588389303
0.03621340671840552, 0.1264888880880351, -0.07641478646357605
0.035829096707688315, 0.13759481622388364, -0.07659160797329351
0.03632233822868838, 0.14492394585958865, -0.07617972810928463
0.02892259321651387, 0.1310411247272873, -0.07945716627286652
0.02360664298985742, 0.14452753250356126, -0.08103238450889577
0.025957923386427335, 0.14417968060835412, -0.0803776651112929
0.030863353000957286, 0.13948350699227308, -0.07869470374242489
0.03151204499237181, 0.13859134451041896, -0.07847708894404823
0.02198101674641512, 0.12983224083400266, -0.08165574749228932
0.0042848794678719895, 0.14119853839751065, -0.08437067560694284
0.006159846812007584, 0.14133482994391494, -0.08429377370416277
0.000735526083781912, 0.12798642077109182, -0.08459309729578049
0.0010818576938941104, 0.1284102144799412, -0.08457946854418583
0.009934770334767888, 0.14333564628338946, -0.0838384648767252
0.01967450932704491, 0.14489475502116822, -0.08212897784657078
0.018964629104047184, 0.14595260711802838, -0.08224556366875804
0.013587819605965737, 0.1279391508863618, -0.08351056482614641
0.01622227079595684, 0.13119384321187919, -0.08298637350925457
0.010578814449175656, 0.13757288094245945, -0.08389475288959429
-0.008205446311627665, 0.14957309494260002, -0.08389942713772247
-0.010181524009902732, 0.14892935754644693, -0.083680488731421
-0.004410169969751649, 0.14729678565444226, -0.08422619995797448
-0.00145269170096399, 0.14643898164754246, -0.08436220872022823
-0.004582850746498985, 0.13138722287230503, -0.08444169609033496
-0.025779772693079385, 0.1297185951955582, -0.08058462885260481
-0.024212087550059352, 0.12855746509885405, -0.08102665860929605
-0.021777484222175562, 0.14742285687916276, -0.08147933964323992
-0.020993131296644936, 0.14552144392913702, -0.08174567131848035
-0.01776804723458174, 0.13114334238217468, -0.08267879021282468
-0.015173363926817372, 0.1454830481132339, -0.08301087482745434
-0.018140988134912862, 0.1487187591581294, -0.08234494820398777
-0.01152019377623002, 0.12834769053238332, -0.08378338538401266
-0.01160205359688482, 0.12508946755218459, -0.08377370183774145
-0.03509908388482486, 0.13168291043979377, -0.07692838588027769
-0.0378703679234632, 0.1262823613144828, -0.0756510078232155
-0.03615448310135124, 0.14755871702635015, -0.07619073364437552
-0.0290629058583494, 0.149840350707097, -0.07910661059665422
-0.02718257275135468, 0.1424084690576172, -0.07998156943802082
-0.03110846738832009, 0.1289452885060649, -0.07865058314913016
-0.029823040519721847, 0.13298296051135272, -0.07912489234136236
-0.045232970642036616, 0.14213959803984647, -0.07134616754285104
-0.04857720413812747, 0.13104636659660168, -0.06923723988826422
-0.047076226946039926, 0.1356865895019288, -0.07024002574599332
-0.040972262537633065, 0.1456880905890097, -0.07375545018749012
-0.040354739603146075, 0.13632903892685563, -0.07431376732077885
-0.04331388120122211, 0.12977914071043686, -0.07265633295563176
-0.05535650897601266, 0.14470353015172327, -0.06375612361501724
-0.05793633337373123, 0.1462273737564788, -0.06132420824297848
-0.05040877143567296, 0.13737395072175385, -0.06793304473785935
-0.05454339562201348, 0.1251993330107064, -0.06467315175645696
-0.053077565428928594, 0.14846869653264433, -0.0655118862797054
-0.057777839718934784, 0.12684260213766285, -0.061739865300035
-0.0593676569967972, 0.1316494167212932, -0.060270432501345075
-0.06160381011162154, 0.14404040548155167, -0.057707478291089985
-0.06037130647080861, 0.14205227131735743, -0.059107932267525504
-0.061459317898729354, 0.12496962641007069, -0.058081383006085285
-0.06789867838258354, 0.12824184389230658, -0.05045237170278446
-0.0660614016961855, 0.13494302956671753, -0.052782652232348876
-0.0654564506591597, 0.14701310908436144, -0.05320163277462023
-0.06564438534856173, 0.14775611068743255, -0.05293582783869123
-0.070481265968585, 0.14728908754764183, -0.046315589003922464
-0.07397204247054501, 0.1488451327555096, -0.04043785487294578
-0.07264927382780982, 0.1495573683887526, -0.04276616663739265
-0.07401762745520461, 0.13176128860791597, -0.04088346583871643
-0.07235404677385746, 0.13687110949970388, -0.04385358827136687
-0.06943396384669082, 0.12720086088536658, -0.04828274999801017
-0.07522592056554946, 0.1461393564694726, -0.03832520076596876
-0.07534631152951951, 0.1418701429029427, -0.038297214394692004
-0.07876923109747944, 0.14337335583485908, -0.030404414848811
-0.07856864639500111, 0.14541770767462558, -0.03081299010722486
-0.07981047241315513, 0.12981468717585656, -0.027965027946848776
-0.07751281479756794, 0.12829127735058132, -0.03383116290425775
-0.07792776977257251, 0.1360884246897986, -0.032930915931824366
-0.08084853141923135, 0.14265721066612352, -0.024416227322950644
-0.08082013165045658, 0.14494641144751635, -0.024324069663377003
-0.08110413178419752, 0.12722612164239253, -0.023937288576477592
-0.08226774592987789, 0.14170554379556263, -0.019350712890829312
-0.08210601625125578, 0.14975726699448433, -0.019220090453244864
-0.08343888052620137, 0.1294032171059304, -0.013948007734712988
-0.08323965736062025, 0.1323283571739494, -0.014949249746178884
-0.08337705937519105, 0.14707015941457185, -0.013108257574819118
-0.08396249470689576, 0.13012042725653428, -0.010006071369016186
-0.08425999733340905, 0.12811030744584104, -0.007491156360240199
-0.0844724505740811, 0.1346425809725807, -0.0038011639634364393
-0.0844503087131093, 0.13425386668553727, -0.0043638562804600685
-0.08428635716864387, 0.14085341542349902, -0.006627930561542401
-0.08433735876421074, 0.1404509368872529, -0.005565914457289145
-0.08431926610933645, 0.148007853657654, 0.0016311478773329009
-0.08372277201941263, 0.12744576416384132, 0.012032547920551239
-0.08367026626307533, 0.13238724119690443, 0.012476400450605643
-0.0838436728231413, 0.14507945487391563, 0.009551317355277627
-0.08386915994928054, 0.1440839270866633, 0.009529635663139769
-0.08449057239004171, 0.12830448145907022, 0.0033407476990681487
-0.08316377410685144, 0.14135226793749733, 0.014888901279426799
-0.08326019404611734, 0.14599871832314568, 0.013859938576902618
-0.08155282949847736, 0.14840457503376642, 0.021434119972570803
-0.0819341854911594, 0.14894293916136958, 0.020036263265012563
-0.0828008408290982, 0.1273388440121641, 0.01715464155071036
-0.08057181319063264, 0.125995731226154, 0.025825217220669987
-0.08154960185272225, 0.13361669505722976, 0.022357430742192114
-0.07900751067603778, 0.14600218925593933, 0.029584998276118053
-0.07843018528949681, 0.14749435803601407, 0.031051061762436317
-0.0780330108554165, 0.14006026121785917, 0.032567242607076025
-0.07630776958516355, 0.132471723287099, 0.03644553400351398
-0.07628114396809588, 0.13386186955043772, 0.03650329869177131
-0.07849492642907631, 0.13474163720110888, 0.03153031805321316
-0.07936305085521644, 0.12892620358649792, 0.029177609721724958
-0.07332695099978, 0.14794824460191258, 0.04163156034633174
-0.07186799541036479, 0.14200506789747372, 0.044457430542934905
-0.07149404768819463, 0.14341221800333118, 0.044959237827491234
-0.06866579791580249, 0.13311338691529198, 0.04943254345700409
-0.06980129886315621, 0.12941414432485845, 0.04773291699182101
-0.0734139318395908, 0.12815193513191558, 0.041961295546065605
