0.012647573068070576, 0.45053431357307683, -0.4022967359282489
0.01238862765851806, 0.48482317855546714, -0.23750091319605016
0.018913523027222122, 0.45459939229817625, -0.33631692652436174
0.018427796407777038, 0.45874325831887397, -0.34629394325380575
-0.7773471369736675, 0.5055681872159655, -0.23761732706988745
-0.764051417599428, 0.5069446956076327, -0.19280120800327966
-0.7687820209940556, 0.49608814547499025, -0.2294652909338354
-0.790082322551566, 0.5085201430335116, -0.2808476609400399
-0.7876433048806579, 0.4956341917472956, -0.3944595364438248
-0.7767337232435624, 0.47944504367520374, -0.3890863027228855
-0.7764184084514155, 0.47616590330746883, -0.3444102113847221
-0.7716717031854132, 0.47652786934718794, -0.4094084600115676
-0.6603675022557738, 0.520637505934331, -0.14905888231536193
-0.7108251645219219, 0.5207253194147399, -0.15316223078611851
-0.6636600827843079, 0.5303294788755822, -0.15200997086685633
-0.6183734159042996, 0.5583604276714027, -0.15746367326921035
-0.661345062477501, 0.5621205443936219, -0.16316633303958536
-0.6958791450645185, 0.5541608471717442, -0.1635255830986468
-0.7184852511237934, 0.5675391791489336, -0.17252774650798108
-0.6665732982831174, 0.5659454951747742, -0.16543487435527165
-0.6308971607216218, 0.5921325265854821, -0.17378608739647372
-0.6484804266422585, 0.6062664986421692, -0.18349765825908987
-0.7140685307631662, 0.593387295184899, -0.18544191856253164
-0.7165756441555244, 0.5806474231189145, -0.1789499462923889
-0.693771319842295, 0.6252817377669644, -0.20026720306148119
-0.7289029146250402, 0.6278599396206014, -0.20661992734995405
-0.6373115182107559, 0.6263457675576269, -0.19330858217609093
-0.6186752849314254, 0.6151583803289775, -0.18439605994084693
-0.6002262119300211, 0.5511857985451296, -0.15348890466303508
-0.5371930811098048, 0.5525869405204352, -0.14988245375799564
-0.539425001102785, 0.5364862004692911, -0.14545025157102537
-0.6032587663145933, 0.5383407551775894, -0.14968516202868729
-0.5474184669352145, 0.6100835107089105, -0.174186475134438
-0.60016020471771, 0.6074918826424855, -0.17822369092396737
-0.5733515102757147, 0.6270982213920283, -0.18603701001754105
-0.6161200577832423, 0.6172096601293969, -0.18525235456684716
-0.5438647162279499, 0.6302480548643349, -0.18490784611630837
-0.5772735998210012, 0.5804052315076882, -0.16270029778812015
-0.5434954024774556, 0.5859405022446498, -0.16235202540762858
-0.5321993544879221, 0.5727944274961663, -0.15641099824388627
-0.5551629853599733, 0.5676913727954512, -0.15574968838784212
-0.4615815556519596, 0.6368552814600745, -0.18449767143383483
-0.3994624308198112, 0.6274916884068729, -0.1788470335002468
-0.4001889424594285, 0.6185641558381128, -0.17422000212838495
-0.4653149945945486, 0.6197570221211051, -0.1750194656940103
-0.4791014135890622, 0.5517645758871793, -0.14761467690923344
-0.42436032367223986, 0.5529514940012679, -0.14750009274952605
-0.40081655396417876, 0.5415030846495043, -0.14452102618933954
-0.45044178010600083, 0.5302212309760961, -0.14166611119670605
-0.47069782122453596, 0.599375005269535, -0.1652362641475481
-0.42378266924979185, 0.5962434962851539, -0.16337024973430744
-0.43356111807656006, 0.587723291920095, -0.15959804920350001
-0.4642542516952747, 0.5900234138103999, -0.16079178853603127
-0.16901682819244251, 0.543368762506739, -0.15186305972940162
-0.2442632185030222, 0.5376452366293879, -0.1462194969964212
-0.2762351949641074, 0.5484734446004742, -0.14781011476085815
-0.2834187206174361, 0.5586939956178605, -0.15065234391417065
-0.19459368436334729, 0.5549511998278553, -0.1541732961335342
-0.2311772491245408, 0.636052312171556, -0.18977984507456439
-0.23603534056927947, 0.6430840457080486, -0.19359746985899062
-0.18463535857641525, 0.6285425124877307, -0.18957319995981126
-0.19053244123877958, 0.6074157439229266, -0.17732103405899313
-0.17241531272833968, 0.6143069747448364, -0.1826303718734798
-0.27951213823656296, 0.6149940631147898, -0.1748778320484245
-0.20120793228336262, 0.5772127632363049, -0.16220171319795335
-0.2857348143555338, 0.5711041987583135, -0.1545664574603682
-0.2746425753585958, 0.5909931892392667, -0.16355001560430316
-0.16989217656090344, 0.5922330910083606, -0.1715830574432443
-0.2051321456593321, 0.5931762580183163, -0.16902248816113358
-0.14136595623229062, 0.5504348060043758, -0.15610480797068246
-0.06145811209884155, 0.5504086195475003, -0.16450403287465043
-0.09494332252284622, 0.526182941638188, -0.15167918545141873
-0.12128827022521407, 0.5447652710379803, -0.15584183542115507
-0.14410815201102872, 0.597696088953293, -0.17653543114124487
-0.07378329748299618, 0.5939329321254965, -0.18372636070408233
-0.12104678250123231, 0.5671305289875666, -0.16497382689624912
-0.1347426923074286, 0.5677386955476045, -0.16372085718879978
-0.08150318619601651, 0.5987175526711991, -0.18509163297566594
-0.12009513675569287, 0.6160095979949985, -0.18948430330020372
-0.148400612543547, 0.6189102091641884, -0.18737825368584243
-0.04948814525213559, 0.6244701796459037, -0.2042830169166089
0.010094008580446675, 0.5119736663525356, -0.23116509605828528
0.01233001909325859, 0.5164882767681492, -0.24887887258507407
0.017150824358165926, 0.48850297042689284, -0.28334269593700245
0.013541817597535236, 0.5516213193856416, -0.2775001865101397
0.011883551649172442, 0.533397285954367, -0.25246722175958425
-0.002031931721787358, 0.5744627869745093, -0.2023515988658612
0.009836750442786202, 0.5872078278695319, -0.2560082877198614
0.003594131565674846, 0.5952078370558477, -0.23171659573139597
0.014414751782858427, 0.5831578440072377, -0.2974091733668687
0.014219086370269945, 0.4826630207457288, -0.39231955477341196
0.016414365176674873, 0.5018159857546333, -0.3677497553094329
0.01470383568253926, 0.5339856526657131, -0.3874365603587416
0.015767323601966504, 0.5227114208282206, -0.37288058703782134
0.014292964349952735, 0.5686578174325678, -0.3981504010192895
0.014996665910440033, 0.5586217668651832, -0.3878082002615139
0.016526816453091713, 0.5599917564816962, -0.3525166230663328
0.016449737345982623, 0.5470208145803808, -0.34532546716938217
0.01783932256090813, 0.4738174867280516, -0.3535982683442841
0.008434182466844464, 0.5103705506066053, -0.4277514612948719
0.004415288527648579, 0.5046048297355494, -0.44362738519594935
0.007175248336910189, 0.4660694578238282, -0.4292795691801795
0.0034188728922837897, 0.5797870397134863, -0.4579705491520484
-0.03616290741142583, 0.540696797569229, -0.46908787361798066
-0.12489678092443814, 0.5435483686244398, -0.470342167780376
-0.13851707213135653, 0.5225282453028701, -0.4685847643724024
-0.16016235038256868, 0.5238314498606726, -0.4689203370108567
-0.0530739767500936, 0.5153496540761575, -0.4669567638829039
-0.066133398554961, 0.4972980061560184, -0.46552376436138143
-0.11167666415219296, 0.5053046475865866, -0.46678810777698565
-0.09949359148548878, 0.4785386420520392, -0.46431501768643696
-0.15170119885044808, 0.48742205644900705, -0.4656287498069498
-0.05599768256676846, 0.4812275959378852, -0.46396988096091113
-0.14840905403099766, 0.5502588541726243, -0.4711640511659809
-0.0787093163710306, 0.5486256164756105, -0.47036719070376554
-0.030938363270623152, 0.5593706924891042, -0.4708773742952369
-0.1480460605202551, 0.571865074358128, -0.47320932856718173
-0.16629918343299788, 0.5762369835925918, -0.4737610223524421
-0.19012486882515156, 0.5694821246436672, -0.47313831450629334
-0.2945661729939133, 0.5789060606355922, -0.47416316098518135
-0.21133759098244356, 0.5589085641812708, -0.47220083013708314
-0.165364244538186, 0.5368101503541483, -0.47010735102290646
-0.23541231549904035, 0.5383315871657285, -0.47047337399586464
-0.31238659677566505, 0.5464000287945638, -0.4711822358267753
-0.2844130352898814, 0.5409313749894423, -0.47070378911861366
-0.26549395662999, 0.5211619327618293, -0.46897419921600614
-0.20344119338888483, 0.520705234580548, -0.46881447508772583
-0.3368441571319605, 0.46501317326755637, -0.4640618879650244
-0.280986394987176, 0.478237002227138, -0.4652188348451485
-0.2053640249657289, 0.4745207669915854, -0.4647769582757346
-0.1668295547163772, 0.49248742889391584, -0.46621037093867274
-0.21317238165404048, 0.5022788158069373, -0.46723226476141577
-0.2570092326525294, 0.4920161907038459, -0.46642434685052964
-0.5424928235910356, 0.49424185188865766, -0.46661899963210823
-0.6209036571124258, 0.5012373031833656, -0.4672733552405194
-0.5761730374713169, 0.4894289054222893, -0.46621266388414273
-0.5100942240719718, 0.48356882836502246, -0.46568522209113605
-0.5542915096930768, 0.5838000459045678, -0.4746950543741292
-0.589055786138639, 0.5847027816007397, -0.47487003364000535
-0.5755049328883128, 0.5620436154742676, -0.47257694803439143
-0.5142291445072561, 0.5574957975153052, -0.47215314149107557
-0.582229392484217, 0.5271117313566593, -0.4695005253244542
-0.476894593359073, 0.5136434782108218, -0.4683163993138004
-0.5555408855804633, 0.5238080770658009, -0.46920568773579097
-0.5680498091641637, 0.5441797148355629, -0.4709914102263453
-0.629095009655452, 0.4987561760578516, -0.4670728140740458
-0.7111263185897057, 0.49617328424402085, -0.46688158019630516
-0.7119942364153835, 0.48839565780146804, -0.4662467890252501
-0.6745067863272353, 0.4838635613456811, -0.46595502286416457
-0.7497005422222585, 0.5162133772138546, -0.4683449007980154
-0.6755103900510848, 0.5152285451074101, -0.4685475948135012
-0.6608608755626504, 0.5283004936632146, -0.46965386964552636
-0.7396361640899604, 0.5303872596364676, -0.46971284365816834
-0.7144618320983246, 0.5523508447975427, -0.4720130080097571
-0.6377477661610571, 0.5607395710985086, -0.47260835211153535
-0.6274444107150083, 0.5668271985075449, -0.47316175998472887
-0.6587785571351131, 0.5688694504824304, -0.47353748493645076
-0.7354319664942987, 0.5917187200284918, -0.47641711157046407
-0.7831051634414175, 0.5177602676116072, -0.24063494694814547
-0.7797768754212507, 0.5334026056720473, -0.21783981361454985
-0.7961959560885773, 0.5392672572996426, -0.29079686125393506
-0.790119066942006, 0.5230166087063782, -0.266920012650228
-0.8007532060877052, 0.5312379256156216, -0.35100627651229765
-0.7934593801909149, 0.5132200989953488, -0.3960292429926481
-0.7991287173446472, 0.5286934334845871, -0.3705831360747295
-0.790128229762573, 0.5311733168327989, -0.4260161292268186
-0.7869465563351051, 0.5270041189073387, -0.43903431826839756
-0.788805390200262, 0.5587806321886953, -0.43418360721322097
-0.786098976257265, 0.614456072442743, -0.27333950394784323
-0.7714091155083183, 0.6140245660424466, -0.22201758190572085
-0.7807218261318676, 0.6132879951829935, -0.25106978468211244
-0.7797100154185008, 0.5613364469375524, -0.2206396918474074
-0.7914875832571461, 0.5585210687349308, -0.26640852352648625
-0.7973707334809746, 0.5938287632962452, -0.37742236358814063
-0.8000575342189917, 0.573022237229571, -0.36324718127088507
-0.7934105161616762, 0.5959600664145089, -0.29848979532764064
-0.7906183589335509, 0.61666897330736, -0.29968562209487215
-0.7956012153834616, 0.569872084124045, -0.40211811287435034
-0.7906135299117982, 0.5886395515507755, -0.42357047166735273
-0.7974126095462739, 0.5660436500014534, -0.3896923548201793
-0.10469217858864296, 0.6760218343634847, -0.22700159236007578
-0.13593907839805439, 0.6972189557670034, -0.23666890461750173
-0.04715638909828371, 0.6894031334216659, -0.24174687481830967
-0.0736184852591635, 0.6910091677709529, -0.23952562335889271
-0.0481148970940259, 0.6445353905345911, -0.21587359843837783
-0.06745059662598567, 0.6489932814532424, -0.21564982855141523
-0.09616267717350577, 0.6549163607525882, -0.21539657547743063
-0.0915518501584975, 0.6432457404187893, -0.20916604036192793
-0.12479212068003748, 0.6697759990081318, -0.22088482433982132
-0.45091099234716553, 0.6948878842075068, -0.22220689586488415
-0.46194989236195677, 0.6841133753654182, -0.21477880746517247
-0.4217243750650953, 0.7183939592261863, -0.2390045778490117
-0.4399884477117202, 0.6896801425052708, -0.21848921818037872
-0.40724649695754866, 0.6502324605993546, -0.19235568729206445
-0.43804937553496726, 0.6772184575727064, -0.20998087667581977
-0.45928763742877354, 0.6677611947757353, -0.20398908935307875
-0.47715766024817596, 0.6650807897312451, -0.20268279541354342
-0.16113617055829896, 0.6672849236328953, -0.21535250948579718
-0.18916307322682535, 0.669544404249784, -0.21421904216914997
-0.21092377239524526, 0.6723147998055072, -0.21406975870636719
-0.2340103978604894, 0.6557262399059341, -0.2017125559540664
-0.26685675907986184, 0.6770635142130454, -0.21322706255151455
-0.23731912938724425, 0.7015137598697035, -0.23167662458370542
-0.2717410708778878, 0.7152952152992968, -0.23928720041014417
-0.26855863995106466, 0.705687500682648, -0.2329448276545834
-0.17976043466161398, 0.6905974268067607, -0.22846883843261404
-0.18469278724843535, 0.715133156539931, -0.2443146284674536
-0.19408330169752938, 0.7015211501312807, -0.23445386880026192
-0.5583882341867785, 0.6891744324172968, -0.22325058965133623
-0.6088752513262199, 0.6792245621905607, -0.22178969027181233
-0.5368920769644021, 0.68665061511863, -0.22002751915977842
-0.5526045800102296, 0.6948682038111293, -0.22677960356439275
-0.5122515226345898, 0.6594618547506308, -0.20036995888385817
-0.506959597081408, 0.6830964605254036, -0.2153152932937555
-0.566241187973858, 0.655402509001685, -0.20228538263201484
-0.5873279549662708, 0.6635148113773937, -0.20986978737137807
-0.6948133655357092, 0.692103099582777, -0.23974964580895403
-0.7321930425376222, 0.6986162304846658, -0.24783536054645966
-0.622538343612396, 0.706750889226343, -0.24129493174165612
-0.6489161812273383, 0.7012727319934147, -0.24039212622514294
-0.6479831280839619, 0.69054250508966, -0.2332993230508661
-0.6353729761703476, 0.6647564318667126, -0.21589140403350854
-0.6605435969317957, 0.6614120454397775, -0.21687841797227259
-0.6983509625544368, 0.6596769779498892, -0.2207631845120705
-0.73568328529505, 0.663888403979175, -0.22805999257982285
-0.7717811739746454, 0.7043005266805489, -0.28956859347775077
-0.7753058781543414, 0.6674646888611323, -0.27032396466700637
-0.7782845929165418, 0.6352065521152088, -0.257277390267782
-0.7838098669021227, 0.6500038049102526, -0.2920936747515502
-0.7882073431412993, 0.6468339838045676, -0.31787766063840256
-0.7819993642096639, 0.6847617717596892, -0.3258251343149292
-0.7829964154754525, 0.6727341266684139, -0.31344367082208235
-0.789125738446117, 0.6627782569759685, -0.3795600557079848
-0.7912959867700795, 0.6422151788854462, -0.38897376774742515
-0.7828401207421478, 0.6830143702892255, -0.41103533179500085
-0.7933029398812768, 0.6135343630518593, -0.3987690723653674
-0.7865787876680134, 0.6273128678817566, -0.4298246926848777
-0.7792261812791391, 0.6473640175305786, -0.4517689154964737
-0.7782215522360862, 0.6122027957706166, -0.4623238626588943
-0.6430187049499934, 0.6352433273028112, -0.4808626203183989
-0.6589886859997688, 0.6207360835820136, -0.47931068550323525
-0.7248269344729601, 0.6444988576102254, -0.4825111409617433
-0.7282644003772343, 0.6232706572916951, -0.48008586299924383
-0.7480050260805478, 0.5974778144945052, -0.47713476433488555
-0.6432025342511394, 0.6000834497492221, -0.4768481224973744
-0.6845414362622712, 0.6101504512332288, -0.4782886950433637
-0.5713092737041032, 0.6014218585138771, -0.47668005891669607
-0.6169281872702268, 0.5980419962693961, -0.47644174781021853
-0.5058734911611755, 0.5957264366264613, -0.4759819646693366
-0.5106802567416271, 0.6387074081340417, -0.4807821867757869
-0.5468804055001182, 0.6327466798369813, -0.48015572276912294
-0.5869936436043226, 0.6349063589643164, -0.480529846106875
-0.6139658761441177, 0.6288148724453779, -0.4799305532837018
-0.1621743108245584, 0.644739126538135, -0.4813916495998561
-0.2262820964225039, 0.632770649057351, -0.48014806740502936
-0.26272008855914486, 0.6495093056422996, -0.4820440531672743
-0.2894231995875969, 0.6272260910904881, -0.4794145857679425
-0.2605719269536758, 0.6118194143631075, -0.477699981214504
-0.18260710791549797, 0.6079863480558426, -0.4772379776871785
-0.22146966847235577, 0.5867494580150511, -0.474931752883412
-0.07188062272962961, 0.6386802898344491, -0.47971375303382247
-0.06041381241581428, 0.6178397023879999, -0.47746417260131496
-0.12409551163770854, 0.6363319543384816, -0.4801393685653948
-0.13393348397330104, 0.6259657776872056, -0.47907432312919146
-0.09862318073960917, 0.588818604711448, -0.4746554091285515
-0.1474606608410868, 0.5845028428062875, -0.474490198596267
-0.028919889297631108, 0.5886154163099715, -0.47399178189101676
-0.06916569242603532, 0.5940670392031175, -0.47499364543727257
0.006831484609111375, 0.6043656918548594, -0.43757595021048823
-0.0008674149606495961, 0.6289563189058984, -0.4644164566582502
0.00960213477743463, 0.6291734190337858, -0.3928315755222236
0.005028390683143233, 0.6570234944615133, -0.40596099950188946
0.005300075574846881, 0.639265813495931, -0.4269076016640831
0.0058232321292260684, 0.6288187663369106, -0.43207920347600126
0.0067790494274983576, 0.6212569521129656, -0.25836185583341853
0.0006881126606907077, 0.6821657271144874, -0.2829805293927731
0.002283967256919984, 0.6726344709522347, -0.28449779558419086
0.006632107933251944, 0.6477014028268464, -0.28878535726300575
-0.00039620705035700127, 0.6997185783096753, -0.31804763960395405
0.000466164404525422, 0.6965006793770522, -0.33766006457482545
0.010006770259585488, 0.6308455032668175, -0.3079987004225842
0.0016516048629728712, 0.6824169593819788, -0.39710110102232554
0.010817825433637018, 0.6227779380623191, -0.3845342844774685
0.00045880588527169835, 0.6926602157340496, -0.38481394852244466
-0.006063276168694297, 0.6741168918935903, -0.463058601401108
-0.00541400074630143, 0.7012131836566471, -0.4227650814485838
-0.010975202874255177, 0.723049376716103, -0.40030736459881017
-0.005907352950682356, 0.7170551810276647, -0.3508902204520608
-0.7695083488438577, 0.7087511765325141, -0.4350380617605943
-0.7784265377527436, 0.6853183040483644, -0.43368996078299854
-0.7727662718463175, 0.7175562740816914, -0.4030849880181484
-0.7706676395466289, 0.7238781499028051, -0.3358193870939585
-0.7735969819709533, 0.7211773690623928, -0.3561181668625624
-0.7691707280070418, 0.7211232589071459, -0.3124993762905786
-0.6835934149032816, 0.7165779814455984, -0.2552352158031857
-0.6953347493388321, 0.7123851903067806, -0.25297740673196845
-0.5214155276138417, 0.7262908287097244, -0.24883870679730993
-0.585469807840811, 0.7275290851362022, -0.2549679989788492
-0.5844803894065493, 0.7154085982844238, -0.2437892991325106
-0.4261107648964736, 0.7316730410555035, -0.2519969847583408
-0.4670066015014319, 0.7350125247751766, -0.2557453873739579
-0.16128229260412014, 0.7155128180711569, -0.24644068977062525
-0.22877653536095666, 0.727477931974585, -0.25227245992375397
-0.27517007706864305, 0.7293684697481368, -0.25191686162599813
-0.0888112917328268, 0.7206894534717412, -0.2577892307394612
-0.13283678969047677, 0.7270628505421218, -0.2588706807348671
-0.7145925189391018, 0.663363955233696, -0.48379628310150063
-0.6789857841529346, 0.6630981343443949, -0.48352648398908304
-0.6473418745307356, 0.6976058943091492, -0.4842048607026821
-0.7276731462134952, 0.696569184303417, -0.4840719057130404
-0.5174906321255356, 0.683577467063813, -0.48365868365427156
-0.5746818209640316, 0.6935860035384194, -0.4840441297821406
-0.5781777511208085, 0.6601424654628564, -0.4827201842168394
-0.5951636816846435, 0.6564585755336282, -0.4826374211423846
-0.5439319777943967, 0.6574550072077068, -0.482518561431696
-0.1654800588045752, 0.6794129003314696, -0.48321450302626556
-0.23881347243978238, 0.6837891856230214, -0.4839917749224697
-0.2798346443060254, 0.6787190678837371, -0.48376579460545843
-0.2589751773443501, 0.661514043747874, -0.48280690967384815
-0.19958198591625592, 0.6696433556421368, -0.48310610704755363
-0.22111911810543006, 0.6668773526195361, -0.48309773685802165
-0.11506433841768679, 0.6478717692374912, -0.48111836906407923
-0.04986029493678895, 0.6538425077859367, -0.4796235490255981
-0.06845727281273288, 0.67253730394159, -0.4802641925706383
-0.09977750076206834, 0.6828058852838949, -0.481508510013286
-0.1441727660021376, 0.6796567116615926, -0.48280111920448376
-0.07705008070942847, 0.749839558264749, -0.30133401650550196
-0.09846671842103538, 0.7493818729300142, -0.29681652398792646
-0.15302833802868587, 0.757368316650931, -0.3167323871476017
-0.06881598981492397, 0.7507993765410579, -0.31159392534924
-0.48323447324610147, 0.7558647697370156, -0.295458546194857
-0.4296967211160792, 0.7595656270925424, -0.30884631187707784
-0.17998957265686705, 0.7490914889718098, -0.2854811900115869
-0.15487538222368308, 0.7548317324626101, -0.3004518192012373
-0.25698078090332765, 0.7555756496657537, -0.29518635624017664
-0.2686716489739923, 0.7583977596252033, -0.30189036843203465
-0.19187396905816897, 0.7577802230961451, -0.3108906408279872
-0.5717747518172548, 0.757814924455072, -0.3077307718803526
-0.527640098743223, 0.7585111416806025, -0.3060881892342567
-0.6711683526708545, 0.7472799700323108, -0.29297693210152687
-0.7355224086459247, 0.7425665601884188, -0.29295456901521877
-0.7023061358218504, 0.7509197745427207, -0.30722017748865255
-0.6429760930544964, 0.7549082792347409, -0.30881518832212507
-0.10923297816728277, 0.6941517918431567, -0.4815317942260506
-0.037748602267944645, 0.7010540573189499, -0.4740059277228561
-0.08388857832290897, 0.7164324855471307, -0.4644121676718394
-0.1391120838730876, 0.710944273927209, -0.4750192782505583
-0.28925130499771756, 0.7089817742958187, -0.47868820055416306
-0.18328735606746835, 0.6965517049072874, -0.48341246531266285
-0.19722629386504756, 0.7205331256946031, -0.46752628510775807
-0.24031233891784687, 0.717546943693806, -0.4716391853858226
-0.5338262894090073, 0.7235618900453317, -0.464208518096649
-0.5922286302364487, 0.7245747926903148, -0.4630997893431471
-0.5624279621700257, 0.7059196956504817, -0.47943765611904543
-0.5042528685601906, 0.6972909421239704, -0.48301996644569845
-0.6793027111501007, 0.719180940173381, -0.4661237241563684
-0.7239957743646561, 0.7217240443147092, -0.4592980162677203
-0.6858977824380388, 0.7008960186123511, -0.48212258583053624
-0.6756500099735732, 0.7072806159680627, -0.4781648708053654
-0.11023406010421737, 0.7254403402671957, -0.4540887000316243
-0.04349150034449485, 0.7191552180848918, -0.45431157558776364
-0.07488393291052951, 0.7353968918047757, -0.4268381645909503
-0.12907833963581558, 0.7384214210584037, -0.42958031422865184
-0.23917471030467774, 0.7364786139139551, -0.4435201305553912
-0.27983518767443033, 0.734384679816264, -0.44739244991976784
-0.193426028383051, 0.7285172101034559, -0.45654081041455435
-0.1764528288082653, 0.7424185994960415, -0.4254299976174614
-0.2362941948051031, 0.7436202572804005, -0.4250197410403854
-0.5758885415877847, 0.7340507133859735, -0.44747800661348314
-0.5736341432638838, 0.7269839962397213, -0.4602776099174054
-0.528953419206075, 0.7271535055373255, -0.4601039005427823
-0.6148994005028343, 0.7385830029690064, -0.43587273970712326
-0.5663079645635363, 0.739693033941234, -0.43509645924885226
-0.7210995358849593, 0.7225590334587768, -0.45836284505989877
-0.6456290132166375, 0.728444175528076, -0.4543684179055091
-0.6301524919792867, 0.7365376423264842, -0.43976770717043284
-0.6901393485466802, 0.7355904910890816, -0.4354329155630807
-0.11085949614263535, 0.7540476984486115, -0.3403799070398795
-0.04921879671043683, 0.7493001852772302, -0.33900370117937534
-0.05263382064538742, 0.7502923048546267, -0.3235798077882124
-0.13636659828103037, 0.7565633103535828, -0.3216761218744738
-0.20916341119107404, 0.7587578182125205, -0.3310127604376581
-0.28795331304282934, 0.7599351189874354, -0.32728101724404396
-0.250843679507497, 0.7589129518582508, -0.3382003517958843
-0.26329139735923274, 0.7569938857185039, -0.36087391535283464
-0.2085152799841754, 0.758331888199377, -0.3385433173267572
-0.46249605549999284, 0.7599593187256115, -0.32875300034795946
-0.4503181800419601, 0.7570692920129903, -0.3601864668618926
-0.40307542217299636, 0.7581873648824198, -0.34968291764687703
-0.41590842778390485, 0.7569636659307251, -0.36185098964799955
-0.6059444873451203, 0.7567696632114634, -0.3509281022143858
-0.5908737036070887, 0.7563917399048472, -0.3599913359536204
-0.5271275453061047, 0.757137985181097, -0.3592505398151776
-0.5183963782206986, 0.7591185969465856, -0.3374550019859407
-0.5768966833070921, 0.7583898961434904, -0.3374432998099459
-0.6981496533671829, 0.7519073185521572, -0.3584727224465898
-0.6806291348103698, 0.7533024341782322, -0.35172706520035657
-0.642658084196979, 0.7564901266404256, -0.3255698962055182
-0.7257528822167731, 0.7513374133737393, -0.32740638378103115
-0.008676436295055129, 0.3870875098535171, 0.41450616073415003
-0.0032310497876585917, 0.23561337689410353, -0.11012768577984115
-0.008915091369111991, 0.3023023563902489, 0.4190317507006234
-0.007566133086487796, 0.42373317668159594, 0.21812008406734104
-0.0073689314398440965, 0.23722404263115343, 0.07488641575336046
-0.005207354165020086, 0.2695228846208854, 0.36902756830833283
0.0013799130260063659, 0.2588775576095137, -0.11022951339271256
-0.0044083372859201955, 0.39591486909053086, -0.013157905606039941
-0.0023242648064355715, 0.22901612595431844, -0.09842072005950077
-0.004057365667980572, 0.41851496629635787, 0.23063734883382364
-0.0057556767723030405, 0.2563370458575381, 0.2675946503155111
0.0026135687224362503, 0.2711305082242044, -0.11531697576780232
-0.005077457250767856, 0.28219502561738297, 0.41743924705458224
-0.00550807574855077, 0.4088079958117995, 0.07559766614197053
-0.004340657140287791, 0.23513919792584734, -0.008638914376258557
-0.6764829806162683, 0.42789606353756143, 0.39582201030566927
-0.6820543771302169, 0.34834205763323645, 0.4199681315743474
-0.6856836003689538, 0.3918220254904343, 0.40402971278338445
-0.6635245179468579, 0.2442715595366567, 0.14477556539234732
-0.6630744747310292, 0.26094027045101365, 0.3623689585557073
-0.6764988659126137, 0.414790213578466, 0.15555028110369187
-0.676262738252813, 0.4211855529969392, 0.2949360840894452
-0.3991609044144373, 0.44527217454799933, 0.4120113690550303
-0.27027681456643315, 0.4422263388104498, 0.4148184502843999
-0.1532683519430959, 0.4330142554325678, 0.4161890578848279
-0.6320954848668439, 0.3781644622267845, -0.12416532401552183
-0.38024861973139745, 0.39458453995293336, -0.12702033911317454
-0.22556007592945462, 0.3937062859828801, -0.12601717952690852
-0.06593936934312283, 0.382048461821273, -0.12393753069753048
-0.2744925206927628, 0.22094039650754274, -0.09843331981147885
-0.1661586636628049, 0.2205456609950841, -0.09501697205741194
-0.04822416164580691, 0.22145435527007806, -0.09546910925544302
-0.3100998368218858, 0.2690624396778242, 0.4211072216483206
-0.11778257703770928, 0.26911342431486024, 0.4171718173440801
-0.06691845327604554, 0.26533006220632543, 0.41032744113782815
-0.6903688177332805, 0.3066624219381901, -0.09012888692748733
-0.038130325509220235, 0.35719651224132076, 0.43113108351044804
0.005795366148775691, 0.306584743228608, -0.05727406234312513
-0.6270129468959713, 0.3160165248880121, -0.13621877872845609
-0.6894284737433313, 0.32927897681311813, -0.09010978998909532
-0.6905942299296411, 0.35972227611025326, 0.35971043439917705
-0.6244331298799096, 0.3675225911578882, 0.4316769036393827
-0.02161572486419539, 0.3573860302215719, 0.4285367668306397
-0.004796196319107403, 0.35069697198688066, 0.3926553347405574
0.0016977292072010838, 0.3850632303959044, 0.35593942549931945
0.0029831117147236267, 0.3352156997167076, -0.08604613809258038
-0.003070330817971106, 0.3334249967545847, -0.12622108071584548
-0.6894602355942532, 0.2857860571463716, -0.10735984805763016
0.004893702448167021, 0.29362208523160344, -0.06636535362189899
0.0032253397379516865, 0.292499163263336, -0.08118286850036685
-0.6924223226590047, 0.33920345523953915, 0.3439803126164715
-0.0016601883339856433, 0.32932243385996973, 0.38827869779118207
-0.6809993534272231, 0.3374639694551695, 0.4223875389455082
-0.6551940224734634, 0.32748703234640836, 0.4293357994430851
-0.6700240284080188, 0.2907773575548226, -0.13147135526112214
-0.05398658972645345, 0.294608837132462, -0.13136560447147255
-0.02810260430304354, 0.3357013373286216, 0.4314646274944482
-0.028612780734100358, 0.28091971820683176, -0.12666812711088002
-0.6724632433174985, 0.23500184567914345, -0.09359461994534099
-0.688466683433729, 0.27943896770130533, -0.1113066797883469
-0.68327151781182, 0.25770890846018646, -0.04029069285471462
-0.6765885374325511, 0.37451040749143927, -0.08663766204084887
-0.668620609235459, 0.39502824979480006, -0.06772859283529248
-0.0008637187390065556, 0.3585836951533533, -0.10710214990244965
0.0007266290457718144, 0.35719617118732316, -0.08903364084347543
-5.8756360192714174e-05, 0.2502529640846798, -0.05171773281979211
-0.0035221439602753472, 0.24120846535572865, -0.053202441439641535
-0.010556846892679408, 0.25892066532158553, 0.3529264839531321
-0.0028761941425708005, 0.29195421129859356, 0.3781116092111477
-0.003271367738747166, 0.2959368728484127, 0.3845248784456439
-0.686658688993868, 0.3033489272759404, 0.34665887452262956
-0.672929136558402, 0.27247657311918294, 0.3537401887645658
-0.6759624205108241, 0.4203986439767073, 0.34512278626645054
-0.68622777570051, 0.3910708888056208, 0.35129983643893636
-0.006413896306434818, 0.4106087818767228, 0.39474955125765926
-0.004625106687823009, 0.39212623181153194, 0.3894978224643334
-0.6411095784324606, 0.31813141431264824, 0.4314695637531947
-0.6714518783300789, 0.3967192498264156, 0.41830396722367025
-0.623162054619907, 0.42097651707296835, 0.41667089501397125
-0.655586990340622, 0.38484952399647676, -0.11393954863780875
-0.6539444468061839, 0.37140239026651084, -0.12565550748749055
-0.6846790517576463, 0.2609474201873141, -0.12263507701948259
-0.6233714430288465, 0.25364457767267556, -0.12411658623951186
-0.6249821774896764, 0.2320862833049292, -0.11021301146976964
-0.6104722706520662, 0.2636806322749151, 0.4055852120470357
-0.6356617547501943, 0.2804735354772815, 0.42414257713042997
-0.015012250252062164, 0.38917844870348983, -0.09822669612679448
-0.005357627822865244, 0.34910121498047325, -0.12710923728276946
-0.07653708459941266, 0.34008440066412693, -0.13488486211960438
-0.06358611308269839, 0.2758493906201414, -0.1291221537128097
-0.019681699006975348, 0.2384476091013346, -0.1148814267381795
-0.07232551428849052, 0.22814231652477493, -0.10695105838326466
-0.029010374562207668, 0.22007766654922079, -0.08104506894132874
-0.0475616327186732, 0.4030060823501197, 0.42429188295410675
-0.03628008197543547, 0.42587349792115986, 0.41191796557307514
-0.030853085766525064, 0.2606748910818232, 0.3904234583298105
-0.01765826512497094, 0.28150212421234916, 0.42488373198507196
-0.017982610100812074, 0.2845931674992735, 0.4263632254260169
-0.06063585952755397, 0.3021395184518296, 0.43364100598468197
-0.6517084417025635, 0.2591012716802272, 0.3665271779024456
-0.6466877998994796, 0.23982180281480367, 0.15498763840741533
-0.65825597429843, 0.22784571486346414, -0.004282101770754718
-0.666971264379336, 0.26345262945633835, 0.31420060670803296
-0.6638777387036303, 0.24344605612284884, 0.11873984344154148
-0.6708559177448616, 0.2431975233255586, 0.041756506770593595
-0.6762312673736744, 0.4157817086610021, 0.24693057835048376
-0.6774656229508789, 0.3978520141523431, 0.07034905843208723
-0.6785075519504161, 0.3911547497959149, 0.02841365799964378
-0.6721635886085972, 0.43056132426937266, 0.334300425938455
-0.6656834286842739, 0.43499615944653824, 0.2930225912150545
-0.666805249343376, 0.421809684970532, 0.12009184641986541
-0.011549901816622524, 0.42686180128519, 0.2072192895524476
-0.013150738888102732, 0.4336982447894978, 0.32444069244294477
-0.0064532454522830286, 0.4132669860859205, 0.11175044869369136
-0.006572695828771416, 0.4033396294266327, 0.015368578034475732
-0.0057766298774776376, 0.4126761005324088, 0.20830347579028224
-0.004095433195231241, 0.39941094803018706, 0.10041512320654396
-0.00019254556373364561, 0.3789233803360591, -0.017089252750264388
-0.005640983808629691, 0.2578021321189819, 0.22598793617069624
-0.006049649065076684, 0.2501193116600877, 0.1314772097077451
-0.011689183681206273, 0.2278903489673408, 0.0031004128882050927
-0.012935257456150774, 0.23664393326409863, 0.1094533271406561
-0.019622071691233235, 0.23653251681341972, 0.11791945443131241
-0.023197889109527872, 0.25037173283597774, 0.27971833724395906
-0.26224903971981917, 0.43569477822378483, 0.41964721156834556
-0.2538255333192177, 0.42509677730581763, 0.42612242038994086
-0.15844816498911352, 0.4219440287029508, 0.42398762968446835
-0.34930553969901845, 0.4360121881526733, 0.420389819093942
-0.5248374484566696, 0.42703131633271657, 0.4211182191566876
-0.3201297347993032, 0.44738415624254446, 0.40998239286945737
-0.19205441527150746, 0.4439718438643636, 0.4087623301095894
-0.12788858739575662, 0.44544778607752716, 0.39939154020049156
-0.37678500060066233, 0.4464374991647423, 0.41095073303880414
-0.4615198026654441, 0.45218166748458444, 0.40107451316689224
-0.20723012904640858, 0.39778544556820494, -0.1222704104968266
-0.1639200508631195, 0.3980567153607752, -0.118901977271544
-0.2763893283860446, 0.405128758236622, -0.11838387685414019
-0.3681870943841921, 0.3990766100532284, -0.12374072226565501
-0.561904606177961, 0.40071372955438067, -0.11246917358431324
-0.127259906552213, 0.38010449289751125, -0.1288230746403085
-0.15767214073591762, 0.3807288892229217, -0.13009104681162348
-0.40577920566813636, 0.3862190644110656, -0.13128690714473595
-0.4070617470053891, 0.3815454562790643, -0.1333525056773687
-0.5665254862598814, 0.38155952713874397, -0.12747020950418245
-0.2707321504520418, 0.22622953825975325, -0.10779178441227613
-0.1861434933970246, 0.22283298803499915, -0.10132498774335427
-0.4588513983147683, 0.23094841291805762, -0.11306524270339001
-0.5083279611867475, 0.23083159114124602, -0.11220677388758135
-0.29220795983402686, 0.2622964532175954, 0.40588585361416646
-0.18201901493348965, 0.2626048614187999, 0.4063311828700255
-0.07949307775571997, 0.26485829165872954, 0.4092241094367033
-0.39348119017826655, 0.264405712879202, 0.4130299577480764
-0.5129259996070148, 0.2620611733457521, 0.4037590703476156
-0.27937793882583883, 0.2719208144121567, 0.4240841622065633
-0.2739281232351744, 0.27546748686206746, 0.42735770007064466
-0.3929148637288008, 0.27077410510502786, 0.4229379007899113
-0.5880238623720634, 0.27513757124429733, 0.4226977766747086
-0.5998583418031236, 0.21979359009128246, -0.079494203794209
-0.5363599554769881, 0.2201776318924306, -0.09241451775036755
-0.37837317460695324, 0.2206870721121162, -0.09761543307555522
-0.3096666941233905, 0.21918243651527283, -0.08525123739597802
-0.2546186071785964, 0.21915066935234107, -0.0880990350096875
-0.1283545242202312, 0.2194478153276324, -0.08368077913148167
-0.6880801893652467, 0.3614663443290029, 0.39555491187518094
-0.6877139444657211, 0.331863369289801, -0.13069158831505948
-0.6882588514748375, 0.33655033312338806, -0.0858292918347471
-0.6774600774310942, 0.4213442287978687, 0.38719518337683656
-0.6612195259686726, 0.30752940266154705, 0.4280904720776808
-0.683672137855203, 0.29212257029742317, 0.4164946932195038
-0.6610154591975103, 0.23487925386524294, 0.0709372444079162
-0.672194174023061, 0.399463080714913, -0.026062646796240305
-0.6772809538238829, 0.39516833712017324, 0.03929227948531138
-0.45462924209997535, 0.44831228288734365, 0.406435652046067
-0.5765224020189325, 0.43500902892108184, 0.41047974558626865
-0.4331188539161044, 0.43619854469146746, 0.41903999096152184
-0.5406616150291498, 0.3855495521855736, -0.12701745784531407
-0.4660231448577339, 0.3960500505649296, -0.12404258478021916
-0.5735525162989141, 0.22042838173627038, -0.09172812083355256
-0.5937777288414016, 0.22148613619059268, -0.09527601724962713
-0.509214044196163, 0.2226337221335392, -0.10066930892637813
-0.5456869113656044, 0.2676882334596979, 0.4163871491066009
-0.5975404407413352, 0.2641128720646359, 0.40745389196003656
-0.12949867483706745, 0.3069347042192528, -0.1361572985896017
-0.21004201981309817, 0.3077947205936469, -0.13916246248149225
-0.395222642043131, 0.3074864974873989, -0.14022905526714555
-0.4636729495466019, 0.3085449783086313, -0.13942355182586882
-0.6928493238042961, 0.3179984897653988, -0.019317433926734615
-0.6934622552640304, 0.3240965253358558, 0.07244718503839749
-0.6933996055942699, 0.3385382066663276, 0.23552171627162077
-0.692893689349492, 0.34276122293828865, 0.3147897279145078
-0.4882007555428754, 0.359135849179074, 0.44101503916359697
-0.36714320648793713, 0.35931752370042214, 0.44318023728634826
-0.2734220442887466, 0.363932820581957, 0.44263738654563106
-0.14273919668702925, 0.35338105649622287, 0.43991836891989033
0.008889673565881401, 0.3414442878951609, 0.3119001585182254
0.008086755353997842, 0.33151500336619816, 0.13665991942214095
0.010001342169331325, 0.3227483957025995, 0.0006960466556548807
-0.050865561112049894, 0.31891336784705226, -0.13295754548544214
-0.08382972569427027, 0.3434347647840119, -0.1351055074035157
-0.1336834652137942, 0.3222925397543348, -0.1382351410215279
-0.1886732259869952, 0.3113657161692259, -0.13921839783891263
-0.329815410939272, 0.3259322553983812, -0.14149726578240826
-0.24919336456426336, 0.3196073956975504, -0.14109607356182774
-0.2492879786224862, 0.331813430198926, -0.1407561173892592
-0.3910530413038137, 0.35196165633221876, -0.1397431205616476
-0.44271563179475726, 0.33148242067994643, -0.14069661214872853
-0.40444036409397727, 0.3137762991535972, -0.14104570730726845
-0.443214110685209, 0.34376942767316515, -0.13983801369821236
-0.6167330056650764, 0.32158731791046463, -0.13660476348266776
-0.48866873996487264, 0.3465306461211209, -0.13891701467232495
-0.4735594050462323, 0.32428294948595116, -0.14049962148468625
-0.48832628434881564, 0.3222488633284362, -0.14030294464590115
-0.5430049146909851, 0.3173945519141196, -0.13920555296500486
-0.693077796400847, 0.32890184681403833, -0.00947954127778695
-0.6923715552453248, 0.3350699489306176, -0.005218229485351351
-0.6939758219729784, 0.33110925800181246, 0.07740720200143741
-0.6928040323721211, 0.34308085302494556, 0.09263280011517401
-0.690486915837212, 0.3558999229500034, 0.061845669164653845
-0.6930855496652777, 0.3460179150823468, 0.1767615784009081
-0.6921097374604515, 0.3523076784872652, 0.17229808881658437
-0.6890041970495462, 0.3510004595244377, 0.3762593068334556
-0.6935635850817113, 0.3538689312112152, 0.26886917220811035
-0.6931724058910256, 0.35688852879873456, 0.27981548330880357
-0.690798161737798, 0.3716332257598245, 0.30155277937720765
-0.556207545226251, 0.3596035301323087, 0.4381242668307679
-0.5614713384928042, 0.37768438944750593, 0.43555080613728747
-0.5481162151819664, 0.38024125467360925, 0.43589733253307444
-0.5034767908708001, 0.36033688977923245, 0.4402509261905776
-0.45136872756871144, 0.3787336155769403, 0.43967962604282596
-0.47605676272598096, 0.3975196504633183, 0.4346328597245923
-0.3441523945141738, 0.37541662157853345, 0.44167911024972484
-0.31412755202058174, 0.3661127322959697, 0.44298907560901524
-0.2440460635804879, 0.3746477354744701, 0.44072224864619997
-0.29924866343359025, 0.37638288157115235, 0.44118914553593036
-0.34306914353936047, 0.3883111370375711, 0.43886896974501016
-0.07655524020507515, 0.37063313935613196, 0.4339524003335443
-0.1780562034618232, 0.3794576727482406, 0.43777333811241054
-0.24853022547868703, 0.3705931725459287, 0.4416474091842007
-0.09983843955295571, 0.3660176518361522, 0.4363355319383826
-0.18566824213249827, 0.37005190774205804, 0.43999132639400346
0.009711490462167238, 0.34702558589629096, 0.2972442281891745
0.00683844599048748, 0.38025902096227426, 0.25391544249573633
0.006947215198849472, 0.3781634971968077, 0.2381223883239637
0.009405902857734252, 0.35974232829421215, 0.23897126587737375
0.010074653437504952, 0.3483715428096856, 0.21858641385950034
0.00966588292941591, 0.342315598477124, 0.09070206816207843
0.009996583499141353, 0.33878997558115737, 0.11646594027046483
0.007081888287979038, 0.3277943298801184, -0.0502674541589457
0.0071656111927026235, 0.36107395827441247, 0.05310801477626886
0.00927328460182123, 0.3437248994830747, 0.028888297415972798
0.007414514766922567, 0.3538227533016101, 0.005420264536962596
-0.6930825378572032, 0.3304917812385636, 0.1652953055544817
-0.6895994165312128, 0.3083577376245117, 0.28329768921639037
-0.6935730880890536, 0.33984032479273907, 0.3060412036879895
-0.6926707143471829, 0.3355153092269183, 0.3268797007147698
-0.6932477964433339, 0.32680612319137603, 0.12044129445030434
-0.6918004761734367, 0.30355775986982936, 0.08923696860989981
-0.6902425660741676, 0.3062541258839492, 0.19283049505281988
-0.6909662521448344, 0.29081799911565737, -0.030075857823124882
-0.6928882810225732, 0.3108630909997417, 0.0857654161221783
-0.6917404186046537, 0.2953162614992673, 0.00390877903708558
-0.6888218363766188, 0.2896045783270439, 0.09870992056370263
0.009324902478781805, 0.3182626051242674, 0.19819384338181495
0.009734562191718695, 0.3392963588492211, 0.2752468741269701
0.009417850510440202, 0.3198437745240957, 0.24522388900774256
0.008866180600422817, 0.33650452366286565, 0.32223547860170804
0.006631835348679831, 0.3081055477766099, 0.31207922719070635
0.009084233746762522, 0.31160170156226574, 0.13884156189143854
0.01010920102708989, 0.3182479323779912, 0.10053933088968714
0.009043690082434927, 0.3024300449311678, 0.08559720737225676
0.008692950172370208, 0.29630223985280624, -0.01428738383660884
0.007568116510969917, 0.2895463805081737, 0.06854445474328526
0.007509424374243099, 0.2837690219139009, 0.019194285640281597
-0.279910316100594, 0.3164061871266193, 0.4420770979098574
-0.23360755737681785, 0.3441423697793198, 0.44296909207522434
-0.25569166001300486, 0.3391991408429539, 0.4432611739724776
-0.17494044888351437, 0.33165998468726626, 0.44095402103343945
-0.05954295594253235, 0.34781184068814774, 0.4348997678339113
-0.1837897536334655, 0.34494752560042785, 0.44170910650122114
-0.1020715703339626, 0.33557179280534954, 0.4380750888270307
-0.33092636727880625, 0.3411071792147153, 0.444006290788059
-0.4588338758996558, 0.3382094304649594, 0.4426853730553323
-0.3476617058923195, 0.3480849219176621, 0.444248736755351
-0.36266597057796907, 0.353201801712047, 0.44429555545561616
-0.6421896228384254, 0.31383153057181634, 0.43116788138538964
-0.4492878959854592, 0.3481629721648519, 0.4431305072236259
-0.6055099411932428, 0.34943701463396315, 0.43584163699355316
-0.502095935926542, 0.34162529673525116, 0.4416032535718104
-0.5618174203237638, 0.31932652541814077, 0.438234215442468
-0.2520501614241214, 0.2957954008777881, -0.1387372152099483
-0.2827369636884948, 0.28891998278351233, -0.13761941204122763
-0.1059213626838753, 0.28799519008179636, -0.13369576363054617
-0.16951170976218422, 0.2853437694115858, -0.1352145797607922
-0.2211766588226461, 0.2911723206125651, -0.1373972574486178
-0.07339013330262631, 0.27155048947821003, -0.12882739436340926
-0.19101304022471358, 0.29948492556246514, -0.13854837332088638
-0.3199975212966681, 0.29678103641890313, -0.13936373879503094
-0.4404376506413466, 0.29536666009405654, -0.1385872058319972
-0.46364667286835226, 0.27869246696870087, -0.13462759489467874
-0.3014264665259511, 0.2725080239077786, -0.1336970366419991
-0.5015688094042486, 0.2996277267092054, -0.13869019318674064
-0.577098407574979, 0.2936268936989034, -0.13596713703255098
-0.6354576409050663, 0.27435185035351517, -0.1296482249094018
-0.4945924296893395, 0.29023173710209993, -0.1368842535346002
-0.5082649427845772, 0.2817330166164326, -0.13479748675764125
-0.027785542644004898, 0.22042221985124238, -0.06568438841259631
-0.018310903895565625, 0.2214454437094866, -0.058747699918427626
-0.6396072473231114, 0.22282960134435847, -0.03931093533867785
-0.6029611959640493, 0.41835780188973853, -0.05844913682979221
-0.6339310163596524, 0.44888492271917446, 0.35301952709125756
-0.027117396222345477, 0.25752694144229143, 0.36106057046156104
-0.6394670883139661, 0.2585079285368628, 0.36928794562511436
-0.6139555118388583, 0.2570624468752782, 0.35801116178328823
-0.01317450182547956, 0.3988543182982219, -0.05451403554926798
-0.6573852284257122, 0.44184474498856663, 0.33766703125229
-0.03098681228508842, 0.44133235435986073, 0.3759487434663195
-0.6255311960534015, 0.44917176989211216, 0.36583578727182714
-0.6043650193578273, 0.41098705551113196, -0.08435042589910499
-0.029565168906768767, 0.400984086542499, -0.08519554341227173
-0.052682620364933826, 0.4034369611338362, -0.09416952376768994
-0.08039863562206412, 0.44517961581190507, 0.39037349664694937
-0.6183645489854922, 0.45204863346357177, 0.3290457430955543
-0.6180890334178288, 0.45260326998157957, 0.2881685563174254
-0.6012854572454713, 0.4557300881663376, 0.2393401049377426
-0.6072608975004298, 0.4528481572630917, 0.21323368091093406
-0.6146518810533597, 0.44643880888916787, 0.1526496512330029
-0.6057989451255965, 0.44598196567078807, 0.12180292147019604
-0.6076548535449161, 0.4405166868261057, 0.07216027266903446
-0.6184406159337551, 0.4236489331203331, -0.021779760187846327
-0.6160555622580732, 0.4296639467179349, 0.009471317635727738
-0.37950829036144695, 0.4595573996612635, 0.00409234339570608
-0.47546172415387866, 0.4425238417438418, -0.0371169746924317
-0.47906529867454356, 0.4417673272719069, -0.03880498913722697
-0.3471786179469189, 0.47420460824825184, 0.06769767637769136
-0.4597752550641928, 0.4651701001336126, 0.045382809543970976
-0.34671611154605464, 0.4803290335587198, 0.11137593386973257
-0.354827658090592, 0.48002061951707253, 0.11000662475618334
-0.45452664486176836, 0.47049944941225136, 0.07531948678597425
-0.46819707035524377, 0.4751500684806368, 0.12377088865863933
-0.4565399805549617, 0.4765604342255262, 0.12708322013929688
-0.36711636901375866, 0.48455094940578736, 0.1638254772236354
-0.46902149640280283, 0.4774587572380744, 0.15029786293321343
-0.34738316565160066, 0.48685194931805353, 0.21841455842157378
-0.3518186657458604, 0.48660475241888507, 0.20257382143264724
-0.4675715322767825, 0.4811241977764665, 0.23005003685891676
-0.34634952339741454, 0.4841513719431926, 0.27363640869085387
-0.3577025759125495, 0.48470463169158057, 0.2630462718438108
-0.3664166359821271, 0.481154748651649, 0.2972279771245633
-0.4773764914251293, 0.47881569550182496, 0.2640764167273412
-0.4106091923025312, 0.44930829997105615, -0.027857548338051555
-0.36509987668226274, 0.455167586280183, -0.011387037773219139
-0.30752657956096285, 0.4491947445306499, -0.02963068529664554
-0.2725365894657491, 0.45360111148446924, -0.013459532663209837
-0.30571897577150386, 0.46797917799472744, 0.03814652841235602
-0.3231539848862051, 0.46721740133314726, 0.03372769568697622
-0.3171581660866679, 0.4636138617982109, 0.019708368885967876
-0.3691688197446068, 0.4664102008465714, 0.03080903185606674
-0.36076154150335604, 0.4781194287952057, 0.09308104075209206
-0.3997068639173296, 0.47717298325706137, 0.09214034849662911
-0.28928334589258226, 0.4709993310904596, 0.05406033370866682
-0.3295790842873502, 0.4780879908124152, 0.0925436942088155
-0.3038373309837512, 0.4738317911243405, 0.06961139645971405
-0.24579075153669172, 0.4585429464981947, 0.010826283648318547
-0.27812940479964265, 0.48020158108877814, 0.12249270872286251
-0.2611222326864581, 0.47000477004602903, 0.056942477436701146
-0.2731125065209565, 0.47582212084061365, 0.08662212454462061
-0.3386821733465736, 0.4823031811064843, 0.1305711581759532
-0.40188226631262197, 0.4791495444084861, 0.1108847758866344
-0.37292781373470674, 0.4818182208916362, 0.1306813301509465
-0.2998852378575398, 0.482670968913479, 0.14284535955150568
-0.3900900963955478, 0.4851241625556542, 0.17871928357703143
-0.25054008163070335, 0.47660036562396807, 0.10956537706202801
-0.24011261966488842, 0.4761939535952365, 0.11445916307474052
-0.27719937879853235, 0.48223431817064677, 0.14332965817897264
-0.27500588166036694, 0.48228588680858936, 0.14524743219825986
