0.15788112532307305, 0.2929465398559575, 0.21318015456199646
0.397559845939764, 0.6420977469566097, 0.21318015456199646
0.3987083438357228, 0.35346978890986575, 0.21318015456199646
0.234942833204544, 0.40965947038812073, 0.21318015456199646
0.03612223064422278, 0.7347308221934056, 0.2131801545619965
-0.19831218682581306, 0.7682352666113951, 0.21318015456199646
0.09010650829776226, 0.5504724159203839, 0.21318015456199643
0.17606849402764968, 0.6947565688567787, 0.21318015456199643
-0.07683617625712229, 0.7741925499810405, 0.21318015456199646
-0.42257222836045094, 0.7488908419516123, 0.2131801545619965
-0.00504497813298525, 0.7589721781748543, 0.21318015456199646
0.4018256839230603, 0.3753809073877725, 0.21318015456199646
0.45704651689716225, 0.16363546948566254, 0.21318015456199646
-0.3324937853825072, 0.6963219126332947, 0.21318015456199646
0.35210282382980046, 0.398902823442079, 0.21318015456199646
0.42678511076538744, 0.5082033649669709, 0.21318015456199646
0.21467912931466324, 0.40236157174282755, 0.21318015456199646
0.43518216986796643, 0.419718803535116, 0.21318015456199646
0.12288778002790526, 0.5891779493802333, 0.2131801545619965
0.25157133228955336, 0.7576600957108878, 0.21318015456199646
0.4988999238628564, 0.2019432550529829, 0.21318015456199646
0.08261833272954613, 0.3355325017155889, 0.21318015456199646
0.49410199500890806, 0.23805988417103519, 0.21318015456199646
0.3362019686580263, 0.6697984120691944, 0.21318015456199643
0.11640591540102779, 0.5120353393000325, 0.21318015456199646
0.1647335048361392, 0.4626509531854346, 0.21318015456199646
-0.32051236938201466, 0.6772415489057504, 0.21318015456199646
0.12649430295557246, 0.7408574668070673, 0.21318015456199646
0.1352490350212188, 0.5288275699877418, 0.21318015456199646
-0.10011229968447327, 0.5381079426168065, 0.21318015456199646
0.18000876643350536, 0.2745791006835202, 0.21318015456199646
-0.2445065624926738, 0.6112741979365394, 0.21318015456199646
-0.05603829591342571, 0.64704398511294, 0.21318015456199646
0.2758717077816136, 0.3951552346604373, 0.21318015456199646
0.39936449346325276, 0.6506824962865131, 0.21318015456199646
0.4129656267479407, 0.2240329301938811, 0.21318015456199646
0.22192234606063815, 0.2974152156265196, 0.21318015456199646
0.42241467900807894, 0.3238791071781747, 0.21318015456199646
-0.013739885159341991, 0.7944425120266229, 0.21318015456199646
-0.2811290655229896, 0.6742076856240473, 0.2131801545619965
0.2376940981191247, 0.47232201892713244, 0.21318015456199646
0.01869970958440459, 0.4893732853776162, 0.21318015456199646
0.24338640331819192, 0.21541460357667563, 0.21318015456199646
0.5128478783871687, 0.08968523161953977, 0.21318015456199646
0.08012832530490194, 0.7697674626750559, 0.21318015456199643
0.4609877968064504, 0.5622006435870802, 0.21318015456199646
0.23934743002197853, 0.43467782510215663, 0.21318015456199646
0.3203568583640916, 0.7813343394575425, 0.21318015456199646
0.4744566324932047, 0.2750697062970773, 0.21318015456199646
0.14493272257388667, 0.6240657439077979, 0.21318015456199646
-0.19070153934720047, 0.5508420138495173, 0.21318015456199646
0.22179865683154748, 0.3412579684287356, 0.21318015456199646
0.1655200722876125, 0.6441998945640889, 0.2131801545619965
0.22882240362772113, 0.29379493461906064, 0.21318015456199646
0.1345519755647098, 0.7319568037092963, 0.21318015456199646
0.32230591366789035, 0.4345971475958933, 0.21318015456199646
0.43385392502533315, 0.628018092702163, 0.21318015456199646
0.3654670928372871, 0.3018601893167335, 0.2131801545619965
-0.18502608625895497, 0.538627864227212, 0.21318015456199643
0.3488643387639566, 0.5670070844555635, 0.21318015456199646
0.49988746370721304, 0.5482392770728282, 0.21318015456199646
0.2605212349212017, 0.5430586429574267, 0.21318015456199646
0.17121431302513462, 0.35443278355492186, 0.21318015456199646
-0.34684112653084864, 0.6777463518992702, 0.21318015456199646
0.4186807848980644, 0.28703975152847105, 0.21318015456199646
0.06105803528574366, 0.4719315039164742, 0.21318015456199646
-0.2110343010124234, 0.7049039283619685, 0.21318015456199646
0.02819708740804089, 0.5710258507379014, 0.21318015456199646
-0.4010742256519453, 0.7623414709199977, 0.21318015456199646
-0.12874917224347104, 0.5159398115745626, 0.2131801545619965
-0.34685737042518733, 0.7758510758561038, 0.21318015456199646
-0.005575642745522275, 0.578094078899268, 0.21318015456199646
-0.2385931514002451, 0.7805439304509594, 0.21318015456199646
0.15463396376650126, 0.4817992792824682, 0.21318015456199646
0.48392310200595756, 0.08341665220966599, 0.21318015456199646
-0.19125430160749357, 0.695698319021235, 0.21318015456199646
0.055708146782172896, 0.7327961220502547, 0.21318015456199643
0.5201462722636532, 0.10162447365114499, 0.21318015456199646
0.41822262053420994, 0.6198521391069238, 0.21318015456199646
0.2033519472967816, 0.7148025751545766, 0.21318015456199646
0.2968181212344705, 0.22486587030884336, 0.21318015456199646
0.10740423574818139, 0.6757627480366148, 0.21318015456199646
-0.3895660266484135, 0.7686875217520767, 0.21318015456199646
-0.1540879779641205, 0.6521889712685631, 0.21318015456199646
0.16375998602498143, 0.49433511776788264, 0.21318015456199646
0.17485595601215337, 0.6718139472961894, 0.21318015456199646
-0.04323068836396016, 0.6654905297387614, 0.21318015456199646
-0.0656063377176794, 0.5701270194252115, 0.2131801545619965
-0.12491052829532545, 0.5045980196440876, 0.21318015456199646
0.40478097842827226, 0.42496635324982035, 0.21318015456199646
-0.4058683048625603, 0.706242094327458, 0.21318015456199646
-0.08836735680345396, 0.6383751627519895, 0.21318015456199646
-0.008810728872086226, 0.4344907326939295, 0.21318015456199646
0.43710522885405545, 0.605389448311211, 0.21318015456199646
0.4492486658234409, 0.3843571183543046, 0.21318015456199646
0.1450242575315763, 0.4456730881179141, 0.21318015456199646
0.3328391594012931, 0.2733966107323407, 0.21318015456199646
0.16196530108804413, 0.3362914750351198, 0.21318015456199646
0.13286465568732772, 0.40652994122762415, 0.21318015456199646
0.39608969954226747, 0.6591191138394995, 0.21318015456199643
0.36583345301036563, 0.3426378141711119, 0.21318015456199646
-0.11801890755512395, 0.506136336877286, 0.21318015456199646
-0.034335734756356234, 0.45601552580167243, 0.21318015456199646
0.31917021047796423, 0.7397901778193892, 0.2131801545619965
0.4122766581123125, 0.7819276522101304, 0.21318015456199646
0.30144571890493765, 0.6763449884782695, 0.21318015456199646
-0.22448383530886232, 0.7458796317081399, 0.21318015456199646
0.49035822582296346, 0.02740726597623056, 0.21318015456199646
0.46676183884737127, 0.20919772785462995, 0.21318015456199646
0.02345600972178713, 0.587299287954078, 0.2131801545619965
-0.08314726464784038, 0.6977457398343724, 0.21318015456199646
0.38775096944544774, 0.7806676278927518, 0.21318015456199643
0.3346381320849059, 0.36321830030399715, 0.21318015456199646
0.19425702372527998, 0.30452506040141347, 0.21318015456199646
0.45749415542259025, 0.5744498469643731, 0.21318015456199646
-0.28596201552809786, 0.7011494325897517, 0.2131801545619965
0.5191656823586668, 0.43995613558649, 0.21318015456199646
0.01884173469514669, 0.708339203059449, 0.21318015456199646
0.15017148962229812, 0.29196829962885834, 0.21318015456199646
0.4285819211466638, 0.19883199868500354, 0.21318015456199643
-0.06581488001279415, 0.5280609834956981, 0.21318015456199646
0.14569167460430227, 0.5904787509897547, 0.21318015456199646
0.33132886591217736, 0.3113846064843906, 0.21318015456199646
0.17031765207007385, 0.5180417909719476, 0.21318015456199646
0.29877783352933457, 0.3416248641531701, 0.21318015456199646
0.03224790589472919, 0.7230831985333345, 0.21318015456199646
0.3904581677355371, 0.6142316342179485, 0.21318015456199643
-0.11794710208748732, 0.74808767573026, 0.21318015456199646
-0.237872442786607, 0.7045962506488105, 0.21318015456199646
0.04864838095936047, 0.40281443946058887, 0.21318015456199646
0.4051162634129342, 0.18727626312081302, 0.21318015456199646
0.1354454578816843, 0.5978308774583457, 0.21318015456199646
0.29324255140254546, 0.4210247118936115, 0.21318015456199646
-0.2415269138984612, 0.7742798669133126, 0.21318015456199646
0.21714280501748118, 0.3198585089936422, 0.21318015456199646
0.08901607160314498, 0.4440252629764204, 0.21318015456199646
0.2544594645649189, 0.6400408928162717, 0.21318015456199643
0.1906654018298053, 0.41134432572447377, 0.21318015456199646
0.09813938652109333, 0.5331507195093516, 0.21318015456199646
0.31645298730869625, 0.7340069585518217, 0.21318015456199646
0.5050211986217743, 0.12633221633717037, 0.21318015456199646
0.4829252411425984, 0.07450805983186197, 0.21318015456199646
0.5127821835240272, 0.3951405845756192, 0.21318015456199646
0.032480198635547464, 0.4030863424380958, 0.21318015456199646
-0.11890679627581846, 0.5659131803480583, 0.21318015456199646
0.19971207248500786, 0.4488866229423589, 0.21318015456199646
-0.18366619315690455, 0.7437247725274088, 0.21318015456199646
0.08174663384186345, 0.5550494705189447, 0.21318015456199646
0.14838151061952293, 0.7695551595073614, 0.21318015456199646
0.29499591243182527, 0.6468179926312307, 0.21318015456199646
0.35423030018997864, 0.646899493068821, 0.21318015456199646
0.4349924311519157, 0.4958307981923596, 0.21318015456199646
0.40070671786475553, 0.6666914638490867, 0.21318015456199646
0.13087218746649887, 0.7920334827452561, 0.21318015456199646
0.4635714570992006, 0.6388689586231212, 0.21318015456199646
0.0013279804588023324, 0.7619935850387498, 0.21318015456199646
0.39635840719601645, 0.5124980357054051, 0.21318015456199646
0.4507661292394437, 0.09981823083863121, 0.21318015456199646
-0.2790871895198567, 0.7768218304583343, 0.21318015456199646
0.2551916714958903, 0.5664853063057899, 0.21318015456199646
0.5224181542626709, 0.3585068586402358, 0.21318015456199646
0.29389653123025744, 0.7333501268678636, 0.21318015456199646
0.2569640172968736, 0.264948991717284, 0.21318015456199646
0.2845065394956679, 0.27491891511244987, 0.21318015456199646
0.48881199141997644, 0.5766379189459029, 0.21318015456199646
0.41534057445394323, 0.23268743907181894, 0.21318015456199646
0.306218864861176, 0.650700440040863, 0.21318015456199646
0.19381269019508623, 0.612961156818621, 0.21318015456199646
0.1668420843181818, 0.7366408496423956, 0.21318015456199646
0.21762021644148832, 0.42098231926278523, 0.21318015456199646
-0.059752599619394775, 0.5072492382525159, 0.21318015456199646
-0.019344135984404168, 0.7194165891792534, 0.21318015456199646
0.5073280698911496, 0.7447607450203922, 0.21318015456199646
0.4589938141012018, 0.10285916443813926, 0.21318015456199646
0.41999082337185717, 0.7467027126383574, 0.2131801545619965
0.3187194285357734, 0.17582079359878028, 0.21318015456199646
-0.11045005058546756, 0.7136598111434842, 0.2131801545619965
-0.1448117127347761, 0.7638827223995092, 0.21318015456199643
0.3102454846232403, 0.6412350033248821, 0.21318015456199646
-0.18945039949086523, 0.6490908309569687, 0.21318015456199646
0.09865059521563382, 0.7125564595959516, 0.21318015456199646
0.35328816049165146, 0.6369545248462984, 0.21318015456199643
0.00025097736560600326, 0.4504467458453928, 0.21318015456199646
-0.14652458544147393, 0.6815684110277314, 0.2131801545619965
0.05578045006832959, 0.6536156767748086, 0.21318015456199646
0.20771431202954643, 0.7114181759964623, 0.21318015456199643
0.21909190049557078, 0.3421422137607388, 0.21318015456199646
0.30775872210964833, 0.19783196334866301, 0.21318015456199646
0.4100611720293447, 0.39772157637112004, 0.21318015456199646
0.4767072766322628, 0.7610764694779492, 0.21318015456199646
0.1484602163339802, 0.4585502831176419, 0.21318015456199646
-0.09351538144482653, 0.7297223054914875, 0.21318015456199646
0.21292590197697595, 0.30211330796596475, 0.21318015456199646
-0.003039453669142489, 0.5876212567007908, 0.2131801545619965
0.4169047877883173, 0.7622191413134651, 0.21318015456199643
0.43059658409390433, 0.6358698960077057, 0.21318015456199646
0.2496750327497976, 0.28293222389880374, 0.21318015456199646
0.16899672568911817, 0.28008755657390577, 0.21318015456199646
0.29476383024147335, 0.5717199700698631, 0.21318015456199643
0.22515666545014085, 0.299672971805087, 0.21318015456199646
-0.16925112995697772, 0.7759457793771788, 0.21318015456199646
-0.17935912061169457, 0.594977511311646, 0.21318015456199646
0.3982974276377505, 0.39675498161926664, 0.21318015456199646
0.28511384338648593, 0.4679920668284415, 0.21318015456199646
0.4697328542111976, 0.769287899674661, 0.21318015456199646
0.26435409760225426, 0.33561106787808254, 0.21318015456199646
0.1942434731212228, 0.26653599420628665, 0.21318015456199646
-0.44611600052854516, 0.7813318304941913, 0.21318015456199643
0.4744596291174476, 0.08733042545475306, 0.21318015456199646
0.2977758345807579, 0.192058597207911, 0.21318015456199646
0.49188200227812356, 0.07832374021690612, 0.21318015456199646
-0.2321245003197766, 0.7397469225728904, 0.21318015456199643
0.5072071841510628, 0.19163132134048158, 0.21318015456199646
0.30414565817440303, 0.20243066108175678, 0.21318015456199646
0.14134439172287433, 0.43075264231225097, 0.21318015456199646
-0.047200086908798455, 0.458603504111043, 0.21318015456199646
0.09828451250557968, 0.6777960225264879, 0.21318015456199646
-0.32926164790819923, 0.7695620518440959, 0.21318015456199646
0.4493967560805011, 0.6461574837215784, 0.2131801545619965
-0.09980433638441569, 0.6701498787451097, 0.21318015456199646
-0.31305702578209127, 0.7472382684894706, 0.21318015456199646
0.18162900063223156, 0.6045862805045659, 0.21318015456199646
0.19074914559276124, 0.7494165525698848, 0.2131801545619965
0.353312699689073, 0.6845586708152582, 0.2131801545619965
0.5105997854616554, 0.5305011750709062, 0.21318015456199646
0.3978716926745418, 0.5828585933234688, 0.21318015456199646
-0.04609640699009515, 0.6917229264187109, 0.21318015456199646
0.3382961018640885, 0.7868562008083291, 0.21318015456199646
-0.127590403114239, 0.582792018771437, 0.21318015456199646
-0.03849173502786375, 0.6682108063820238, 0.21318015456199646
0.12878096445176446, 0.6439463904253804, 0.21318015456199646
0.4589744825479879, 0.5839919246496456, 0.21318015456199646
0.4546095916539604, 0.6258908605302381, 0.21318015456199646
0.04412607541880657, 0.7338407275110208, 0.21318015456199646
-0.19254122038824895, 0.6429882236427109, 0.21318015456199646
0.14355782985784468, 0.5019838987702843, 0.21318015456199646
0.2668268392085823, 0.3768929549012968, 0.21318015456199646
-0.31849675751012974, 0.7099990497019044, 0.2131801545619965
0.0937901141669373, 0.7473954798458724, 0.21318015456199646
0.4640594065677609, 0.5091930462505179, 0.21318015456199646
-0.025103123356899085, 0.6142200964974086, 0.21318015456199643
0.427603200738706, 0.5630147149568798, 0.21318015456199646
0.3243943436239414, 0.40125762370722423, 0.21318015456199646
-0.11265863476294533, 0.6730292639428809, 0.21318015456199646
-0.050370009685258066, 0.7930847172103029, 0.21318015456199646
-0.42676059771590674, 0.795947253704071, 0.2090819564369132
-0.04787672137392027, 0.795947253704071, 0.2098278160915677
-0.1375226471637308, 0.795947253704071, 0.2018588647363393
0.28350590277372895, 0.7959472537040712, 0.2117220151166412
0.04965462437238405, 0.7959472537040712, 0.2040070572234866
-0.38493330555405536, 0.795947253704071, 0.19838546407106036
-0.03682710786533164, 0.795947253704071, 0.21085833252964825
-0.5021385000083142, 0.795947253704071, 0.20104748265789785
-0.4066770561439809, 0.795947253704071, 0.19905490041423773
-0.07107096442965632, 0.795947253704071, 0.2049000652441089
-0.0984175007368216, 0.795947253704071, 0.20278666204865473
-0.29755640011286166, 0.795947253704071, 0.2101933291146321
-0.008862437734627027, 0.795947253704071, 0.1968830074928746
-0.04038344404756411, 0.795947253704071, 0.19980067226014728
-0.29165731496372965, 0.795947253704071, 0.19599356033867704
0.2484207551354165, 0.7959472537040709, 0.19840194561562885
0.1867345988431108, 0.795947253704071, 0.20480438802601902
-0.13930919543006937, 0.795947253704071, 0.19914299485624629
0.30879350364834623, 0.795947253704071, 0.19630983257135434
0.11312480241694564, 0.7959472537040712, 0.20267015367695548
0.47792742962522416, 0.7959472537040712, 0.1968265825389274
0.2925674215810057, 0.7959472537040709, 0.20564916333194486
0.17365035908115437, 0.795947253704071, 0.2005542115159182
-0.031320446454783685, 0.795947253704071, 0.1953542259862346
0.04451432381919282, 1.999999987845058e-08, 0.19864760558614927
0.37481057484226216, 1.999999987845058e-08, 0.2003025772096533
0.4518286707744087, 1.999999987845058e-08, 0.19928188117565965
-0.12471182820295992, 1.999999987845058e-08, 0.19425800088056505
0.17782575963835884, 1.999999987845058e-08, 0.2028113674462986
0.20272523415357557, 1.999999987845058e-08, 0.20161307137047352
0.0944390300370378, 1.999999987845058e-08, 0.19851803969886228
0.25171641917528215, 1.999999987845058e-08, 0.20568120384777677
0.3549085862147572, 1.999999987845058e-08, 0.2041899703717228
0.30860292744892803, 1.999999987845058e-08, 0.196497901499396
0.47877187013923744, 1.999999987845058e-08, 0.20415944024571417
-0.15234055408874866, 1.999999987845058e-08, 0.193697898469488
-0.18602346281541798, 1.999999987845058e-08, 0.20245731380912613
-0.10240983341763185, 1.999999987845058e-08, 0.20120488550763824
0.3389560840494723, 1.9999999878450577e-08, 0.2105283409279118
0.1511766299625868, 1.999999987845058e-08, 0.20639285561483922
-0.2518495101700128, 1.999999987845058e-08, 0.20012244646698213
0.04369851408975489, 1.999999987845058e-08, 0.20605404610032474
0.08002515543037692, 1.999999987845058e-08, 0.20701893268003013
-0.09791534691560444, 1.999999987845058e-08, 0.2116139939952883
-0.4735595190731696, 1.999999987845058e-08, 0.19595484783315184
-0.3720985172195854, 1.9999999878450584e-08, 0.19781438307699373
-0.4833498984938785, 1.999999987845058e-08, 0.1984965604752227
0.1134395934180017, 1.999999987845058e-08, 0.20642688882259164
0.2875446722243693, 0.3028649542729074, 0.21364967342588043
0.30595661536543706, 0.5354125722496383, 0.22911631405086472
0.19420763287146678, 0.5354302382897305, 0.22923995312162215
0.26928785550986234, 0.4843293790230586, 0.21364759243463052
-0.27503713210323233, 0.25160649231804894, 0.21363987859469535
-0.5238670450197978, 0.5464085844260336, 0.22950223318451027
-0.016641314595927145, 0.5358804844725884, 0.21337402840001063
0.344541822182352, 0.742252560069778, 0.21343461949605722
0.508017497036714, 0.04504349739626129, 0.21337432146604232
-0.2547305869474135, 0.0455628347398976, 0.21321267100159955
0.5240379174531399, 0.6207941945807244, 0.22900881047184887
0.5238421514054444, 0.6847181917571936, 0.22954373085210275
0.14262895020506372, 0.5355775244471699, 0.22951791125601484
-0.4361602960928291, 0.2513211162404661, 0.2297995111512312
-0.42100058947040003, 0.25064267767603915, 0.22998640857284144
-0.2119237638053523, 0.044976155504670226, 0.22976238916491978
-0.5240002257459833, 0.3047765884582054, 0.21390453036020113
-0.2089699639487232, 0.3038236800793264, 0.213192297149019
-0.38641309361325427, 0.48391015160033546, 0.2133001068018844
0.34653199410402485, 0.48397578202920577, 0.22983764870498913
-0.13988376039483763, 0.4835012576360455, 0.2299663594936785
-0.4917704221693894, 0.30305062657178294, 0.22973609897589106
-0.48963752907727714, 0.742369379806015, 0.21351726497786033
-0.15631577870869576, 0.7421235887221411, 0.22981988875754558
-0.433498371365245, 0.7426146238861702, 0.2291506698084573
0.014373897550519293, 0.044793499837552195, 0.21357171815185455
-0.23564674046040787, 0.044565971574285476, 0.2290456753081272
0.25696840437945045, 0.3026386797428131, 0.22079577378436127
0.20038919514335374, 0.3026386797428131, 0.2149421054009823
0.2535333164685711, 0.3026386797428131, 0.2205716122321626
0.17673788648168073, 0.3026386797428131, 0.21942128021317603
0.08460912255854941, 0.3026386797428131, 0.21880884390506683
-0.005072770613300748, 0.3026386797428131, 0.22004996340571845
0.35963909248059045, 0.3026386797428131, 0.2254813754180488
0.04872495012745667, 0.3026386797428131, 0.22069072690384284
0.12733886895049157, 0.3026386797428131, 0.22164123276176076
-0.3114093054014128, 0.30263868349846546, 0.2191357275802681
-0.49099378170128505, 0.3026387016437266, 0.22537617599357365
-0.4678711728615317, 0.30263870104715945, 0.2254061056414058
-0.30555679123793666, 0.3026386810225822, 0.21802956567887286
-0.2466543442618856, 0.3026386929425228, 0.2245440648061502
-0.22920214475643214, 0.3026386797679721, 0.2184710878912487
-0.35754030406788695, 0.30263869162415286, 0.2223984674159662
-0.08332225972476046, 0.30263869123303017, 0.2259552618168611
-0.07653769134455526, 0.3026386890131804, 0.22498447899878118
0.48326186980645297, 0.5353763702982058, 0.2143141633369076
0.06840107929497881, 0.5353569388389587, 0.22085302644993388
0.15766582519078987, 0.5353569388389587, 0.21630012975480278
0.4892055899673336, 0.5353569388389587, 0.2264778584561648
0.5010731113779058, 0.5353569388389587, 0.22472346635867618
-0.2905907698904653, 0.5353569388389587, 0.2149597176068061
0.30062899567969564, 0.5353569388389586, 0.22327740889270245
-0.0672250327209436, 0.5353569388389587, 0.2169378915346859
-0.3547278043532658, 0.5353569388389587, 0.21624210329214802
-0.051820313511503874, 0.5353762734139692, 0.2143148413629078
-0.40534216330145556, 0.5353569388389587, 0.22166209474129991
-0.38100900181296615, 0.5353569388389586, 0.21898910439469446
-0.5216250746743571, 0.5353569388389586, 0.2176648596407308
-0.28188086147978375, 0.5353569388389587, 0.21859513719225698
-0.5009480112210638, 0.5353569388389587, 0.21865528675832313
-0.4887389835443455, 0.5353569388389587, 0.224462123145176
0.06567676098929676, 0.5353569388389587, 0.22803517484528596
-0.2047444620033518, 0.5353569388389587, 0.2252771955440921
-0.03748846076900178, 0.5353569388389587, 0.22866725456835657
0.380158370625207, 0.48455691744168217, 0.22847100876635276
0.0035462306568644353, 0.4845569281759404, 0.22831394533840743
-0.40126805951344047, 0.48455693971402086, 0.22723379675473152
0.4515754650557481, 0.48455691540614093, 0.2156273622867959
0.0026456866730523165, 0.4845569282016079, 0.22505959820588806
-0.0979053345449632, 0.4845569310675289, 0.22595020578010697
0.5216320781702243, 0.4845569134093763, 0.2250998818444378
0.23287289797633004, 0.4845569216396358, 0.22095854222865882
-0.03726148915924214, 0.4845070386657311, 0.21410111200518295
-0.13365523521777864, 0.48455692146693913, 0.21832618484130045
-0.20552703035492587, 0.4845569188445492, 0.21706992893825278
-0.517371506969596, 0.4845569361391725, 0.22535491823631548
0.2415487060569046, 0.48455691901818165, 0.21715310756198303
-0.44230160032202537, 0.484556927190252, 0.22106793783964868
-0.2667395933291863, 0.48455693304521674, 0.22387275871625203
0.2760047922655867, 0.4845569135929684, 0.21455415915455722
-0.4488846193093857, 0.48455692035564485, 0.21779381928197458
-0.49404978762968377, 0.4845569227636569, 0.21894737743791617
0.1510448647053877, 0.2518386648757656, 0.22725243992575278
0.383807901909818, 0.2518386582415171, 0.22550053598126327
0.4779938556353214, 0.2518386555570142, 0.21962412182713897
0.0542647064011641, 0.25183866763420887, 0.22507540241591584
-0.41782498659221606, 0.2518386810897834, 0.22729754585007025
0.25168384944768407, 0.2518386620073375, 0.22313903224942594
0.033867380245658274, 0.25183866821557666, 0.2237576624223512
0.30112249803656543, 0.25183866059822935, 0.22242627078196464
-0.21700632138106815, 0.2518386753660183, 0.22554847231128028
0.0337077129047296, 0.25180745723804376, 0.21423182413427566
0.30105468534645735, 0.2518386567022748, 0.2156106809468424
-0.4762939750564954, 0.2518386556152735, 0.21508995297846642
0.04060775559555385, 0.251838659698041, 0.2170458027112868
0.14811390282798179, 0.25183865673589745, 0.21562678788864875
-0.38171005229021115, 0.2518386583379119, 0.21639423289636153
-0.04842767757516651, 0.2518386673333733, 0.22070350867152047
-0.15527973817318483, 0.2518386555442709, 0.215055939147484
-0.2614264602174783, 0.2518386691923594, 0.22159405598495488
0.12445438343010241, 0.2518386586869654, 0.2165614469935135
-0.5240781903266908, 0.5693460953730795, 0.22669049693036322
-0.5240781903266907, 0.6678225280891241, 0.216544329292052
-0.5240781903266907, 0.6257511286496497, 0.21719975181925538
-0.5240781903266907, 0.22302039592116824, 0.2163453480537978
-0.5240781903266907, 0.05786662084646753, 0.2217018666297772
-0.5240781903266907, 0.14106665592256862, 0.22517311833945364
-0.5240781903266907, 0.22495747402884508, 0.2285305595274808
0.14348776892068776, 0.741845914748597, 0.21324312382130223
0.07101190275990288, 0.6041766208791564, 0.21318015456199646
-0.39091129648028744, 0.6016686344836916, 0.21318015456199646
-0.03735442952948914, 0.5590066334643402, 0.21318015456199646
-0.2669124171056204, 0.5572946756891698, 0.21318015456199646
-0.3506682485677529, 0.6574958307976699, 0.21318015456199646
-0.3189646384399252, 0.5660166874428475, 0.21318015456199646
-0.47045815194621515, 0.6399747294035112, 0.21318015456199646
-0.4686672868903179, 0.6472771355204214, 0.21318015456199646
-0.2599720428994782, 0.6080064291716588, 0.21318015456199646
-0.42661575215167397, 0.6307484545808046, 0.21318015456199646
-0.3452375377898411, 0.5939661053729908, 0.2131801545619965
-0.22689008052945114, 0.6549736294210852, 0.21318015456199646
-0.23922514948312973, 0.6600117471290698, 0.21318015456199646
-0.2700872738704786, 0.5375202369968722, 0.21318015456199646
-0.3966518544071129, 0.6545399370372635, 0.21318015456199646
-0.46120301636969063, 0.6222056424024291, 0.21318015456199646
-0.05001671884831878, 0.5807314226984591, 0.21318015456199646
-0.1783634050604419, 0.5716395093272904, 0.21318015456199646
-0.22435573490813449, 0.6440406338162041, 0.21318015456199646
-0.5197568252256487, 0.700710727622691, 0.2131801545619965
0.3549638331300691, 0.5546557453569605, 0.21318015456199646
-0.4008431158400843, 0.690897256119039, 0.21318015456199646
-0.23055397398152355, 0.5874227092574348, 0.21318015456199646
-0.4078401129720553, 0.6944366720830465, 0.21318015456199643
-0.40372771836835175, 0.5944706111750058, 0.2131801545619965
-0.07385894959305297, 0.5608062034566781, 0.21318015456199646
0.4202861244912288, 0.5495967502889065, 0.21318015456199643
-0.13153199728843357, 0.6165618236029229, 0.21318015456199646
-0.12092099491682248, 0.5449453910680946, 0.21318015456199646
-0.30069091051246544, 0.5471195157505024, 0.21318015456199646
-0.517983425796009, 0.5980149296894008, 0.21318015456199646
0.49066170154490135, 0.5407737242457687, 0.21318015456199646
0.09007976940889223, 0.5414942914356834, 0.21318015456199646
0.23114516372196606, 0.5904608080682265, 0.21318015456199646
-0.07875373737835722, 0.6032761229442652, 0.21318015456199646
-0.19017258089920355, 0.5771038791283667, 0.21318015456199646
-0.4723362902682834, 0.6150489995772906, 0.21318015456199646
0.03865176598180979, 0.548085419391915, 0.21318015456199646
-0.4529424322304205, 0.5367533392775818, 0.21318015456199646
-0.22639134528579904, 0.5971841344062804, 0.21318015456199646
-0.08437586713120993, 0.5449173541395465, 0.21318015456199643
0.285646279647899, 0.550383607449585, 0.21318015456199646
-0.3808732119920647, 0.6283731239671694, 0.21318015456199646
-0.2938859720280436, 0.5810197833161622, 0.21318015456199646
-0.4294135905910953, 0.6846962481266329, 0.21318015456199646
-0.2668752808546278, 0.5491276774107563, 0.21318015456199646
-0.3428023117537262, 0.688904314080504, 0.2131801545619965
0.11574151476230977, 0.5414064708344026, 0.21318015456199646
-0.03461296017388654, 0.6440502171390687, 0.21318015456199646
-0.4253958803224759, 0.6400054790401204, 0.21318015456199646
0.21401600036387414, 0.5961388541706836, 0.21318015456199646
-0.3471291592453021, 0.6330381739113091, 0.21318015456199646
0.24345593057960935, 0.5376212152563201, 0.21318015456199646
0.19509776504647122, 0.5522269470080711, 0.21318015456199646
-0.05120925523124498, 0.551981430598087, 0.2131801545619965
-0.1908014320884416, 0.6754811306163949, 0.21318015456199646
-0.4520735907928436, 0.6487712417053592, 0.21318015456199646
-0.021273209047212638, 0.5741484743961203, 0.21318015456199646
-0.17245209479158485, 0.6577308147531645, 0.21318015456199646
-0.3861622227837693, 0.6990012668692176, 0.21318015456199646
-0.4310073071558089, 0.6196655229153534, 0.21318015456199646
0.3392614815762342, 0.5576463389165135, 0.21318015456199646
0.23191402551285503, 0.5614361376717689, 0.21318015456199646
-0.25179916860211016, 0.6155584587462131, 0.21318015456199646
-0.45421671450017387, 0.7205371324911083, 0.21318015456199646
-0.32321384005872744, 0.5963810407609623, 0.2131801545619965
0.14252178374777505, 0.547659926076878, 0.21318015456199646
-0.13802927095012646, 0.588374977265139, 0.21318015456199646
-0.34764579732196765, 0.6332560142013153, 0.21318015456199646
-0.4824545529170743, 0.6870408122961305, 0.2131801545619965
-0.3819242926449821, 0.6362698388200518, 0.21318015456199646
-0.36833005439854005, 0.695966204010188, 0.21318015456199643
-0.23019452132143647, 0.6228473939675554, 0.21318015456199646
-0.4836529717962714, 0.563241497771151, 0.21318015456199646
-0.12802016545684425, 0.6000598133971219, 0.21318015456199646
-0.48872761109711255, 0.5643637561791688, 0.21318015456199643
-0.05767937686867816, 0.611186000204453, 0.21318015456199646
-0.4421381790310154, 0.5860109248250944, 0.21318015456199646
-0.4801824600259688, 0.6314096916894028, 0.21318015456199646
-0.48863527741073265, 0.7155334390282021, 0.21318015456199646
-0.2594868236317373, 0.5568107758386863, 0.21318015456199646
-0.037454795719951285, 0.5552778864242258, 0.21318015456199646
-0.1998325015952164, 0.6203361974970094, 0.21318015456199646
-0.290030404540246, 0.654490916048942, 0.21318015456199646
0.07837124347780058, 0.5513824036538367, 0.21318015456199643
-0.07807642915933218, 0.5535483488059423, 0.21318015456199646
-0.15660507627543038, 0.5494994458876854, 0.21318015456199646
0.0564340890728509, 0.5489852346608582, 0.21318015456199646
-0.11722846832112818, 0.5963057826989384, 0.21318015456199646
-0.4296074535177886, 0.5828551681798014, 0.21318015456199646
-0.3319242173013711, 0.544407182926045, 0.21318015456199646
-0.13474825563527182, 0.6040700531748685, 0.21318015456199646
0.27783470547796624, 0.5454962800737257, 0.21318015456199646
-0.4141497269562601, 0.5919087830409201, 0.21318015456199646
-0.32779342676692813, 0.6911098143834307, 0.21318015456199646
-0.43257884571642313, 0.7074553184570807, 0.21318015456199646
0.25909555099928305, 0.5660982877320364, 0.2131801545619965
-0.19256892279290566, 0.5738528096275032, 0.21318015456199646
-0.07210729828854365, 0.5571108221013261, 0.21318015456199643
-0.29375930342836987, 0.6058523487832421, 0.21318015456199646
-0.3743840742500863, 0.6695270222300169, 0.21318015456199646
-0.2494242958630338, 0.6867889537790567, 0.21318015456199646
-0.36425631341649967, 0.5949446105280046, 0.21318015456199646
0.1709837145234004, 0.5807532394362939, 0.21318015456199646
-0.38407410760804356, 0.562538538215921, 0.21318015456199646
-0.510081702672076, 0.5544783841579343, 0.21318015456199643
-0.05058244636420922, 0.5697064900989439, 0.21318015456199643
-0.38717976674452, 0.5500277653225949, 0.21318015456199646
-0.31951743340466243, 0.578693066404596, 0.21318015456199646
-0.21044022132096862, 0.5761155100380079, 0.21318015456199646
-0.484882928308238, 0.5793416688954705, 0.21318015456199646
0.02505851520716008, 0.5486334619402841, 0.21318015456199646
0.3162389660849455, 0.5583675757955207, 0.21318015456199646
0.2020283335928712, 0.5404443955594642, 0.21318015456199646
-0.49803846999656165, 0.6121222493218048, 0.21318015456199646
-0.08957292564646932, 0.6366971323436772, 0.21318015456199646
-0.45672628322792225, 0.5449693249119418, 0.2131801545619965
0.29165356814944643, 0.5539063585720155, 0.21318015456199646
0.03503511827122086, 0.5531406994301535, 0.21318015456199646
-0.418316654566687, 0.7096962242162431, 0.21318015456199646
-0.2506147941302853, 0.5833034808644088, 0.21318015456199646
-0.19676560735309426, 0.627953053171461, 0.21318015456199646
0.021498832533011075, 0.589914357644636, 0.21318015456199646
-0.28928275867068554, 0.5713271165624279, 0.21318015456199646
-0.4189176392109638, 0.6218431581650348, 0.21318015456199646
-0.2336059785555411, 0.5512433239061995, 0.21318015456199646
-0.26139001049635835, 0.64645016103668, 0.21318015456199646
-0.011514334930299963, 0.7404095155834318, 0.21318015456199646
0.3553693059653124, 0.5728061188825121, 0.21318015456199646
0.3768089630207351, 0.7358133402788245, 0.21318015456199646
-0.2850100607043634, 0.7200869702105359, 0.21318015456199646
0.02986896220266061, 0.7269156045524952, 0.21318015456199646
-0.13332536909731518, 0.6938521819957932, 0.21318015456199643
-0.18097755493404438, 0.6861915543973783, 0.2131801545619965
0.23824274184879152, 0.6150335821356945, 0.21318015456199643
0.5191589328051553, 0.7309752840037526, 0.21318015456199646
-0.10337280802121873, 0.6924012853130956, 0.21318015456199646
0.3775775021961095, 0.5961170980082757, 0.21318015456199646
0.31044911101644046, 0.5876520481845471, 0.21318015456199646
-0.23872627048894107, 0.7044019505628545, 0.21318015456199646
0.42661326020960133, 0.594019562151409, 0.21318015456199646
-0.23605706348518396, 0.7196601976921274, 0.21318015456199646
0.3460832806745044, 0.7054901350677506, 0.21318015456199646
-0.034131575083241286, 0.6706586465704958, 0.21318015456199646
0.0027222382274670748, 0.6712514087175653, 0.21318015456199646
0.21757625771750758, 0.6733073980636364, 0.21318015456199646
0.03462699037815713, 0.6657861675995713, 0.21318015456199646
0.4622396881817733, 0.6000687538756762, 0.21318015456199646
0.24532860785243418, 0.7346767430772434, 0.21318015456199646
0.36339793512351526, 0.7317158023319469, 0.21318015456199646
0.4142623223452663, 0.6413322538163124, 0.21318015456199646
0.06932264931843578, 0.6700210568660407, 0.21318015456199646
0.17603019899971586, 0.6596472060558976, 0.21318015456199646
0.448015183914682, 0.6347955712597688, 0.21318015456199646
-0.2929022085890419, 0.6977680904208997, 0.21318015456199646
0.3143710881040645, 0.6368775851260147, 0.21318015456199646
0.33322863369361955, 0.7013337103333377, 0.21318015456199646
0.2381579964473687, 0.7236285951101865, 0.21318015456199646
0.011862803163477709, 0.6845838642100526, 0.21318015456199646
0.1310972085725689, 0.6981426460945598, 0.21318015456199646
0.0812396148191516, 0.7229794737838283, 0.21318015456199646
-0.00911270893751362, 0.7261054900441619, 0.21318015456199646
0.44534253757698883, 0.6268016058047382, 0.21318015456199646
-0.2536778251168909, 0.737182367842317, 0.21318015456199646
-0.4299211158213879, 0.7246669965580218, 0.2131801545619965
-0.28407357749563916, 0.7408831056037604, 0.21318015456199646
0.3920640621092538, 0.6221800932779196, 0.21318015456199646
0.43816098916745044, 0.5965806807172125, 0.21318015456199643
0.15921208483427696, 0.6718737285152498, 0.21318015456199646
-0.05281042904883827, 0.6750503300335357, 0.21318015456199646
0.12474341054982627, 0.7126401080355966, 0.21318015456199646
-0.08992943706260215, 0.7095147559307096, 0.21318015456199646
0.4073487856006045, 0.5814913946404554, 0.21318015456199646
0.2971838095946939, 0.6444720380037602, 0.21318015456199646
0.32377310381298485, 0.5811610482197649, 0.21318015456199646
-0.029315187957588265, 0.6798701127715543, 0.21318015456199643
0.43900814098396623, 0.6360986623205782, 0.21318015456199646
0.49751683117084267, 0.7005133934304888, 0.21318015456199643
0.51206307950348, 0.5391233150337192, 0.2131801545619965
-0.02298612763188021, 0.7244568768452655, 0.21318015456199646
0.48126532105458986, 0.6076921901881857, 0.21318015456199646
0.4763887475133158, 0.7394220257428007, 0.21318015456199646
0.39314494621025703, 0.7028400014881327, 0.21318015456199646
0.08116230186777365, 0.6644226071542834, 0.21318015456199646
0.3947414597662665, 0.6334920271260696, 0.21318015456199646
0.06655284299326794, 0.6518616318184671, 0.21318015456199646
-0.3121196630402594, 0.7402210965552916, 0.21318015456199646
0.21088506643973098, 0.6725049358221542, 0.21318015456199646
0.5057491783787691, 0.5811412185575029, 0.21318015456199646
-0.1564805044692198, 0.7068417644322945, 0.21318015456199643
0.3034661247070266, 0.6402554766459934, 0.21318015456199646
0.0012579919763352765, 0.7266460510518229, 0.21318015456199646
0.3572264095834423, 0.7134953402702172, 0.21318015456199643
-0.22754268667694835, 0.7111614665283593, 0.21318015456199646
0.3381499427271491, 0.6024671122421357, 0.2131801545619965
0.3374934184809498, 0.5858260404849318, 0.21318015456199646
0.2258667309720473, 0.740521751926056, 0.21318015456199646
-0.15402510981744394, 0.706494417562822, 0.2131801545619965
-0.2551897977256612, 0.7217669871444587, 0.21318015456199646
0.05045711612795667, 0.6899196196255414, 0.21318015456199646
-0.25970595292269893, 0.7202425408635005, 0.21318015456199646
-0.30688508319121854, 0.7305819717307299, 0.21318015456199646
0.3851005992094425, 0.7384779604380008, 0.21318015456199646
0.5069268417116775, 0.604395538121428, 0.21318015456199646
0.31809128700752304, 0.6010081311113915, 0.21318015456199643
-0.04320111516111849, 0.729788043430561, 0.21318015456199643
0.2991052404077054, 0.7347870786238386, 0.21318015456199646
0.020830735479755197, 0.68024752056065, 0.21318015456199646
0.023423743645905937, 0.6840008927499919, 0.21318015456199646
0.29094166805286675, 0.6435405361620404, 0.21318015456199646
0.45765474400761624, 0.6183796125111982, 0.21318015456199643
0.22679536938647077, 0.6092834140134474, 0.2131801545619965
0.49583558807117833, 0.6259326376886469, 0.21318015456199646
0.20934384702822925, 0.6359408853171432, 0.21318015456199646
0.04064550922551283, 0.6698921511554548, 0.21318015456199646
0.13263026325688748, 0.6287652798637619, 0.21318015456199646
0.3230368260538933, 0.6012460638395364, 0.21318015456199646
-0.0005465965337109052, 0.6646360750592277, 0.2131801545619965
0.4583494363175928, 0.6775415503543865, 0.21318015456199646
0.04087277600844458, 0.7234693580431573, 0.21318015456199646
0.21301583244053143, 0.7062176659861861, 0.21318015456199646
0.4961742598204118, 0.6088601635517971, 0.21318015456199652
0.4233534932370455, 0.6080777371289605, 0.21318015456199646
0.3326441376457974, 0.6095243693537955, 0.21318015456199643
0.15312963301654842, 0.7139902203926374, 0.21318015456199646
-0.13663667884330102, 0.7369109754399137, 0.2131801545619965
0.38663973544937275, 0.6221509749685157, 0.21318015456199646
0.27769327117220466, 0.5971893319517986, 0.21318015456199646
0.46281216654506435, 0.5572909973396842, 0.21318015456199646
-0.009649562132854617, 0.68817205655126, 0.21318015456199646
-0.13804232055826743, 0.7196528217076735, 0.21318015456199646
0.4299928966202881, 0.5775425686397807, 0.21318015456199646
0.2769237059279224, 0.6401980310803876, 0.21318015456199646
0.3654209838067454, 0.7030989351476256, 0.21318015456199646
-0.3283008847529574, 0.724154986276847, 0.2131801545619965
0.3492678431592424, 0.6079555821999842, 0.21318015456199646
-0.029659019834945802, 0.6893879180758341, 0.21318015456199646
0.19010327034159652, 0.6757378039971942, 0.21318015456199646
0.12981076626359037, 0.6787419472707295, 0.21318015456199643
0.521310856403453, 0.6109919824213534, 0.21318015456199646
0.10565974169345632, 0.6312423437757174, 0.21318015456199643
-0.35083605611142005, 0.7205182532197534, 0.21318015456199646
0.4168789342352398, 0.5861239709467961, 0.21318015456199646
-0.4391575073035806, 0.7343113066501344, 0.21318015456199646
-0.1884291849831403, 0.7311339324367008, 0.2131801545619965
0.19621810510172605, 0.6490986376260481, 0.21318015456199643
0.26981281178585276, 0.6480755666390368, 0.21318015456199646
-0.1047346416421598, 0.6935502770401717, 0.2131801545619965
0.29313995233621526, 0.714180932973567, 0.21318015456199646
0.49125589816080917, 0.6894547863468006, 0.21318015456199646
0.024662679265857662, 0.7273290327925944, 0.21318015456199646
0.10007386502552262, 0.726050178709845, 0.21318015456199646
-0.11887922666070319, 0.6945771918068919, 0.21318015456199643
0.2880142290110184, 0.5856797113717241, 0.21318015456199646
-0.1563119774558871, 0.25099054276403043, 0.21324042541410665
-0.014735932606437588, 0.07594085228157067, 0.21318015456199646
0.10875844988409172, 0.11825808536886388, 0.21318015456199646
-0.2196029879972624, 0.18357084759218736, 0.21318015456199646
-0.5030712756086315, 0.2400107317885263, 0.21318015456199646
-0.4468582292082812, 0.06143522370087354, 0.21318015456199646
-0.5067476249119207, 0.24726275350983312, 0.21318015456199646
-0.12158238177270624, 0.07430316062874662, 0.2131801545619965
0.02242274116955978, 0.12519887219896667, 0.21318015456199646
-0.4552395171632319, 0.1762491463620026, 0.21318015456199646
-0.20416501344954402, 0.09080627514961552, 0.21318015456199646
0.004758037792914706, 0.0627320496455292, 0.2131801545619965
-0.05260564704321413, 0.14807379409385316, 0.21318015456199646
0.019987166518637522, 0.11967427857214785, 0.21318015456199646
-0.30010253366969103, 0.12069412712768676, 0.21318015456199646
-0.33560529269252815, 0.20579171524863454, 0.21318015456199646
-0.5186679191281052, 0.2283139118042516, 0.21318015456199646
-0.003881616694673129, 0.11682019644444987, 0.21318015456199646
-0.47286743841889095, 0.21932062464587643, 0.21318015456199646
-0.0987573729068931, 0.07651397357281944, 0.21318015456199646
-0.2521165996311458, 0.07208900135500351, 0.21318015456199646
0.19968761504088775, 0.1077103612502392, 0.21318015456199646
-0.07867581626959204, 0.08123802458839985, 0.21318015456199646
-0.3704478544698786, 0.08844040212971557, 0.2131801545619965
-0.4794124991747235, 0.06121707580698568, 0.21318015456199646
-0.1300571515319342, 0.13107925089113087, 0.21318015456199646
0.15821932890748855, 0.0820141436357337, 0.21318015456199646
-0.22841517080131474, 0.1402773856949, 0.21318015456199646
-0.3315231042996646, 0.05291010511950947, 0.21318015456199646
-0.037805608400097904, 0.0882599830796141, 0.21318015456199646
-0.24945701684655608, 0.16388495409522497, 0.21318015456199646
-0.20676258256436592, 0.16046628712047964, 0.21318015456199646
-0.31932545810442986, 0.1841141794252021, 0.2131801545619965
-0.45715329676603667, 0.19317379138479146, 0.21318015456199646
0.43835042976055894, 0.05235720697465987, 0.21318015456199646
-0.35889803901904926, 0.15057764990849945, 0.21318015456199646
-0.3136940520481562, 0.11179499807484708, 0.21318015456199646
-0.20320742619436089, 0.13239286379229084, 0.21318015456199646
-0.41339403227862775, 0.22544201880685655, 0.21318015456199646
0.43560582014830923, 0.054908437593377414, 0.21318015456199646
-0.09130477515349178, 0.1584019923232386, 0.21318015456199646
-0.2916122688788314, 0.05952452208169981, 0.21318015456199646
0.028971916905608186, 0.11955937956349273, 0.21318015456199646
0.2880710777859701, 0.08019032958592465, 0.21318015456199646
0.017817458444037287, 0.09272034231332282, 0.21318015456199643
-0.03253138466667555, 0.0679285157987999, 0.21318015456199646
-0.35388089161962266, 0.13863913630743738, 0.21318015456199646
-0.22426780448815717, 0.08167082294515804, 0.21318015456199646
-0.25068031848553496, 0.054468426677476575, 0.21318015456199643
0.21325909937366688, 0.08115886872224931, 0.21318015456199646
0.3202401204737017, 0.05731546627145433, 0.21318015456199646
-0.23885070522615384, 0.10828103101248779, 0.21318015456199646
-0.39723776942612976, 0.1455252946377557, 0.21318015456199646
-0.0879256160939425, 0.10791956379001319, 0.21318015456199646
-0.21849375979467678, 0.08506054125308456, 0.21318015456199646
0.21543210355321088, 0.09986037558447271, 0.21318015456199646
0.04863021936133857, 0.1376621693100338, 0.21318015456199646
0.352566897477272, 0.063785987875395, 0.21318015456199646
-0.10727077550578312, 0.05453192205026973, 0.21318015456199643
-0.4407039091083886, 0.05505727373835791, 0.21318015456199646
-0.07654932278686946, 0.056577560135836806, 0.21318015456199646
0.31770280072451373, 0.08208669793438289, 0.21318015456199646
-0.4558444340595402, 0.11105822503467874, 0.21318015456199646
-0.3818879860263608, 0.15406763306868337, 0.2131801545619965
-0.4814953599520493, 0.08257696830942032, 0.21318015456199646
0.08935481002571444, 0.11684489884473317, 0.21318015456199646
0.2705687021341689, 0.07060829243616329, 0.21318015456199646
-0.18679340083236676, 0.0966501652441282, 0.21318015456199646
-0.3000711082441825, 0.10756390161175669, 0.21318015456199646
-0.3881371990473511, 0.04935644064184274, 0.21318015456199646
-0.11516993805190287, 0.162150383815404, 0.21318015456199646
0.17600372582089213, 0.07658836812309246, 0.21318015456199646
-0.16330906818151822, 0.15367287406087995, 0.21318015456199646
-0.3241125376265802, 0.13266364063115949, 0.21318015456199646
0.4251324662947293, 0.059545699357295756, 0.21318015456199646
-0.2599497444260373, 0.12773861989656438, 0.21318015456199646
-0.03704951766157755, 0.1259466877468378, 0.21318015456199646
-0.04951947743170759, 0.08368831920225464, 0.21318015456199646
-0.3793782193055084, 0.12862726043928846, 0.21318015456199646
-0.461455091586002, 0.22326565816635044, 0.2131801545619965
0.04927047465797593, 0.10361028239142117, 0.21318015456199646
-0.23431767265249992, 0.19394332755025478, 0.2131801545619965
-0.43375504252261504, 0.1430006429419114, 0.21318015456199646
-0.34201424363681177, 0.12000000973471331, 0.21318015456199646
0.258822878727548, 0.05157553535612956, 0.21318015456199646
-0.35242462979627565, 0.09253012325725236, 0.21318015456199646
0.004331532355216161, 0.09698189427394784, 0.21318015456199646
-0.42701959365711656, 0.13102309797722989, 0.21318015456199646
-0.12362155308587802, 0.12385633761047446, 0.21318015456199646
-0.31217289314298047, 0.18903620597466242, 0.21318015456199646
-0.0727719282036316, 0.12747520640037252, 0.21318015456199646
-0.3749732403013344, 0.10693428176789288, 0.21318015456199646
-0.26954857680014166, 0.09312025897802076, 0.21318015456199646
-0.5139090837857536, 0.06761468816913341, 0.21318015456199646
-0.12402715755672138, 0.08295080764597622, 0.21318015456199646
0.17550117201357468, 0.0468239950707227, 0.2131801545619965
-0.2694253730536877, 0.0772484788621779, 0.21318015456199646
-0.35149453237297285, 0.1876473027634545, 0.21318015456199646
0.14552824773363193, 0.09349709959871588, 0.2131801545619965
0.26158556102049757, 0.09020777214486442, 0.2131801545619965
-0.380093870757775, 0.11541342714899572, 0.21318015456199646
0.24899647144185755, 0.09759329537579112, 0.21318015456199646
0.2597836336180318, 0.05495995562952419, 0.21318015456199646
0.256762187148054, 0.06996441474957327, 0.21318015456199646
-0.09573311656489708, 0.10376852531884576, 0.21318015456199646
-0.3571854320485818, 0.11753620945871907, 0.21318015456199646
0.13651464770288887, 0.06267639362907293, 0.2131801545619965
-0.36064770216798536, 0.1328062756254053, 0.21318015456199646
-0.34001624027280297, 0.1632748103809588, 0.21318015456199646
-0.2224429163411925, 0.07986516790386297, 0.21318015456199646
-0.2422483547766155, 0.17885263254385977, 0.2131801545619965
-0.0991555302575038, 0.058011479608794374, 0.21318015456199646
-0.28541297397255183, 0.18934500967923087, 0.21318015456199646
-0.44272916040798493, 0.05292149571524862, 0.21318015456199646
-0.36130314379202244, 0.19901423400884477, 0.21318015456199646
-0.49620584022260666, 0.056790824622173365, 0.21318015456199646
-0.0688471000667831, 0.09625604157381856, 0.21318015456199643
-0.45050224412156614, 0.18517130128471493, 0.21318015456199643
-0.5178352227607604, 0.12063515764864416, 0.21318015456199646
-0.29191396215488996, 0.11105699091406754, 0.21318015456199646
-0.42536912077039396, 0.23116459056187053, 0.21318015456199646
-0.028342718683213752, 0.10727731211495581, 0.21318015456199646
-0.3841029815135869, 0.1682255838403481, 0.21318015456199646
-0.5101948495882064, 0.1680071111818394, 0.21318015456199646
-0.20155793436965208, 0.18574279912789005, 0.21318015456199646
0.3847978407482714, 0.04868027196187574, 0.21318015456199646
0.41119270842379774, 0.05026971042753572, 0.21318015456199646
0.1886408791872252, 0.06406791782688767, 0.21318015456199646
