0.08793227880006713, 1.3485771912427291, 0.13947317581966312
0.09194404459065783, 1.3163517365574788, 0.14473777683434075
0.09733944746476805, 1.2769487433358429, 0.15088120026177942
0.08598515436262386, 1.3960591488248275, 0.12934025737811441
0.0873459375301711, 1.3325014999860558, 0.14365038610845587
0.08579036711577571, 1.2858104098768133, 0.15569453062037025
0.07648240995332425, 1.3626131074262249, 0.1429956621394253
0.08119703809975529, 1.381488028596641, 0.13567786218850797
0.08498387901292219, 1.3128817746399717, 0.14973534976455422
0.07888135954985531, 1.3814502662850143, 0.13707482132389953
0.08366191815483659, 1.3264256919374866, 0.14730446069552047
0.08271249609733085, 1.4079295604172224, 0.1284768437123206
0.08360692305941667, 1.3406762389488434, 0.14394601007976834
0.07865901627782504, 1.40685116688379, 0.13116306123991361
0.07568625231569931, 1.3770920680272043, 0.14002709084394682
0.07917812439681951, 1.4082812400419313, 0.13051158234437477
0.07944925406582411, 1.384947426604271, 0.13590216549242723
0.0836450904928325, 1.3449117336735903, 0.1429151498993697
0.08308959459092634, 1.3883713680240128, 0.13290537080301823
0.07443788685551872, 1.3505098875591726, 0.14670037637296943
0.07706902952757677, 1.3282568050819754, 0.1504808151154613
0.07664406252680264, 1.3531164964951357, 0.14506834803948843
0.07803755073596243, 1.2744365802650122, 0.1621756554864322
0.07447691635852696, 1.2964279504505054, 0.15889392874406047
0.07173852054558373, 1.3231875639567554, 0.15414661626632384
0.0718531633901844, 1.376041201261455, 0.14215773959684516
0.07211322952496466, 1.4044444329774055, 0.1356211249497503
0.07449253275216347, 1.350184895813924, 0.1467479158479933
0.07794145647253237, 1.3312269836028663, 0.14939750545196537
0.08286347309786958, 1.2948187316597106, 0.15529076244660456
0.07017986132148889, 1.2867355619880758, 0.16311487687701864
0.08126428635620653, 1.2696925067730815, 0.16172076561106669
0.07046131198524488, 1.3466921875227331, 0.14944321063544927
0.07925006760583934, 1.270921774962292, 0.16239584220509834
0.06732285011123057, 1.378321694810869, 0.14378544835828924
0.06665728566373759, 1.3396185651889856, 0.1528396238540756
0.06612269797795187, 1.4087507288492815, 0.13748201874933944
0.06987658571069419, 1.3219118060161332, 0.15531531621650063
0.06639676842574274, 1.3424806325389962, 0.15231656639772992
0.06876727043800167, 1.2933826104957873, 0.16228203432765648
0.06758388529542605, 1.368798314463051, 0.1458124239155535
0.06424779737779557, 1.3927649378647247, 0.14197845379977092
0.0626086954442179, 1.3780147869106196, 0.1460843511064871
0.06793813205348198, 1.3350690107726724, 0.15326115196528084
0.06613729071562101, 1.392784843593069, 0.14108030637637664
0.0645524272941034, 1.3958346931027867, 0.141141207867313
0.05830772079836759, 1.3436215649649512, 0.15528179316260615
0.05624112511476451, 1.2993933119997143, 0.1656099244254691
0.06355069839563147, 1.336729292221595, 0.15490004975282604
0.05323303884678237, 1.2816627267548826, 0.1705302368061566
0.05536272778646607, 1.2750233066411787, 0.1712076396098884
0.058943459931532924, 1.3314202944876263, 0.15769955452047812
0.06326948665485249, 1.338019510019004, 0.15472095085524085
0.05574019426412971, 1.2766258441449296, 0.17072514840510974
0.059020332602020734, 1.4001099202482525, 0.14278014068613898
0.05602353859231608, 1.3589818643721978, 0.15276898326307334
0.05659543798039412, 1.2976011269078238, 0.16587169352573256
0.058573438014031746, 1.406376425297591, 0.1415814658338203
0.05870310310631457, 1.3597418862505708, 0.15164543657171786
0.06834530914968429, 1.2707605637375072, 0.16748650950199978
0.0619403804992532, 1.3347004003150826, 0.15591610068092837
0.047300184237350454, 1.413277054264808, 0.14411908946281393
0.05168682814035741, 1.336057836158262, 0.15929062870822674
0.05268941946086549, 1.3459377506901773, 0.15678992675181386
0.05231081286946861, 1.3116545648189293, 0.16435798905610377
0.046204857654377623, 1.4070070499666598, 0.14587034461820314
0.053005273475326055, 1.3130318860185242, 0.16381090112451865
0.05538333515585738, 1.368820893414051, 0.15086495319271612
0.052836065227410224, 1.2939981857066345, 0.16799795086894403
0.05211163370547653, 1.3286574608721216, 0.16074303018281652
0.051888729134733094, 1.3001965225842433, 0.1669931177710647
0.05287183287559323, 1.4114132655531666, 0.1425295687235713
0.0510891880629782, 1.317219920945388, 0.1635885293255697
0.05642328687536165, 1.39197718540586, 0.14547256527446667
0.04631963812759293, 1.2901613586626504, 0.1706190799087307
0.04458123148436033, 1.3322883470526041, 0.16218962659910766
0.04238171354296394, 1.3377112091752177, 0.16159942155268608
0.043101743880455144, 1.3491746897841832, 0.15900677509470448
0.04975385218239772, 1.2842889674598403, 0.1709946098938526
0.040897053019146576, 1.3249945582783, 0.16464730302985078
0.04959671218914102, 1.2904207401154262, 0.16974364548068893
0.04382452869633427, 1.3804906001592199, 0.15223583870828347
0.041287967521490665, 1.2890458302163392, 0.17211417265099288
0.0416223887527413, 1.328320915185204, 0.16376564439805927
0.041426326603060545, 1.300269802961048, 0.16971762536915935
0.03685648580155877, 1.277062340929256, 0.17574590225636916
0.04381669364958736, 1.2839856105210115, 0.17254560475020173
0.045301206067552106, 1.386632239194804, 0.15057355423656021
0.04669497353537801, 1.2723531766413108, 0.17427248813225665
0.039971846887103424, 1.3581095896859368, 0.1579105682843556
0.037658053494680925, 1.4157331421962245, 0.14636427092587595
0.038724165711506185, 1.3525041651257244, 0.15940265850148463
0.03631433704047051, 1.296736539890565, 0.17174160910893904
0.03479371118200325, 1.3288297423367834, 0.16536905063870688
0.035283786261809266, 1.3798109281912871, 0.15451819378816117
0.034654187774837114, 1.4031895546094666, 0.14975627581202294
0.03405207033714937, 1.3773242815852134, 0.15534999259772
0.030852184015621557, 1.3862890982413136, 0.15426502994623986
0.03297058578416126, 1.3987608041818191, 0.15110994753125984
0.0365565452484764, 1.4159159297475874, 0.14660171876288827
0.032490136656261596, 1.36191405893473, 0.15898404711068875
0.02759291552332898, 1.3213778880335532, 0.16815980691193116
0.03007303619219846, 1.3958911026907854, 0.15241538483417802
0.02732443018280314, 1.319941483102576, 0.1684960494056089
0.031209856666448224, 1.3361279284289385, 0.16457946576911134
0.024713858020083225, 1.3429292031695224, 0.16413955396564145
0.03063295952100145, 1.3268996899206968, 0.16656937798546262
0.026038566282318598, 1.3252474187483885, 0.16759185917268246
0.030794287352572055, 1.2944978789263062, 0.17323187663366518
0.027736442096772576, 1.2755438668309371, 0.17759681365969598
0.023322798608049738, 1.3037833135641965, 0.17242403558271535
0.026814766778097097, 1.2997578620253991, 0.17273673834990616
0.020773693061146885, 1.3036478188407263, 0.17283012313931861
0.026797418324889966, 1.3470375506247851, 0.16298268714733977
0.02696259273315129, 1.3351233221818803, 0.1654168028345038
0.033400259586039135, 1.2713065317112389, 0.17763107486071164
0.02438154003406786, 1.3890978248137702, 0.15466149633616166
0.019161629395425567, 1.4082172196936213, 0.15149031135439692
0.018012433113538635, 1.3660553557174806, 0.16036129702052007
0.019540759260206396, 1.3806044056026519, 0.15713225237694092
0.023220170731199925, 1.4015457017958644, 0.15226502407102363
0.02089625885527291, 1.3138413615383258, 0.17070840379423563
0.01969552844191381, 1.3168635245973586, 0.17026286002456026
0.02094733074410693, 1.3563896367274624, 0.16192056798172405
0.01579531850146057, 1.4055528329365192, 0.15253947388245964
0.022064528594114695, 1.3249628982123882, 0.16824006937906982
0.016309632176274038, 1.3658027802911006, 0.1606660024766146
0.025029012685476186, 1.4151302332475932, 0.14919340725476615
0.0011128759065596346, 1.2984605804169593, 0.175222918013002
0.0010272911353781365, 1.2901637132545034, 0.17692277115051258
0.00807126215146901, 1.316827631060043, 0.1711273744160124
0.006919850348613986, 1.3028753497269525, 0.17403539541938667
0.010197544844909224, 1.3220069222452213, 0.16996441814635452
0.01117866971016615, 1.308667692313303, 0.17264238801821116
0.00418164373881191, 1.3612125702245175, 0.16224740459942413
0.01003791095324039, 1.3313651956490211, 0.16805968942798646
0.0011360225434315623, 1.398684381679492, 0.15473882452762722
0.011768483440628294, 1.2990605073049244, 0.17457685483536942
0.00408806573342723, 1.3170267052066462, 0.1712823630107779
0.0014714323485346638, 1.290417741660145, 0.17684903645469782
0.0047202293087122245, 1.317998594415971, 0.17105268097511894
0.009515306028420684, 1.2995569373945337, 0.17458608527469063
0.012722550401631129, 1.3029592966033978, 0.17373318241157298
0.010426849753492097, 1.408016606195249, 0.1523751280405163
0.015057991977101934, 1.336419708340011, 0.16678005406857593
0.016614566354610956, 1.3145901120519476, 0.1711649540695266
0.017122098767322874, 1.2972026482098125, 0.17469354200597695
0.015084934602032782, 1.356936708195496, 0.16258561623202722
0.0043803116553478095, 1.3993571271176248, 0.15444194961073227
0.012616984077844286, 1.3560495559536148, 0.16288817396771033
0.014186883889300254, 1.364640147125911, 0.1610553641765646
0.010795731439213321, 1.3288752608447774, 0.16853133379368973
0.01563398352942704, 1.3700974773591557, 0.15986894036463165
0.003690044147895807, 1.4027097196849687, 0.15379068347997052
0.015006059793529498, 1.3815772244825633, 0.15755364301607622
0.010571995913429761, 1.3328215289452165, 0.1677358163336206
-0.0037023953817220206, 1.2735632847014482, 0.1801840234677881
-0.01673199014887487, 1.2980401531645585, 0.17454154463896826
-0.0015124267568233636, 1.2796373698655155, 0.179050228943313
-0.014783071353554902, 1.2919693601740319, 0.17587798882022754
-0.015362518082263313, 1.3524274135098535, 0.1634935543338828
-0.008669868228423982, 1.2930203180900417, 0.1759635123994845
-0.005113958650935434, 1.2961015036708816, 0.17550848625902365
-0.010888872927233543, 1.3260439429932644, 0.16910538008568024
-0.011273195596681678, 1.2905370386890995, 0.17634313842142507
-0.011149716907457882, 1.324585126279847, 0.16939070830424785
-0.015358644086374737, 1.3760224721598866, 0.15867156129099713
-0.002697379355817182, 1.2856713957397585, 0.17775882872637117
-0.013602625461184974, 1.3916187252505503, 0.15557037884630454
-0.013436760821974411, 1.3965874297149339, 0.15456305990991095
-0.005776330746155828, 1.2832432035169732, 0.1781038314498098
-0.01168436573788697, 1.405080299701574, 0.1529134442248499
-0.0021552619544347998, 1.4054767747796124, 0.15330057261313548
-0.009799358933809284, 1.4046700096276281, 0.1530899049012644
-0.0029032454493172696, 1.3736402665730798, 0.15977032131465058
-0.0016973645935106382, 1.3634012922842005, 0.1619221266975237
-0.0040707670588370016, 1.3508337193757645, 0.1643739856679824
-0.003951247756902928, 1.4070303305476215, 0.15289483376452645
-0.0022319332690172076, 1.3218479568088366, 0.17038820943593827
-0.008678357623789419, 1.385286902545197, 0.15710634655259648
-0.0018579961640709775, 1.3995631797373176, 0.15452375132659035
-0.009068797577445173, 1.38322031925481, 0.15750951669247645
-0.010468793576369822, 1.4051066547233289, 0.15296777803073405
-0.026059161771600597, 1.3198734860720653, 0.16869774759255357
-0.0247041555379488, 1.288641152136325, 0.17534385731799879
-0.03383072407811071, 1.3047603314019263, 0.17066369119854746
-0.032224442705449566, 1.2928954855274517, 0.1733503947558802
-0.03355368028990034, 1.290842805780395, 0.1735768110576777
-0.024567427988153836, 1.3075730486958663, 0.17145734826645134
-0.02925646428654001, 1.4064981055085832, 0.1503475914426766
-0.028633855500737285, 1.3908590009597606, 0.15366723684661007
-0.023893976204335983, 1.285402678025496, 0.17613232924880817
-0.02512532973077828, 1.2937359644060429, 0.17423001486823603
-0.024947727434585676, 1.3282294340233667, 0.16713827902607
-0.027439246977572905, 1.3614983737650561, 0.15990330778559306
-0.021347104409916884, 1.286305247202177, 0.17632387032377148
-0.029080849210378987, 1.3248227721028534, 0.16722818348648774
-0.03217724235875813, 1.2732610271398712, 0.17740916796167872
-0.024593104073144877, 1.3910652572050313, 0.1542240737113647
-0.021337301356415705, 1.3879089864374416, 0.155358366029144
-0.01744114960554272, 1.2929796742320723, 0.175525937515236
-0.022161237408485975, 1.340804858287368, 0.1649565543797006
-0.02140632164043901, 1.345754892455289, 0.16404704886013338
-0.01834483641933423, 1.412169509709726, 0.15079586375745474
-0.025015130107058033, 1.3902187833640154, 0.15433614897721698
-0.019816182906172364, 1.393236054914461, 0.15448471379955692
-0.01826966939674069, 1.357203633172644, 0.16214977544599554
-0.01734438678497669, 1.3158578935026832, 0.17081914061460957
-0.0212901818826102, 1.3164480895526072, 0.17011203050865545
-0.02215824857245133, 1.3248360443659777, 0.16825232310354984
-0.03940857237381507, 1.266242017022582, 0.1770011515403883
-0.038753905982937216, 1.3095695610976326, 0.16843004245095441
-0.039127344358339734, 1.3209698665850549, 0.16593750314094183
-0.04800603899620019, 1.335969380348243, 0.16055711047785487
-0.04183478830657729, 1.312709581006953, 0.16699755631396354
-0.03963457393669066, 1.2845829538339355, 0.17346744634483227
-0.04882657618866119, 1.3260888324629017, 0.16243076682938204
-0.04426741197281343, 1.3233003641142134, 0.16415956643589732
-0.04215427826711444, 1.3428457398397866, 0.16057589334744607
-0.04569301236483762, 1.2764453414686132, 0.17366230215975303
-0.047546153878940484, 1.292028897402649, 0.16991882253585064
-0.044207320829241725, 1.32881208808845, 0.16301477131630518
-0.049784300077374305, 1.3114692147208127, 0.16526731508513534
-0.044021823280712025, 1.3953855586059896, 0.14905199794912374
-0.04044264013333343, 1.294026813770473, 0.17127773832185375
-0.05315012423370126, 1.4177271465631338, 0.14104848115893695
-0.04140641186721966, 1.3850012799843971, 0.1518923164145567
-0.034103826680259935, 1.4175957414354134, 0.14686254802591234
-0.034115542375249074, 1.309341479235711, 0.1696398776126937
-0.03522523864883257, 1.3278724779431348, 0.16546238370222008
-0.03444679926664642, 1.3494147767262867, 0.161124160707983
-0.03769163624362073, 1.3876138033455714, 0.15227304709632788
-0.039697474918162584, 1.3584718270907736, 0.1579030488414468
-0.034612218213478124, 1.3463379908224842, 0.16173018306258674
-0.04298559390928085, 1.4151725514309157, 0.1451477268738451
-0.03509213437783625, 1.3297116038748837, 0.16510871148380551
-0.03674967507330011, 1.4014608723922946, 0.14959511361164252
-0.035165661379926896, 1.3717257444217459, 0.15624913444345723
-0.057766403154037554, 1.2732589293122287, 0.17073006055862172
-0.05496605706091804, 1.3279631297315053, 0.1598721956753799
-0.058822577834937516, 1.3814053489958105, 0.1469060656444996
-0.054728473141585486, 1.3228853889364447, 0.1610580561345881
-0.059713426407469766, 1.3754628146926895, 0.14787565381610818
-0.0580298615577953, 1.3200468339328775, 0.16049219928108877
-0.05763835581724676, 1.2885127928205276, 0.16746884654139835
-0.05796029763380359, 1.2984674966729903, 0.16519547921467906
-0.062105545104800784, 1.3498901463019781, 0.15256388294394888
-0.05704281333430448, 1.3083803787203367, 0.16337465202843177
-0.06744084956586352, 1.2864841668461473, 0.16440126773958758
-0.0576647700262329, 1.3200178938374005, 0.1606291051527861
-0.06893434580868017, 1.271168505689875, 0.16718731464411216
-0.06206671647282684, 1.3251311709723594, 0.15794550958168105
-0.057272252705779354, 1.307366367742246, 0.16351239448876412
-0.05537097847906282, 1.3821266181177014, 0.1479846954108791
-0.05107759232928609, 1.31556607829422, 0.16395118376248985
-0.04460089941350344, 1.4173927805926945, 0.14419260114002466
-0.053133977376913846, 1.3988745322150464, 0.14515416701701234
-0.055955598875901257, 1.3818324712629173, 0.14783928598515986
-0.04963351878472845, 1.329243104998993, 0.16150270848196363
-0.051206769821907146, 1.3696603938153777, 0.15217734281769044
-0.055960497456079956, 1.367162010022179, 0.15101808190499555
-0.05128526465881233, 1.3642304631189526, 0.15332646320229684
-0.05388445521881649, 1.3822549703798113, 0.14848875470800155
-0.04730380108804598, 1.3662894943202266, 0.15430465530912915
-0.052566177746833725, 1.3482020216107422, 0.15634310372323978
-0.07545393374797812, 1.371234500211274, 0.14154006357467236
-0.07400435676912484, 1.3558718503052725, 0.14569464223994996
-0.0724997388535039, 1.3477946161741479, 0.14823016304288889
-0.0716160480999752, 1.2961603479535277, 0.16030744460774343
-0.07756574553969256, 1.2789613319757307, 0.16137708036024834
-0.07687305644616238, 1.3540093515616922, 0.1447584081178505
-0.07076915072312522, 1.3809680775954565, 0.14155790687459482
-0.0828650469216777, 1.274484744174519, 0.1598815311454612
-0.08388436689282167, 1.2726042475704986, 0.15982405479584627
-0.07242038686558097, 1.3749389802794452, 0.14213833444804816
-0.07413422103755098, 1.2894927083988714, 0.16062202718839833
-0.07027558115567359, 1.3203474421061412, 0.1554798497289046
-0.0740045098065927, 1.2933683899847233, 0.15980822416360918
-0.07408956176468294, 1.303268834660714, 0.1575324179931472
-0.074258276241744, 1.3365637528104788, 0.1499344305868599
-0.06650925777078306, 1.3102825028470066, 0.15953390683854576
-0.06668611859210263, 1.364205624889387, 0.14727409390345558
-0.06221120844242556, 1.374566426218112, 0.14705103144445536
-0.06615392512793412, 1.3668893220131544, 0.14691980701905216
-0.06866076415160964, 1.3320908553089712, 0.15359186638963285
-0.065765084695316, 1.3861951938164814, 0.14274433270313897
-0.06399890253198968, 1.3563896118773981, 0.15030995127253519
-0.06290259938412025, 1.4069542595194056, 0.13941066191728047
-0.059250468073027585, 1.4049097260816397, 0.1415996541681342
-0.06444398964353625, 1.367299393875094, 0.14763594718814085
-0.06819161009062981, 1.3628801072355372, 0.14686136139970093
-0.06268775703663396, 1.365056318354838, 0.14897308078585697
-0.08128048099408906, 1.4181138157814757, 0.12670493271875788
-0.08938576463902441, 1.3231019460515214, 0.14466469866317977
-0.09323454445357232, 1.3057684567603096, 0.1464829238699906
-0.08924614917682641, 1.3682866515726066, 0.13399511913386353
-0.08790040054750561, 1.2761998235873993, 0.1567169754183954
-0.09133558741040135, 1.2846389663585926, 0.15264961112173736
-0.09595134227101584, 1.2967117632372245, 0.14700988567355977
-0.08791226903305784, 1.3590138314009608, 0.13700140679031764
-0.0855069290115252, 1.3330274756908465, 0.14462746826867162
-0.08674195345623893, 1.2930053179267265, 0.15341187608956436
-0.08898478074264207, 1.3114535305278472, 0.147677182964936
-0.09510422080752486, 1.3136142771068204, 0.1434950951711943
-0.08470771001668619, 1.3945902028529167, 0.13045552498935792
-0.09339591741380346, 1.3257432168291126, 0.14163251590384326
-0.08754795588725064, 1.2700788448430953, 0.15838492173481736
-0.08327974631135461, 1.31174645156887, 0.15102694787326648
-0.07915167334203495, 1.3487907985408003, 0.14468524160310187
-0.08340261283324957, 1.3106840034552187, 0.15120615062392267
-0.08456321905725339, 1.3074763966415608, 0.15127386973478427
-0.08116555153974639, 1.4083838057640587, 0.12929595284379544
-0.07529616821938506, 1.4065127571275435, 0.13325921221439307
-0.07429354835171176, 1.3903224725193009, 0.1377131979166608
-0.08101885375376794, 1.3842687048156619, 0.13512290155998669
-0.0809469336588964, 1.322056593850624, 0.1499715297379626
-0.0845983194964385, 1.3027977316948538, 0.15236628125092244
-0.0828542620053214, 1.3080575156174337, 0.15215988350821275
-0.08039365984203259, 1.4000189208132185, 0.1317493210081291
-0.08200307518458277, 1.3201673027069816, 0.1497881239278559
-0.1082541801782832, 1.2675484229137775, 0.1455284069091008
-0.10421608683247867, 1.2721547882698183, 0.1473525897669942
-0.10050388392501462, 1.3098619322675378, 0.14052288414733138
-0.11056337976242658, 1.2988739780065053, 0.13585475671545047
-0.10496709298404308, 1.32779275013042, 0.13265584239086056
-0.10666445879298057, 1.2816669146443331, 0.1431193618846546
-0.10108082090799149, 1.27952577666171, 0.14780459549225616
-0.10708567508903133, 1.280649897266725, 0.143065431752486
-0.10133185363694891, 1.278651082995303, 0.14784071148254427
-0.11053800956373709, 1.2965170629447385, 0.13647255605850517
-0.1087749728543971, 1.2701083312058403, 0.1444915905970113
-0.10503312281424018, 1.2808419574193335, 0.1445388906949912
-0.10249270431512258, 1.3353207519666634, 0.13257780738435232
-0.11050965186246975, 1.2855051746144404, 0.13929213577813113
-0.10346792618443786, 1.3012639511788913, 0.1405096923877776
-0.09199918540334427, 1.4134058404130487, 0.12051587618725172
-0.08784940290394899, 1.4060844397153707, 0.12545424230507174
-0.0975284439672211, 1.3344024725516885, 0.1364929158655785
-0.08659994507807972, 1.408558221011663, 0.1257522257007453
-0.09102816923886853, 1.3978823314555444, 0.12518116753395103
-0.09234789391805784, 1.3591133902342496, 0.13405509112243413
-0.09349821994104505, 1.4016140252832963, 0.12240086982363041
-0.08881820417686008, 1.3936279444078887, 0.12790140794217353
-0.09099260346794932, 1.3782218400134663, 0.13020404554553255
-0.09629026779124499, 1.3246440643543376, 0.13989121030740453
-0.08928884445752319, 1.3788637369779306, 0.13130451771234558
-0.0946534029636986, 1.392160992911714, 0.12394650679827181
-0.12221708672456347, 1.2978275223462232, 0.12567591037289202
-0.12539540727477888, 1.2762018343644328, 0.12875295350333815
-0.11168690229114334, 1.3581762135977677, 0.11859433678009967
-0.11864805803441156, 1.309766409044435, 0.12562162965835372
-0.12368635837139055, 1.2765313299762786, 0.13021117952069763
-0.11495666012323308, 1.3207357249821936, 0.12594536821479635
-0.11673456447017297, 1.3134200924404051, 0.12634936489663273
-0.11215475070640626, 1.3589371191679045, 0.11796067754011856
-0.11487586404787871, 1.2738878969296534, 0.13892483409435213
-0.11792004216242047, 1.3020790250702352, 0.1283992866270679
-0.11496895149595501, 1.3004302203372067, 0.13152824688466763
-0.11472286352160824, 1.2853966804409975, 0.13589292017888077
-0.12254922282481553, 1.3075758477176849, 0.12268928539535424
-0.11334579626910204, 1.3407892273633462, 0.12188078349024031
-0.11255438090168066, 1.3238054818058178, 0.12727698277361363
-0.12900269030538963, 1.2951797786145487, 0.11935138063253851
-0.12163811137926195, 1.3199483015629572, 0.11994831744771305
-0.13110076199668613, 1.28628313179234, 0.11974073154582773
-0.13153183920226447, 1.2822572266588232, 0.12048881898363376
-0.11268358365895159, 1.3818783017208547, 0.11100395912230797
-0.1132907649762756, 1.372199441231054, 0.11327600707077398
-0.12504605863537288, 1.3040600417850525, 0.12101760580258401
-0.11918254735158365, 1.34395908001831, 0.11535933665062603
-0.11802153722599662, 1.3610320104693483, 0.1114508557889226
-0.11764832131010422, 1.3505825502957003, 0.11503883064087625
-0.13219418333628963, 1.2779201488954812, 0.12107632717034969
-0.1216911356677331, 1.3148527799526064, 0.12143863862551266
-0.13082092667594092, 1.3040014433638512, 0.1146638595662932
-0.1262066662374406, 1.3142869964799522, 0.11662851413147357
-0.12044497863121, 1.3554478281127385, 0.11047436823260846
-0.1091133078685835, 1.3371969034377253, 0.12670655090282396
-0.10952643361386878, 1.3214720249276453, 0.13066419994597012
-0.10820090408446002, 1.3283151100268316, 0.12998036919296638
-0.10549377050954907, 1.3800012542621736, 0.11819482923585131
-0.10484237763783515, 1.4152901602949814, 0.10906339286672427
-0.10533060388520299, 1.4098969555248582, 0.11010667812079147
-0.09990637710179491, 1.3879778566230296, 0.1210614409915807
-0.10857257914287231, 1.3460299480750795, 0.1247632015014437
-0.10734739786590586, 1.3580932013801004, 0.12255030435082209
-0.10532420642526961, 1.3627088281436601, 0.12311244346771402
-0.11476965817519666, 1.274791125802221, 0.1387722606066538
-0.1038671584956273, 1.4010407743612165, 0.1138728740821417
-0.14266426243993496, 1.266177535992576, 0.11191652317207829
-0.11750358433505431, 1.4102345666251779, 0.09706676021648547
-0.13537164224434745, 1.2940948161671393, 0.11265413184793267
-0.12799395747640988, 1.3455768791954164, 0.10514570945948183
-0.11228414299630766, 1.4041625525298298, 0.10467118088606087
-0.1342404560014893, 1.3041298702680288, 0.11085195668600958
-0.13512864290782833, 1.2971637647747765, 0.1119894050099853
-0.12563618774506458, 1.3380410647279701, 0.11003769299987455
-0.12372154044001689, 1.3657864145237673, 0.10371672480957972
-0.12563736777392176, 1.3364950030375502, 0.11050633098506851
-0.12612165068527578, 1.3476915014892075, 0.10656872560529584
-0.11269842329998718, 1.3974099960562911, 0.1062665951571091
-0.11755913981463045, 1.39592163808276, 0.10135601293987953
-0.12503622161615607, 1.3652410088754947, 0.10240873739155318
-0.13159230951342824, 1.3446036561542152, 0.10064058991456372
-0.13361716604945856, 1.321320896466216, 0.10588863404691924
-0.1484728678199329, 1.2690203078679119, 0.10377967296059712
-0.1429679425545019, 1.2699677134232685, 0.11087760371507345
-0.1335114682618412, 1.3352282071898163, 0.10126555754014675
-0.14593807397205227, 1.280712561766201, 0.10319090253328236
-0.13105843296923655, 1.3319100488055438, 0.10571014004968218
-0.12562364153771963, 1.3780281009626079, 0.09723495768530761
-0.14377612735817163, 1.29337011352762, 0.1017686258555612
-0.12675750954847095, 1.3559572198682417, 0.1032690955530294
-0.1270645326232413, 1.3589278324690421, 0.101837185671421
-0.13694322222876024, 1.2921128688797319, 0.1114126045245989
-0.14815037002303896, 1.274292204469964, 0.10240800171633944
-0.11847832894414546, 1.406680697888661, 0.09705101742722265
-0.12293270294358993, 1.4031472533235663, 0.09225579150197036
-0.1349293304262517, 1.3530829882108586, 0.09323555885124407
-0.14182092673333707, 1.3116075334478365, 0.09815555099817648
-0.11892999519880479, 1.4123716707169576, 0.09449191024279988
-0.13033015279900892, 1.3618449972821904, 0.09643437243380651
-0.1380734219104241, 1.3417017489533847, 0.09289621385635713
-0.1359883245534867, 1.3540046155793364, 0.09149186613684523
-0.12220985855096042, 1.3985588654798897, 0.09480271206738243
-0.1236468944990611, 1.4073435738546016, 0.08985488576105474
-0.12848809577857667, 1.3862347499747871, 0.0905605674032822
-0.13561008895680982, 1.3511604497309222, 0.09297645288252077
-0.12442986861023717, 1.3987579011645448, 0.09174118350197111
-0.1320821984561098, 1.384175104270887, 0.08612917010801713
-0.14454556761348358, 1.3280886531372293, 0.08760463355612927
-0.13371424411801022, 1.3773787932312573, 0.08610476962423314
-0.15165854917741575, 1.274235831542129, 0.09711972597758262
-0.1457124635237006, 1.3113347670608513, 0.09230993614899982
-0.15955991134833064, 1.2679990698421746, 0.08641354007115705
-0.14453477909481635, 1.3170941800161748, 0.09198798883765794
-0.13446007685183498, 1.3726635325896772, 0.08673262992524351
-0.13432837482184773, 1.3703476011338938, 0.0878718999129128
-0.14033687398611383, 1.3498621079696012, 0.08598119232424219
-0.1497331087283204, 1.3057506172237485, 0.0878191499578754
-0.15154742118945663, 1.2790261810007815, 0.09540312153179095
-0.14328729499076204, 1.332637779761584, 0.08789768238326146
-0.14228602934000698, 1.3189015895733793, 0.0950221309742847
-0.14683675491278114, 1.312902016356205, 0.08981191197608608
-0.13243923769012597, 1.3928618673351656, 0.08208440153186819
-0.14347292397705733, 1.3583699326204228, 0.07737099133405775
-0.13921431833887735, 1.3818909706898734, 0.07513693388123292
-0.1370656855262964, 1.3884991350763798, 0.07609790845234873
-0.14874518908311923, 1.3192782280295183, 0.08409623424675675
-0.1331186280415279, 1.4086398193717824, 0.0746862433946972
-0.14320997734679886, 1.3507777981375284, 0.08082416224085864
-0.13303403968401173, 1.4013828668782065, 0.07770875820023644
-0.13631344132887907, 1.38874274860032, 0.07725621883382221
-0.13272473402073798, 1.414094529946208, 0.07317760837231876
-0.1395310002069649, 1.3728558667488238, 0.07819599173979253
-0.13044934258080848, 1.4008968930996635, 0.08221400117929317
-0.16087487757127633, 1.2661064199034102, 0.0837609583016276
-0.16004557417815884, 1.2827324851881001, 0.07858069521130552
-0.14776841717808548, 1.3390441310786927, 0.07765388748757658
-0.1535490186969483, 1.3189982628566084, 0.07500224881995432
-0.1531308210864969, 1.3210608579942256, 0.07490171537968063
-0.15605105393341076, 1.3131020563767217, 0.07252713369907761
-0.1514619518944129, 1.3195214432831872, 0.07916521947702307
-0.13929116075379624, 1.3881097042203787, 0.07215231133935557
-0.14753730976192342, 1.3391093826937488, 0.07811137228651349
-0.15610448705307128, 1.3061347314755403, 0.07574055883167263
-0.15736302731267843, 1.3052725478730307, 0.07349121812528304
-0.15406620101096374, 1.3065918833773558, 0.07983191467851605
-0.1446732933812593, 1.3658125806747425, 0.0714179819492267
-0.14823395246197257, 1.3487435459533323, 0.07203881287635293
-0.15983396867675873, 1.291856578311835, 0.07467199606668148
-0.14535365322151939, 1.3824920954567006, 0.062016142998852365
-0.15168040949088085, 1.3422363134546909, 0.06785858258145996
-0.14876222116929447, 1.3598511042907226, 0.06561878054131824
-0.1507340636059187, 1.3548821211232958, 0.06382197519321536
-0.14459711099557002, 1.3782148505758394, 0.06565782649688534
-0.15759891844807047, 1.312751749008748, 0.06942167741646442
-0.14209058987951437, 1.4015094588737624, 0.059835893176343094
-0.14134764628405594, 1.3824538791265606, 0.07050446963659517
-0.1374729436296397, 1.4173771617182584, 0.06202344674501033
-0.15202038842873533, 1.3404552765449562, 0.06799007322991175
-0.14611702671655427, 1.371713831198567, 0.06554799277722852
-0.14368264175952583, 1.3873507638049762, 0.0632295556527125
-0.1583180361783867, 1.3161980810623854, 0.06625582631798062
-0.1629410194693124, 1.301014398902447, 0.06271806445165932
-0.16465529849687466, 1.2996385084146618, 0.05876066288733041
-0.1651963706980044, 1.282043948370783, 0.06790924205909855
-0.1552574017770083, 1.3451804310008755, 0.057431493938080426
-0.17092248225889325, 1.268967030548962, 0.059829363317484834
-0.15629061962522595, 1.3374317773674227, 0.059238862563129116
-0.1597542432950107, 1.3124712328656718, 0.06468263198768891
-0.1578532702321235, 1.3353447643131418, 0.05613611074265338
-0.1473619846153436, 1.378464622678762, 0.0593303074614912
-0.16503665933577558, 1.2848864787965824, 0.06663327820482996
-0.15209280769780936, 1.3602528809871481, 0.05714331888425876
-0.16067235639982655, 1.321195582591793, 0.05683049209582216
-0.16888296606081118, 1.2681378551927256, 0.06603181613359807
-0.16637690809301608, 1.2990909375009432, 0.05428088440235073
-0.14969489305214137, 1.3722328656467653, 0.056586190589738114
-0.14393163639442685, 1.4104949511496094, 0.0495098664280886
-0.16340787129122727, 1.3165181291176835, 0.052019397090003666
-0.15827120420449192, 1.3454800903625137, 0.04882694351100531
-0.159556498907026, 1.33181860132047, 0.053512470232635063
-0.1463817621374599, 1.3890791079776437, 0.0556383830613714
-0.15900871464565053, 1.3336951364666954, 0.053906402397270764
-0.15999158069863095, 1.3374854294830745, 0.04886289843813589
-0.15366908996406, 1.3645420497650032, 0.05013905857240504
-0.1508219576912363, 1.3683623694400877, 0.05578145073205558
-0.16627535412536062, 1.3018677904382066, 0.052882176858154474
-0.15412727099629414, 1.3596000376655204, 0.05185296164617652
-0.14271774894791098, 1.40984602452926, 0.05329563532065669
-0.1634729666020851, 1.323324738342778, 0.04698832458461405
-0.16464282743150252, 1.3262875175374849, 0.0398289333014431
-0.17016326572962293, 1.302429943225199, 0.0378327368373592
-0.15933671607680483, 1.3434399678649234, 0.046602450673346334
-0.16806094381249875, 1.3037580215404687, 0.045109992616257547
-0.17318604394013484, 1.2868009920720132, 0.03889494261600877
-0.15706768304412502, 1.3592902225985941, 0.04234519681357263
-0.16049996506508965, 1.3387204380947817, 0.045923352584974625
-0.1641983610701212, 1.322983601401801, 0.04437896483071894
-0.15836706345219687, 1.3471189155420662, 0.04738285729531659
-0.17124849900391856, 1.2810249930584106, 0.051482494771621666
-0.15306128559450236, 1.3750213259453785, 0.045124016667880906
-0.16840707455283932, 1.2970309858274245, 0.04937952921632538
-0.15435110121192475, 1.3688043241578582, 0.04519765845886857
-0.15770221048857205, 1.3519166161215572, 0.046006567913596835
-0.14739219096850384, 1.411624672846171, 0.03700599946299124
-0.1709921222075587, 1.2996363476442754, 0.036870640290656356
-0.16187989487210036, 1.3476583154414703, 0.03290566629368865
-0.14698666302391628, 1.414286573737745, 0.03638870730918481
-0.14585038909616235, 1.4125787418918818, 0.042359712767527605
-0.16029297797316866, 1.3556078813149068, 0.03256260177243231
-0.16669111712166862, 1.3231341654180069, 0.034300810676371585
-0.14921356915313652, 1.4018724848599051, 0.03792741656765598
-0.16736822013250477, 1.316964676283375, 0.0367806236075415
-0.1552170602645086, 1.3717874756014738, 0.03923440759463745
-0.1650822975592828, 1.3312794124348335, 0.033880795654536854
-0.14794424940841666, 1.415346848341101, 0.03167507313503223
-0.17883767200999892, 1.2664859397794461, 0.030159279884267205
-0.16959138150349742, 1.3161194611273457, 0.02525762004150786
-0.1759641066606499, 1.2891357747826693, 0.019834812185735528
-0.15914884024469642, 1.3658665892124995, 0.026449078742929136
-0.17834915396463566, 1.2684773351764216, 0.03249577346760856
-0.17391757423628618, 1.2930879586716877, 0.028133498232770976
-0.15681721125561288, 1.3748961652010683, 0.029606099347099315
-0.17595865739226524, 1.2871737090637738, 0.02260118066952202
-0.1703769450551338, 1.3143241207797913, 0.022459319575224974
-0.17953784092467218, 1.2684244872701664, 0.0245556013850763
-0.15942969043536498, 1.364592295648914, 0.026328490010140454
-0.17862153134882805, 1.2744698382054345, 0.022322716872731643
-0.17174338525814356, 1.3007803060237546, 0.032089472011884806
-0.17461221072293806, 1.2863626132150794, 0.032806832263658936
-0.17804310588400743, 1.2710865143987449, 0.03092914040166722
-0.15018107373415507, 1.4182899463506775, 0.007207488903142179
-0.15437095174851745, 1.390573078118639, 0.024288195212209932
-0.1711709412553563, 1.3118641163533595, 0.02052886931341327
-0.1641984568870017, 1.3468804005369068, 0.01882016642120453
-0.17183731438344818, 1.308719980647555, 0.020410552292861248
-0.17049603719781525, 1.317531651698137, 0.01719422432128268
-0.16893125484517016, 1.32429388872846, 0.018335758238518313
-0.15673001796074165, 1.3805770501459602, 0.0222907626816141
-0.16414955518749488, 1.3466994590986108, 0.01940155599956369
-0.15474892447252114, 1.3914492805868635, 0.020521156332679973
-0.1647208523632375, 1.3433349100904064, 0.020230823162193136
-0.15960780454728052, 1.3697972363053421, 0.01788676720702205
-0.16215439351994115, 1.3554026471928922, 0.020744292448554146
-0.15205840881628538, 1.4094242325912023, 0.011019033329599867
-0.15999406342819564, 1.371527214798994, 0.007139990972570899
-0.1665799823825434, 1.340413700969586, 0.002515456458387786
-0.16617645318171248, 1.3429570810675897, 0.00014875918355939074
-0.15778264500842537, 1.3814811149127255, 0.01074538739689481
-0.17669731220182472, 1.2911907222090087, 0.001344442901822759
-0.17126153804176852, 1.3178604562213019, 0.0010436905091758897
-0.15992690818248734, 1.3730049342852624, 0.002359452338119747
-0.16715637198855038, 1.3368426377768554, 0.005638763818370167
-0.157165940190274, 1.3852775054557374, 0.007505331438616613
-0.16460487518723493, 1.3503652827628847, 0.0013202013660830226
-0.1562299195588484, 1.3908937929126384, 0.0031941489297659556
-0.16403894064563085, 1.3510890913854168, 0.00982911914000366
-0.1783555454739087, 1.2826027721733215, 0.003317040928476179
-0.17941001924295263, 1.2744242124743987, 0.015876787270722892
-0.1775526156299381, 1.2843717535391717, 0.012302282968504538
-0.1692308229368194, 1.3245779516803724, 0.014434879684687704
-0.1639726791906274, 1.350951458096998, 0.011750544879216271
-0.1658187639852688, 1.3414591652110561, 0.013661509298256313
-0.1759151167252481, 1.2924603350924295, 0.011985085838281033
-0.1675343933880701, 1.3340552815920477, 0.009539742459897629
-0.16653017259943503, 1.337707262142343, 0.014788759342634888
-0.17440027238293687, 1.3014365181904763, 0.005478449970662842
-0.16939271393804603, 1.3240669942216043, 0.013265096393958868
-0.1715469918349846, 1.3151969785699857, 0.00631356640818225
-0.16441604158903383, 1.3483699858298697, 0.01346492473277874
-0.17651069076795473, 1.2883990959682747, 0.016757212775232875
-0.16471204030545367, 1.3485512809680258, -0.006685642885742724
-0.17508659258253367, 1.2986926696044705, -0.002922896091905638
-0.15301833707632403, 1.407367371684553, -3.598101019105689e-05
-0.17889444739509586, 1.2782249640198007, -0.010560027362245736
-0.17823830535081098, 1.28305248999266, -0.0038328890142606377
-0.17900911275332432, 1.2782390234398187, -0.008167373149630872
-0.16739381499868045, 1.3349474652651478, -0.008690034722836143
-0.1771536847038379, 1.2868268232866023, -0.01020954950677373
-0.17894781523935635, 1.28007673619969, -0.0017697995404536296
-0.18021354222286412, 1.2736959186517165, -0.0025501374059471063
-0.18128097453290729, 1.268399991408952, -0.0028535959273983842
-0.16382601728915924, 1.3536004433521465, -0.003715967108062991
-0.16772803381955936, 1.334922546507593, -0.001990241979694101
-0.16657271377989788, 1.3401381259251315, -0.0038101210793011885
-0.16831911441402553, 1.332085784074907, -0.0017596953669896487
-0.1616546153807773, 1.363435913192359, -0.0069995561875856515
-0.1513519557208456, 1.4132311971075113, -0.00956206571398565
-0.16239200311298232, 1.3586825441267063, -0.011764206955472806
-0.1640919479601476, 1.3494683236461007, -0.015493096765886224
-0.15677810255872088, 1.3856537032416443, -0.01383529347242585
-0.16183785301230433, 1.360448343484168, -0.01569835931721372
-0.15481707216799875, 1.396018271620744, -0.010635376022818246
-0.150956760324567, 1.4150632528078275, -0.009984937870118985
-0.155031089615296, 1.394625467170356, -0.012073166638214047
-0.1549714232499766, 1.3964617225296394, -0.005648619294414757
-0.15213566897195815, 1.4103920656392823, -0.005420205858054725
-0.16018295343069286, 1.3689424924372444, -0.014048145966111536
-0.1661008222308702, 1.3402719998092336, -0.012859040749538864
-0.1785577548259078, 1.268691295747535, -0.030791854305068894
-0.1675745196415478, 1.3280219571828364, -0.02229604312828782
-0.1625818324307551, 1.3526831274218438, -0.021646281692270893
-0.1673937496649512, 1.3288098279059084, -0.02241864037816627
-0.16523751708049084, 1.3412904342352123, -0.019592175003471584
-0.17392292185796546, 1.2929581592827788, -0.028278151923405548
-0.16859989865998157, 1.3209289719018356, -0.025251045358059547
-0.16990958639355513, 1.3195616862163142, -0.018323859159822334
-0.1592144732713587, 1.3727437886686866, -0.01643943782240485
-0.17882420874702457, 1.275427518997305, -0.0196242099813528
-0.1726480226740893, 1.3069186367169514, -0.01745135422590676
-0.1739115708527942, 1.2939691893854055, -0.026948145808562012
-0.17231589387801904, 1.304827027434079, -0.022600233774312917
-0.17599117098490694, 1.2820671878636198, -0.029486287021622072
-0.15019389739779565, 1.4185014249188288, -0.004225538519197213
-0.16363646971545265, 1.341961415080499, -0.029452158466289634
-0.15782525534810138, 1.370716127739299, -0.0286255910586967
-0.15198908519155296, 1.4067976064982752, -0.01777460919436538
-0.1689678643257582, 1.3151249633366082, -0.030844781390534
-0.15156446998388715, 1.4018596392483933, -0.027506570484678253
-0.14904728266496892, 1.414677536062798, -0.026644245525639473
-0.1563726581239406, 1.383044207979672, -0.021267864517056517
-0.15389248202964123, 1.39766390664376, -0.017649451005842906
-0.14889434537544416, 1.4165434027309507, -0.02507954901139916
-0.16555716921794097, 1.3340352594930769, -0.027530477798106336
-0.1525042209130362, 1.396086169404457, -0.029203126666485488
-0.17570764831725907, 1.280157149973341, -0.03405487615114418
-0.16690838138987554, 1.3228301832012712, -0.033688886435120025
-0.17402580305676718, 1.273270920366841, -0.04690910189945789
-0.170900745890245, 1.3003555570686538, -0.03663131186168336
-0.1770075176330342, 1.2722032513637505, -0.035902325647675835
-0.17333952575916342, 1.2743654544960432, -0.04872936953796864
-0.16229183997295166, 1.34341292781752, -0.034827693278873514
-0.16644070241034364, 1.3193776358450655, -0.038456454762764894
-0.1657906673978694, 1.328166541897314, -0.03366800150154519
-0.15690162627768306, 1.3710918317981546, -0.03309371118207793
-0.16949816513004584, 1.298318875239127, -0.043941766594359624
-0.16212052618112138, 1.3412404613266895, -0.037336705842071376
-0.15050985652311932, 1.4046000365245848, -0.030460993622194413
-0.1521405228978271, 1.3940737258525975, -0.03279412157958565
-0.16020841206288344, 1.3539322410313432, -0.03430797712850085
-0.16894927687938094, 1.3033808572675432, -0.04188049562776655
-0.14897892639072674, 1.3961592208720124, -0.043663906132044406
-0.14736186555987157, 1.4086504512880684, -0.039625744287241596
-0.15699990827879204, 1.3642383289557989, -0.038458962163246325
-0.1570871132153577, 1.3608935190150122, -0.04092078118692079
-0.16496055445899707, 1.316559974597394, -0.04673266889767706
-0.16498683916202025, 1.3149738228137149, -0.04796025385750672
-0.1570629774425473, 1.3569949055576145, -0.04429234514066481
-0.14878932594128638, 1.3954919075086138, -0.044981440544631185
-0.14749122122754937, 1.4164043330550513, -0.03259532454715215
-0.15042478321423844, 1.399181047517664, -0.03535309939708273
-0.16910553982097526, 1.2945449328072618, -0.04867970536383327
-0.15496197498985614, 1.372342347831436, -0.039786694808334445
-0.16352174639380312, 1.296014226398796, -0.06412486339096334
-0.15479974434663443, 1.3616768543119229, -0.048715256735490965
-0.16014470044054843, 1.3186087069609425, -0.05987273944607729
-0.15957453681840636, 1.334391538300229, -0.051903190438517266
-0.15680900918720633, 1.3485622531059862, -0.05104607166460191
-0.16174384569269065, 1.3157396974160052, -0.05714180708842489
-0.17182968367724719, 1.2699845339807379, -0.0566775279759197
-0.1459712181696411, 1.4090519724938766, -0.04468403399834763
-0.17165719904405935, 1.2679838948222517, -0.05837180623661006
-0.1599412595225701, 1.3285068770466053, -0.05444387235087624
-0.16600919039157047, 1.2847955668961015, -0.06397047966433676
-0.16529973850176188, 1.2977889842638801, -0.05808036156159953
-0.15927286738129975, 1.3332157753271174, -0.053458711153715026
-0.15524535985771526, 1.3616319650599058, -0.04749704510300813
-0.15398421683995106, 1.3621927495724937, -0.050681912692724
-0.14600057301505565, 1.4040288325899788, -0.04764559367364136
-0.14262796037455616, 1.4017686070441837, -0.058440957764789865
-0.14609982745091138, 1.3913249560157326, -0.05506568538876101
-0.15420441619481073, 1.3492783131370611, -0.05789155423877236
-0.1578703433854419, 1.3238189645950147, -0.0630721792691434
-0.14363433625269859, 1.4052832712571415, -0.05349872162832837
-0.16462675361115467, 1.2865194029505793, -0.06678963307248323
-0.1537452777718834, 1.3499110687373292, -0.058791367769352426
-0.15188385012982591, 1.3583429177827224, -0.05888473108380787
-0.14778883336362786, 1.3778750475958397, -0.05849473602565675
-0.1483732667387026, 1.3753138756656216, -0.05841320482335023
-0.1452155242550502, 1.3960676317262075, -0.05466349024352317
-0.1421452414309921, 1.4131518074141611, -0.05289280122260894
-0.14791623432055878, 1.3641815831649706, -0.0653401194510215
-0.15054244726123336, 1.3487456382850858, -0.06715700166102959
-0.15917983619179174, 1.2927439336540378, -0.07563152468692397
-0.1595087487545554, 1.2975617545366973, -0.07263593831902798
-0.14274374100854223, 1.3970154638707903, -0.060600643763087145
-0.14693889460375406, 1.377783866303333, -0.060912428635398086
-0.1558565712936509, 1.3047680231480967, -0.07691734769892575
-0.1607691459637869, 1.2697859076386377, -0.08323200106165272
-0.16047207236708738, 1.2862846772140877, -0.07598314690522463
-0.15270208983674086, 1.332708115244809, -0.070247573677207
-0.1587411433269212, 1.2792271985140473, -0.08301232129489594
-0.15358761469601365, 1.3368183589022489, -0.06641294642293755
-0.15979390581478048, 1.2996880121896548, -0.07101789099499455
-0.16349006257038404, 1.2688930112960355, -0.0779054005144903
-0.1559700823513961, 1.3077003170752304, -0.07527739154256073
-0.13997106723993513, 1.4002126060803715, -0.06493654981343654
-0.1441255536682792, 1.3566430661898026, -0.07695390093504167
-0.15008831238729833, 1.329461098184996, -0.07732414234606658
-0.14251186144476724, 1.3949022425480229, -0.06209982089866321
-0.14468928600622488, 1.3753412909301315, -0.06683497267394774
-0.13717942610516617, 1.3953481960817367, -0.07316135069226398
-0.13945912490938273, 1.3858478205245972, -0.07287708059011772
-0.1494473533842556, 1.3403188860904875, -0.07349553872446715
-0.15075703772620147, 1.3256760216068721, -0.07771734190811817
-0.14797777807538942, 1.3455761812758888, -0.0740927113538366
-0.1355014797287655, 1.404658362921377, -0.07226413816794909
-0.14103211939826826, 1.401018732479696, -0.06230828716016854
-0.15342341925383346, 1.2787256718410585, -0.09239270279848068
-0.15198861555741622, 1.3101570468443842, -0.08230660011751675
-0.15179525270953087, 1.3112584946727113, -0.08219187208492061
-0.1573444485439619, 1.2781924948435972, -0.08606258940341915
-0.1484679794643173, 1.328005763735622, -0.0810935161951207
-0.15058680174631184, 1.285084402975802, -0.09460053961712817
-0.14018905521786265, 1.362684368154628, -0.08113676592550087
-0.15609848057407566, 1.2717760467210808, -0.09068902113298984
-0.15309480430183423, 1.2714667389851204, -0.09582314131022461
-0.15499217459050718, 1.275792515561499, -0.09094002245259483
-0.13998861527842582, 1.3659993354241242, -0.0801549610315838
-0.1587809521056782, 1.2708679449715945, -0.08657417220577081
-0.1493006699129295, 1.322290455004672, -0.08197354200696746
-0.14764396598060758, 1.3246336540194452, -0.08380719928123274
-0.15099644485901276, 1.3051961714554878, -0.08593165926267415
-0.1401455021085395, 1.3527163736148813, -0.08516725203197408
-0.1393783653373457, 1.3419435498212282, -0.0907245222281369
-0.12990034690793684, 1.3969596987596913, -0.08469325776378502
-0.13756110680768482, 1.3751518373688987, -0.08057097052693174
-0.13857216331346375, 1.3528624341149507, -0.08773420756727755
-0.14118460741630048, 1.3257152957019043, -0.09415447789482309
-0.13752161825772952, 1.3626243966078806, -0.08561091285232125
-0.13770552953552193, 1.3631770945716122, -0.08508462587411898
-0.1408399649506904, 1.3356863779300778, -0.09077042774373105
-0.1330681843991554, 1.4022266081300196, -0.07731681309876058
-0.13739848678388727, 1.3620808289071695, -0.08603216995852445
-0.13610919320468484, 1.358692956524465, -0.08952838529853523
-0.13914742013666467, 1.3236161237402506, -0.09764558447866259
-0.14650613164329218, 1.2858033114496588, -0.10068071346575612
-0.14774197739480188, 1.2697036360251928, -0.10453120064976264
-0.1410080077810855, 1.2794607282625352, -0.11026748642719843
-0.1360069751099119, 1.312657161896118, -0.10563527242298536
-0.1416229102678821, 1.3226699182890078, -0.09463199996180931
-0.14253211717887687, 1.3051375766751818, -0.09941383760485678
-0.14460635893535717, 1.2870738013904282, -0.10280690967661636
-0.1427100718158226, 1.2994436702474745, -0.10112500974673422
-0.13764557494292212, 1.315727375989065, -0.10237380956069432
-0.13180930069464414, 1.3739122689613674, -0.09030505784001186
-0.13890027640498098, 1.2980898977246227, -0.10672582775971796
-0.14187291816402708, 1.3141452593041252, -0.09721602623169417
-0.13753959967932897, 1.3390952491215855, -0.09450929040263806
-0.14105439555848026, 1.283596112526519, -0.10878787786840752
-0.13294245682970354, 1.3352785285860784, -0.1020156960231365
-0.13178196485599059, 1.327891890526561, -0.10611159745570664
-0.126619135232797, 1.4049384035170378, -0.08667155101018974
-0.1284685499505482, 1.3758389890491534, -0.09414932013313239
-0.13007628955566441, 1.3643799876057126, -0.09590815856094499
