-0.07613223013568575, 0.49096290293958633, -0.283878660173541
-0.08695450668612173, 0.48853038987511, -0.28350328085980314
-0.0769272340333211, 0.49262891057319963, -0.28408743258164293
-0.06325804213900826, 0.49332795182594213, -0.2856463823514194
-0.0554203994586709, 0.48451004010060617, -0.28517177531630356
-0.06031338553212616, 0.5079571579640342, -0.28692732527090514
-0.05306604629323336, 0.5062971967620691, -0.2876804961637342
-0.029129015996407166, 0.496775071288314, -0.28824425490198435
-0.045696309438059586, 0.4877573523342386, -0.2860981773999555
-0.03173641084281453, 0.4912319434477759, -0.2873963934708681
-0.0526829976647611, 0.5002164988376603, -0.28732243036009514
-0.02208003806562344, 0.5037372160462497, -0.28932718460754514
-0.04112225995702935, 0.495935935071917, -0.28726867096497
-0.01986403404896505, 0.49803875802194864, -0.288909462620415
-0.03510870624378277, 0.5058112878196522, -0.28842560193521244
-0.14293692563153418, 0.43610235471670844, -0.2818296085350376
-0.13988844131131373, 0.43788435310499274, -0.2811773875606311
-0.10859256548118232, 0.45552457354816844, -0.2734147742203582
-0.130893935780444, 0.44184394767474827, -0.2794566388367059
-0.12405595628286337, 0.4504596246517042, -0.2783353220909672
-0.15030219781521598, 0.43493195864007084, -0.2820235443443791
-0.14978171519388508, 0.4602884901855596, -0.28263281917810007
-0.15379333176693125, 0.4516965241746561, -0.28228485330996955
-0.1648783361025488, 0.44464727787312486, -0.28237193842007785
-0.1430694925608753, 0.5306977621077034, -0.28739919615057485
-0.12049828607590313, 0.5304918447576743, -0.28841872264927704
-0.1307752851441094, 0.5137070173346934, -0.28792478725677983
-0.14269435756568266, 0.5255369771970607, -0.2877211253864199
-0.15228683144760288, 0.5143961312103507, -0.28712111632396703
-0.15649224835225098, 0.5721807416537827, -0.263071928487004
-0.13078428351612928, 0.5749958395755276, -0.25702176401803933
-0.12713397439291363, 0.576535247273898, -0.25030566778810276
-0.1543281316984424, 0.5645629359250564, -0.2745229623304397
-0.12746253312846997, 0.5641248016027458, -0.27670494802097617
-0.16072584007634744, 0.5549807761325756, -0.2806921752006912
-0.14957861373782236, 0.5508820376571503, -0.2831240191069754
-0.11505868606415487, 0.5389631113525932, -0.2879559074459077
-0.1590767305928262, 0.5428268832353347, -0.28489124727931914
-0.11894615954023632, 0.5499244964811221, -0.28531176190237617
-0.04780848688650635, 0.5691429985714082, -0.26830603063968617
-0.05267818723773404, 0.5745086042667731, -0.2541831861071777
-0.06342561710540408, 0.5500876695624147, -0.2814793924603215
-0.04243225241641436, 0.5582153315974825, -0.2761629355775578
-0.05033519708493209, 0.5629710604004442, -0.275318066860287
-0.04976149402845598, 0.549963723498384, -0.28239971462301083
-0.028822604086151792, 0.5583651683694527, -0.2787829953438258
-0.008460610740846426, 0.5651520773607226, -0.2733330590134153
-0.03053276997587927, 0.5639775778168452, -0.2743265926810125
-0.0405635637415067, 0.5600709047462774, -0.2740616755135933
-0.040281458484363326, 0.5726235354872253, -0.2554223328914302
-0.029864331709465796, 0.5747191693152578, -0.2569415111590863
-0.04013785581532832, 0.5687070031066366, -0.2646866079958135
-0.05214604463129251, 0.5118080427725515, -0.28780459891104954
-0.02660186766034702, 0.5251096499619052, -0.28885170425923246
-0.05066975142261661, 0.520794345808246, -0.2876716819636594
-0.013631165598480073, 0.5111084489018409, -0.2900611240349725
-0.044672012862473076, 0.5268092938595409, -0.28727180702012245
-0.022891211931547844, 0.5283974133487992, -0.28883153690217445
-0.014808639904955496, 0.5394582287284347, -0.28720924848204477
-0.03715863593162466, 0.5436010185173956, -0.2845754349968299
-0.05057613448580394, 0.5214850376002786, -0.2876490066582895
-0.03652557830221694, 0.52609961705478, -0.287792782808487
-0.03207383703331901, 0.538318334178479, -0.28626531362906094
-0.042739132582270176, 0.5450743998355889, -0.28388493790318503
-0.06544957636583049, 0.5346928293623936, -0.284460312354337
-0.03586415913606222, 0.5456752006703245, -0.28397338758573387
-0.011592944550288262, 0.47916015768709297, -0.28613612888507467
-0.06610182511984222, 0.47084963434427074, -0.27969205297828204
-0.05017175415866312, 0.47423306410184773, -0.28305628647913905
-0.05070656415892702, 0.4678547926471897, -0.2809212366298916
-0.06437813725929965, 0.46082358002237855, -0.2756779624679947
-0.03217732914573687, 0.4697698325635381, -0.28312358971100504
-0.0402745523982987, 0.46217535043738367, -0.2804967034860842
-0.02897270889529957, 0.46429443309064267, -0.28168218345940205
-0.01378432546834996, 0.46281809615307157, -0.2815024620506214
-0.01391548776667596, 0.45636581721785774, -0.2796352496980393
-0.021388392073503154, 0.4452006506282502, -0.2787885543836649
-0.02803038745240694, 0.44810889056694514, -0.27837620547799474
-0.026309057210472074, 0.4502094526934963, -0.2785149497394859
-0.17893811113933222, 0.46889663552785765, -0.28146138583994174
-0.17151325796163816, 0.4357308173736817, -0.28132122931507847
-0.1566945571706137, 0.43992585550372937, -0.2821061861297715
-0.14505971640855694, 0.45136464503836415, -0.2820909969620222
-0.1769152447846442, 0.4537112482665969, -0.2809495581734046
-0.18276199175064073, 0.43897813531761504, -0.27964559325342453
-0.1862741500408392, 0.44767292993022445, -0.27913720303450873
-0.1672185456130638, 0.5190289086969325, -0.28625889884104955
-0.1537530355320894, 0.5035939318256213, -0.28646779703372854
-0.16160600547019693, 0.5126682271529739, -0.2865541036508549
-0.1608992750580178, 0.5165869718307009, -0.2867658442394358
-0.17233928360490852, 0.5172422960724776, -0.28575009219969416
-0.18471166386560714, 0.5305363655122555, -0.2841968574661742
-0.1817440268407557, 0.510016682268867, -0.2844007253230689
-0.18540455066563669, 0.5112555301506079, -0.28377378053028024
-0.15228325037618484, 0.5657518102610865, -0.2733349721197564
-0.14243135486145708, 0.5604242314033926, -0.2789477269118802
-0.14250136812424893, 0.5581729381358407, -0.280241021285481
-0.1748830987405976, 0.545501610118214, -0.283192197414085
-0.15824710328373373, 0.530694581946792, -0.28656104313647524
-0.13973942490094593, 0.5419275285414, -0.2861379800895014
-0.16229925717481788, 0.5344774305226556, -0.2859966158288018
-0.16013169136147817, 0.5737837264019575, -0.25913550682159714
-0.18131814477147634, 0.5741945017340049, -0.25510110590285917
-0.15706466357165116, 0.5759089553738318, -0.2523026272944071
-0.18776856670482603, 0.5713999190930314, -0.26121669884021587
-0.18068163040044163, 0.575102941319108, -0.25198278305171806
-0.18409517207888723, 0.5633432977811237, -0.27336683424112795
-0.16933263079842747, 0.5595747300300598, -0.27767028601327903
-0.1730600072215001, 0.5537883694063015, -0.2805983644913101
-0.18844196677863295, 0.5503973989004736, -0.2801226611630138
-0.16936437022288403, 0.5340183985761677, -0.2855801824573735
-0.1892912210952624, 0.5402533269065055, -0.2823541305777287
-0.060373652785876177, 0.4460825534192448, -0.27394954129778976
-0.07985783431227314, 0.4477144261035893, -0.26779573668937623
-0.09234954431864847, 0.4710229544156347, -0.2748595821767449
-0.08571841485620989, 0.472536295530408, -0.2770413793765523
-0.13962594502699732, 0.4531396406461714, -0.28122991693471816
-0.1362694885372201, 0.4461687438898433, -0.2805245019664871
-0.12386171015996175, 0.47048820943640374, -0.28085811086648077
-0.14041222211521273, 0.467853044733533, -0.28266697057293083
-0.10910971741071834, 0.47562641506486397, -0.2789578862837951
-0.11275436234282009, 0.4602805683563397, -0.27599238167702833
-0.09107161121954625, 0.48218248500793154, -0.28078032067085945
-0.11488155711398204, 0.4543459940159273, -0.27606395903279946
-0.09508966812564279, 0.47263411936273836, -0.2757344989114451
-0.09587339151499194, 0.4447255855175306, -0.2677787473932833
-0.08951183621171863, 0.4502968123951773, -0.26654968916837996
-0.07084856081127877, 0.47038554019824536, -0.27854152818456673
-0.08435355760076642, 0.47008601654512383, -0.2758500489102305
-0.08329894183145548, 0.4521016448313934, -0.26708668476262754
-0.0773412984126833, 0.465222594149864, -0.2746042236173925
-0.05810445765560109, 0.45246736429808143, -0.27471544872264536
-0.07424040068325288, 0.44838124878210034, -0.2695334152786842
-0.19724961921396877, 0.4501444764565161, -0.27654728829268344
-0.1937356610833218, 0.4546395990855249, -0.2775429275101575
-0.19269485730463903, 0.43058870360347923, -0.2773370973548782
-0.2049278497759785, 0.4529112249582103, -0.2739159997180679
-0.1999565343489069, 0.46264038957464926, -0.27628060995047243
-0.21068821226060386, 0.44207069045418856, -0.27163036537649704
-0.19910553070442216, 0.4206085859468976, -0.2759024587687319
-0.21255593452124466, 0.4569155281915605, -0.2712955854203897
-0.2168747520698054, 0.44224334147644506, -0.268697380141096
-0.21753716774854284, 0.4391016140775883, -0.26824537941559945
-0.22322772855302533, 0.43757827798919186, -0.2641997248116168
-0.2254587014930426, 0.44916481170451594, -0.26248576158704373
-0.23323504215389018, 0.4325341328250811, -0.2422044352633785
-0.23094844809531712, 0.43596330167372954, -0.25002849617517814
-0.0899647321310387, 0.5730895448529306, -0.25070509219478676
-0.08259402100176486, 0.5725528530937505, -0.25381830986806786
-0.06458204687316113, 0.572961214021803, -0.25948464416530725
-0.064821207007862, 0.5745496714520825, -0.25411993437898484
-0.13781674942229524, 0.5724213940697993, -0.26378053552545355
-0.11982369759871644, 0.5742038484740394, -0.25795689070930206
-0.14141319063720756, 0.5755966077424971, -0.2548013292769602
-0.11112289126883448, 0.5711337703772768, -0.26339908651237104
-0.11002927108272315, 0.5725829299771868, -0.25974982948772835
-0.1348565713342988, 0.5653329117507022, -0.2751262536154171
-0.13626652598510805, 0.5589193060307289, -0.2802326029875418
-0.11691536738986244, 0.5648619788639907, -0.27530756682275415
-0.1369588613515344, 0.5456785123187964, -0.28548762579337367
-0.11455533162556375, 0.5532763586606877, -0.2836717322274091
-0.0810384376813161, 0.5636769104748517, -0.27195517035717
-0.08154228952953171, 0.5566800027036021, -0.27868361327731445
-0.08780764240157969, 0.5631908415177858, -0.27494728776749333
-0.09251629016917062, 0.5624932713625925, -0.2759097171973705
-0.1044238937962345, 0.5490800875240069, -0.283453792544744
-0.07260464653563622, 0.5510020692300968, -0.28052693981330407
-0.07175987557063865, 0.5545006574913526, -0.279092425637181
-0.20593798496799115, 0.5588243677383382, -0.27268708626445637
-0.18906168124433714, 0.5455637191990259, -0.28131927606058077
-0.18922101132037664, 0.5597630058445853, -0.2751904406741048
-0.20219186384354101, 0.5468424036853528, -0.27804498820123746
-0.20839297371450116, 0.555483918791137, -0.27390996160491515
-0.18977439130969176, 0.5727272332496083, -0.25697319718583445
-0.19403922747620242, 0.5737483256950491, -0.2506021196358267
-0.21444336081952273, 0.5683327433244457, -0.2412653945601612
-0.2187356834491326, 0.5524508027538756, -0.271493284685968
-0.22938835997433235, 0.5613174498936684, -0.24283068126999416
-0.07262997097221463, 0.5425920581945891, -0.282696867728506
-0.06881854968554127, 0.5468555730131196, -0.2818335515445593
-0.10483339814931564, 0.5443135114743753, -0.2846054865660077
-0.1370997598727105, 0.5382429785831001, -0.2868833757980824
-0.09483296074540172, 0.5465007833191313, -0.2848061019834673
-0.09981821134124591, 0.5238537574013438, -0.2867378575929702
-0.12941605697630434, 0.5332889643092644, -0.28786558543643387
-0.10605166372847008, 0.5348265038081026, -0.28627660168171043
-0.09601940935399703, 0.5429978806069655, -0.2854098817210301
-0.12823677126805427, 0.5163273146065606, -0.28812766908822635
-0.11713787710091075, 0.5224521306662095, -0.28865917339693103
-0.10517408598018155, 0.5261282959071784, -0.2863664762064431
-0.06254555904297887, 0.5302858616575861, -0.28545488887946663
-0.07248196371047225, 0.5236562974424765, -0.2848566475823433
-0.0772647354846892, 0.5295886738626785, -0.28450849657086846
-0.08496461028902823, 0.5315401536743023, -0.2863701373536365
-0.0913106768433059, 0.5344903465522065, -0.2866445882495252
-0.09934512152671865, 0.5279277856765077, -0.28671908070302116
-0.08288857582954741, 0.509779976397355, -0.2865174454156773
-0.06613147997064259, 0.5168519849353853, -0.2856310848505359
-0.06686234062690996, 0.5168846246970014, -0.2855350340237503
-0.19410270006380226, 0.5053017359194912, -0.2815814713325317
-0.19300266672330818, 0.5116457936994463, -0.28226617274466403
-0.19869467517764014, 0.512672840037732, -0.28092983215938816
-0.21315966191643904, 0.5145811782424701, -0.2757333954500463
-0.19117257631014656, 0.5365672041991897, -0.2824988294089199
-0.19377903841880234, 0.5285708032517249, -0.2825794959033749
-0.2028465316693009, 0.5315139325661513, -0.27984964651114846
-0.20538397826916843, 0.5400155433377309, -0.27830541702788114
-0.21431922924308422, 0.5351770563671292, -0.2754864953419546
-0.2106065481224829, 0.5328539590908579, -0.27724634276157056
-0.21365073398099874, 0.5291336500785763, -0.276053568803897
-0.22391514944835048, 0.5325533225165897, -0.2700934812112981
-0.23049191191168805, 0.5444977420502557, -0.26224272127272186
-0.23822604660910535, 0.5454681805905044, -0.24012168858329042
-0.22055156035661605, 0.5156745510892226, -0.2716179455434503
-0.22453812088357766, 0.5080645107668605, -0.26875941539667253
-0.227018274171556, 0.5363726657901853, -0.267548680213914
-0.23482082196289011, 0.5441652872517333, -0.25462956149644816
-0.228078599909499, 0.5413005854068383, -0.2658168673780264
-0.24022609210706436, 0.5270663541265754, -0.24027104547633252
-0.23042189938733393, 0.5194264562368154, -0.26252441937246196
-0.23966590964381396, 0.5175358014608769, -0.2411837363971615
0.22168179184142742, 0.352398741540223, -0.23260965636289055
0.2119723239546368, 0.32945875366512034, -0.24086151368675168
0.2118827838131021, 0.426924388529293, -0.24087449429882804
0.21322294759752508, 0.4102996227414002, -0.24282712183418148
0.21491947215471202, 0.38675917386835007, -0.24685918289190628
0.21854296593106823, 0.36663139737724276, -0.24339935554358577
0.21919096878809094, 0.3417678551851844, -0.23657795054222822
0.2120664048564358, 0.41840615392690383, -0.2284972326046525
0.21507878744713582, 0.4066737264046464, -0.23509441467385686
0.21608749785009432, 0.38628032761256514, -0.22619144852372064
0.21868814485188415, 0.3685624105110209, -0.22561223342732536
0.2198369396333242, 0.3502171351991483, -0.22172181848353864
0.2168798380417964, 0.3367046032846299, -0.2272841401831279
0.20498583001954596, 0.34774230798215094, -0.1972510230999232
0.15443574742245278, 0.3246176762594768, -0.2319131242131423
0.10019380757769412, 0.3238984666434496, -0.23363063355943808
-9.544909134827449e-05, 0.3247358609383736, -0.23703290030383434
0.2075387410034698, 0.3263686476384562, -0.2416534581880011
0.20874292660583083, 0.32775059165123915, -0.22749466124744153
0.2021188106211901, 0.3357763380203907, -0.19905651024826054
0.01132732444338014, 0.32481985965411053, -0.23483001104216505
-0.002830811201035484, 0.3259046475769309, -0.22975720052658619
0.07661379288361386, 0.32452506120580416, -0.2340566659914793
0.08927706402728317, 0.3244654581695632, -0.23167854954309702
0.10217704306825524, 0.32460499929940084, -0.22869678651451586
0.12248745380559262, 0.3244523866135115, -0.23066327560058808
0.13871888650253467, 0.32453015203567454, -0.2315061377356979
0.19911736662321192, 0.3252602654521529, -0.22953586341441684
0.2050732916796935, 0.32661908992961153, -0.2258144834188292
0.204044226005103, 0.32715982374088637, -0.21634784317748051
0.20676759201314981, 0.3431784109906963, -0.19949091718870265
0.20961134388249186, 0.3331607800314307, -0.20813901590229705
0.21566202926547934, 0.34008840905010496, -0.214544026997617
0.008162055588823066, 0.3255608200373537, -0.24566263849199302
0.06008361194952508, 0.32614174432779824, -0.24594869369043998
0.084127327620367, 0.32473718202771573, -0.24134216356179106
0.10928364479374172, 0.324483525008378, -0.24317229008604355
0.12692139977861383, 0.3245081933954568, -0.2397822113922346
0.13727799677011218, 0.324358238895745, -0.235693947710713
0.1571488850764285, 0.3244729999025708, -0.23452620417968414
0.1875743204531649, 0.32403079452500755, -0.23577312557837035
0.20621259284495616, 0.3266851438785308, -0.23319307067459893
0.20147842736449642, 0.3258219311521192, -0.2505339402544785
0.20768665020783894, 0.33646721986873657, -0.26033210885886143
0.2110307223096962, 0.3287187809180041, -0.23727022259632402
0.1903838229625811, 0.33236001039807433, -0.2015501842039728
0.1621904558388297, 0.3349028462810757, -0.20238465695236585
0.16874097878724262, 0.3336597586983457, -0.20349201342146658
0.1433724598752997, 0.3333227048159843, -0.20598739441089647
0.09868607119445448, 0.3337664643696755, -0.20621619091304683
0.11067210338939663, 0.3309601781081804, -0.2098313587571793
0.08429513442740177, 0.332478355239314, -0.20949421144413277
0.058261760865793225, 0.33498306654361826, -0.20997763401176922
0.002952277251810501, 0.3328308200145118, -0.2125127801978847
0.006681952429924706, 0.33477432415356867, -0.20944499402714062
0.19450103229491275, 0.4250642018105984, -0.2026403025221946
0.19156892312133236, 0.40952132591476875, -0.19628283667740334
0.20095492730199405, 0.4209764725162196, -0.20824618846278597
0.2004584223871774, 0.4086799519236032, -0.2020470232494188
0.20875459511496247, 0.4033392161191499, -0.21123316777443657
0.2136782641726225, 0.39814492340501617, -0.21987187789534632
0.21034297104056063, 0.4294790185971197, -0.22589226507028715
0.20865982786142057, 0.4200095788259265, -0.21905169170221092
0.15483788260131434, 0.43196113201447045, -0.19824839729083382
0.17052698197070645, 0.43532870120934797, -0.1997534807420283
0.17436236017793288, 0.4397729371268395, -0.2010441548578215
0.16642351553643026, 0.40965911316081227, -0.19284793045410697
0.18137809633743393, 0.42752920330764826, -0.1987263514154805
0.12646406288269424, 0.4393973112124039, -0.20223848968746294
0.15296787925047417, 0.4248602868136907, -0.1966085503368705
0.13830412420510443, 0.42012175694613396, -0.19626917480215347
0.14120421560169974, 0.4129623662024796, -0.19408372440352584
0.11965647162980257, 0.4128441750403922, -0.19742066113248613
0.0954206345989188, 0.4058695333161314, -0.19959124758389674
0.11829897394426726, 0.43844395819712, -0.20345986918307338
0.11483371166586612, 0.4420440888499588, -0.20506147708023942
0.09309655072811573, 0.4117583699381665, -0.2013521591921473
0.08133701942097057, 0.40140705099404433, -0.2014618188720424
0.09400506643373113, 0.4334578528498555, -0.20838105140126081
0.08852927044619185, 0.4077110065539718, -0.20161876065542253
0.07869063613648379, 0.40521797186856423, -0.20354576467271374
0.07814362335386976, 0.412051794311815, -0.20590498247797856
0.07206362368563031, 0.40858810772248794, -0.2072738631980546
0.0679753906780583, 0.4036270995003116, -0.20639404981966375
0.06048025239629746, 0.41151472672077555, -0.20314989246800985
0.03859378935302829, 0.3804450186243058, -0.1886596647279311
0.012581397147887502, 0.3889841665965045, -0.18573960490586475
0.028768519827578304, 0.3902764759740462, -0.18802582688347597
0.04577148969569919, 0.42235134549096326, -0.2010437785549501
0.044479597577171015, 0.4138169848717097, -0.19596304281653812
0.04015198066828747, 0.3883447667816023, -0.1896437153020202
0.030303970879846, 0.42398985072469264, -0.1978948020047802
0.04138131798419894, 0.4052917455792655, -0.19269675130644215
0.04783253956305427, 0.3978783324518437, -0.19332606550850437
-0.0080038900505289, 0.4126831463747269, -0.1897230708036079
-0.022753361225697204, 0.42127548877033383, -0.19349296584147707
-0.00384866605808292, 0.4207710220264491, -0.1930631400625925
-0.0006901877977681206, 0.42051264081923273, -0.19308850792201507
0.00958994899191267, 0.40243111237209805, -0.1874729433592814
0.02515191142920841, 0.40384201855290786, -0.18969102333224053
-0.012677536902394352, 0.3916466290226656, -0.18605329702366175
-0.004426559876731507, 0.40676249629437733, -0.18829990073608946
-0.0011258738529850419, 0.4126110806936294, -0.18992786106493426
0.009428971127122156, 0.3990643337228395, -0.18694098411807808
0.024830390557823715, 0.39052805431867804, -0.1874691520264405
0.12927019522505073, 0.4544921044760945, -0.2031378795399305
0.12496202587500592, 0.4391753377837629, -0.20243836485577948
0.14268635548897757, 0.44165573929464214, -0.20061213496036245
0.1269972059069796, 0.4418461515345818, -0.20268127637204367
0.11216924215018538, 0.40222392764833104, -0.19654130329967376
0.11100146077073336, 0.42100875986010966, -0.20081754441042515
0.11164396579790999, 0.42569073437364335, -0.20176714730076567
0.14325777319664545, 0.3998522057320502, -0.19119203612445823
0.10319614428553964, 0.4071737621223784, -0.19905207538586345
0.11016752251521594, 0.4011170685779985, -0.1967032630702038
0.13454492414448677, 0.3895153295049586, -0.19102303627524603
0.11355354414042229, 0.3821173055370278, -0.1935010189569794
0.11135915633733613, 0.32868565804883415, -0.21460250885542675
0.1441265955697675, 0.32518655035365923, -0.22837277378780804
0.1188742652759244, 0.33047807873242424, -0.21102183606644578
0.13209599035380115, 0.32954016679267745, -0.21332858622057188
0.11410838851593214, 0.36457481744460385, -0.19291475699714447
0.12040266441568362, 0.3559169915207644, -0.19346368191876334
0.12689634300507663, 0.3723990732744256, -0.19111731280426442
0.14352612112614357, 0.33626551017122847, -0.2023022792529971
0.12711872683495629, 0.3627004916171495, -0.1916486285238005
0.11949731844840396, 0.3487453505822605, -0.19540941019443697
0.13302583705423182, 0.34830685534589967, -0.19464761899165972
0.041433168950479896, 0.3302231782626479, -0.21381239660271645
0.05579089268959703, 0.32701622386140416, -0.22929380712009959
0.038868227791154134, 0.3489472564133547, -0.19628254397524164
0.052005490061130984, 0.35577275498483657, -0.19685901451895257
0.0032848497087124826, 0.3457936507919902, -0.19915512946572755
0.005889930767971041, 0.33763822481874683, -0.20592982885609484
-0.009203686124264542, 0.33840950879347326, -0.20516264157802552
0.02113643841559147, 0.3428798819590753, -0.2009091248010687
0.0012859474111743012, 0.34902552023494, -0.1972879206134656
-0.012960760502352134, 0.3477076196673934, -0.1978574333047055
-0.0007587414468624575, 0.35565078002517925, -0.19375836601521368
-0.005932496559621515, 0.33244771001731216, -0.21346840183005106
-9.377602151029122e-05, 0.33025047925513273, -0.21736530771286044
0.002959786353207247, 0.3250536481470848, -0.23345311184641487
0.0018969131908768695, 0.3282915702208893, -0.22199284027626284
0.00233695621591388, 0.38483194370094065, -0.18563954726468768
0.010541641920811138, 0.38339131418043987, -0.1858389357239834
-0.0021565276364062867, 0.400501075410122, -0.18683867373734137
0.0021540378680745746, 0.37496968854916246, -0.18641427400324703
-0.0044646063451636644, 0.376569078590565, -0.18625444478796163
0.0075627194807401914, 0.35715564380291437, -0.19297659219872154
-0.01719454341336301, 0.3640807672977806, -0.18961924812494074
0.004129436823055691, 0.3675908865993486, -0.18864137613651585
0.021861948283946622, 0.35930350096169394, -0.19222153902064276
0.0020233239147875127, 0.3662228866916694, -0.18910393356835126
0.040772808972684024, 0.36876036953226693, -0.18994036595940575
0.04176760086679343, 0.38236613041447814, -0.1897748976744912
0.012525038354805753, 0.4258750378874221, -0.19616467648279
0.017320052163952923, 0.4345168835105716, -0.2016465966184906
-0.005737358263077828, 0.42988939650515634, -0.1974289208382602
0.005183966251741386, 0.4320184696128663, -0.19915725144017912
-0.006044583133433257, 0.43754852790268683, -0.20190896509144968
0.04321796824692358, 0.43039950253920267, -0.20480922203891344
0.04123552101066655, 0.4182803531732562, -0.19698960733706516
0.03381728752191559, 0.4324554999968701, -0.2035794650559774
0.04044300304632312, 0.42809487817793246, -0.20211593824370075
0.03273726063034571, 0.4406072857130462, -0.20868129745031722
0.023251875386268935, 0.4388655588974657, -0.20523667623712655
0.041784582651564255, 0.447226679855337, -0.217230378514198
0.01228147108662521, 0.4439903656038239, -0.2075869790565697
0.000746594420143405, 0.4445722721794225, -0.20759858833925154
0.0030678944202177922, 0.4418986245329687, -0.20521100589206054
0.00957732321529893, 0.4483044152600987, -0.21069025952412382
0.019181078150263643, 0.44676020212680345, -0.21075853146329118
0.16071962308508708, 0.4404067871695827, -0.2002843579760739
0.14506775378191275, 0.4519706288177654, -0.20104796375400844
0.1697847644594005, 0.45315859620437715, -0.20175004056983395
0.1384360734084889, 0.41139938754804095, -0.19412424114638455
0.12913300317469562, 0.4208463804155432, -0.1977781530292976
0.13111381207895015, 0.4008848373899438, -0.19317770775117946
0.15747252526086614, 0.40664605916164565, -0.19207436597546587
0.16902231571230597, 0.4195809427315834, -0.19574641470341458
0.1782082364370957, 0.42343021848862616, -0.197416146853439
0.14556390396840574, 0.41376483875818526, -0.1938250938533276
0.16206662889131665, 0.393953643450432, -0.18918934734839052
0.16421855283310546, 0.3996968382024735, -0.19044976945358527
0.16811046988834136, 0.4049930295081319, -0.19185215210164136
0.15930667595618847, 0.3800082251963681, -0.18783940997597937
0.13297420547479732, 0.3813071211054952, -0.19054096681788693
0.14347185983397343, 0.3755113372000376, -0.188987640117384
0.1450160737367241, 0.38546865874332026, -0.18928006335503988
0.1493784098654662, 0.3884301626376819, -0.1892994963374848
0.14405986961853098, 0.3634577857159334, -0.18971463223164373
0.1550441571127372, 0.37335862546093557, -0.18811127553181312
0.1614752232231202, 0.3372815300242411, -0.19952940968456037
0.16121776272617916, 0.3641095281840395, -0.1879191480377057
0.1444226265624765, 0.3468474493968886, -0.1943844583835989
0.15202300178446995, 0.3468000865628489, -0.19365193451064217
0.16839076312077214, 0.32618588136047016, -0.2214827315064563
0.13083101738999794, 0.32802094904625034, -0.21738568728253416
0.13928626522309168, 0.3307852951353534, -0.21077504230705457
0.15434976524039504, 0.33041466371839856, -0.21122237743229583
0.1884693788849176, 0.3248489025371355, -0.22231093899901988
0.1638117129190303, 0.33113361014666176, -0.20881251951143695
0.17952599472889558, 0.3297611548590904, -0.20906902958964554
0.16991406427393774, 0.3896727536376786, -0.18878755813062886
0.15514049388334156, 0.3706588258510415, -0.18816452022207766
0.167160174643715, 0.36992039751152533, -0.18726665521195396
0.16222603928008467, 0.35789095284079186, -0.18893266147854898
0.17121604037363877, 0.33921766205804393, -0.19638464853304277
0.1653156310637205, 0.3464337838842491, -0.19226871088142844
0.1678569198377304, 0.3576073504367251, -0.18853601715357743
0.1717445919496873, 0.3499961661914449, -0.1902361431220574
0.1521332684492509, 0.3386718338504886, -0.1989951854396378
0.04645041421947293, 0.4181961333338253, -0.19904494597452396
0.05566927921800522, 0.430122887371448, -0.211387317726991
0.06753446172265591, 0.41916393995912427, -0.21449200567270618
0.06709000439993387, 0.4341394025190603, -0.22229963987126727
0.05113494448489349, 0.42807656397960514, -0.20675338674268443
0.08003827044137532, 0.4158010286593828, -0.20673123135203414
0.10531918029584388, 0.4559283954858506, -0.2076062609999107
0.10878656988148444, 0.4553511076575689, -0.2069487612918417
0.08871776513575712, 0.4323404260349055, -0.2114945828533919
0.09266262026033026, 0.4415525991711264, -0.21276254276872364
0.08104380716698427, 0.4400742244508108, -0.2205304339475895
0.07491799904328125, 0.43786261512574864, -0.2218837460781402
0.08072541264834919, 0.43648881095957465, -0.21860809159950714
0.04401241727248985, 0.4411356574173764, -0.21352564405822158
0.06094119361532645, 0.43238627931074525, -0.21707090679722435
0.07259626137117332, 0.4382275730381345, -0.22267526739387744
0.04044162090619367, 0.4445082684495269, -0.21511616978587844
0.17445660668228352, 0.43501119394987914, -0.1999445548109035
0.18208845835502702, 0.4490049739988383, -0.20298719456116668
0.18701928082304303, 0.42922355010694846, -0.20065154353238818
0.21013667625191085, 0.43689426728783265, -0.23439152021565574
0.08539612333643315, 0.32574008406610633, -0.22490966266080425
0.06678310543831886, 0.33261995902618335, -0.2124362567157934
0.07419668902886224, 0.32716388600740737, -0.2246847298407489
0.05912940258165643, 0.3287392046412377, -0.22224657957557686
0.11145756113907558, 0.3290144922171522, -0.2137001022527312
0.11389325706222511, 0.3254703819913185, -0.22408456196182416
0.11082309810089726, 0.32851534480224404, -0.21506698806521424
0.09666239757617094, 0.32521221084159635, -0.22543022432238277
0.0789362964094043, 0.33259227947244363, -0.2103141888616256
0.08786402826831446, 0.3270816664313576, -0.22058162048358051
0.11740522117675191, 0.33672485521789053, -0.20213640998481774
0.10356361799396721, 0.33662535189666454, -0.20273682561500386
0.11846919385186673, 0.34891952899282547, -0.1954048658014628
0.09076456875407607, 0.33757095827748684, -0.20324291303204672
0.11086735114062013, 0.36162767809600693, -0.1936548765457901
0.10192366934256541, 0.362199413782284, -0.194692231220056
0.06641384607643094, 0.3523897342466682, -0.2003723120426163
0.06041970218454659, 0.34850010297034306, -0.19970687147929794
0.08876029634588925, 0.3364107931879495, -0.2043990048007301
0.07735621268879833, 0.3419626960460066, -0.20238573160007808
0.07423752823830874, 0.3405471166890126, -0.2046697108924111
0.0818706924812798, 0.35240694344480517, -0.19845661679247784
0.06655694067669082, 0.3450446750451918, -0.2022122069199368
0.05583143698494096, 0.35678861719445665, -0.19848664534575605
0.17854630295363066, 0.3444352241728951, -0.1919455519800886
0.1863265611171455, 0.36140889893406253, -0.18779880755413064
0.18621114478578887, 0.3475205614290119, -0.19043359676462462
0.20067793188868666, 0.3400320274795427, -0.1965700877826232
0.2012820067754559, 0.3276652293872869, -0.21205880284479395
0.17084273255197693, 0.3291192221870959, -0.21305166233516065
0.19900296688531025, 0.32813337714205254, -0.20954533018882016
0.21138517014169267, 0.3546796157625248, -0.20311753272047128
0.21878394829017073, 0.34678428822011603, -0.2190764798794388
0.052536607933932625, 0.364474874864435, -0.195324038401192
0.07113471000134836, 0.3571834185015307, -0.19993502886950487
0.062237634429623656, 0.3648609747274116, -0.1973035315827347
0.10314593983268736, 0.3759925594492386, -0.1946742005443601
0.10348308756475784, 0.3610508551812093, -0.1946473532774083
0.09415139251699142, 0.36715737976378904, -0.19569166000000546
0.09443105309761733, 0.39823480272943523, -0.19829764344567422
0.09289864739149306, 0.37785103418581933, -0.1961671119687966
0.11175287932970233, 0.38723786182540365, -0.19432527685713255
0.09364541966266804, 0.3637122607860202, -0.19569158561099775
0.10043625062435578, 0.38272450310237954, -0.19569500053407612
0.08296078799933314, 0.37941337821024934, -0.19796521305678455
0.0558958663544091, 0.3721189430254379, -0.195907338167049
0.0895641417259077, 0.3850227105549945, -0.1972017021792605
0.0676590722717125, 0.3783386906655067, -0.2010619100097194
0.0785016825901534, 0.3948367148290172, -0.20085732588805985
0.07244982551278019, 0.3906581339455834, -0.2015295720049605
0.07191417088983044, 0.390473131443394, -0.20170531428242547
0.06035672977189441, 0.36881018796298565, -0.19641024125250697
0.06709367883404349, 0.3768811316697436, -0.2005307707361099
0.0443463213894784, 0.4054648512219655, -0.19366311187741145
0.05632309089241882, 0.4012941417828607, -0.19735959805085554
0.04090657720380214, 0.38850057310813485, -0.18990031142017816
0.0567049635155952, 0.39679539332509167, -0.1968318823423962
0.18181359165130098, 0.40322391477496333, -0.19221612667486504
0.1850833875543667, 0.4178344252400004, -0.19700690699703977
0.1939779474332168, 0.4146270203213172, -0.1991319361857435
0.19941979154539854, 0.4014588106151964, -0.19906043282411806
0.1804567232990732, 0.37882735006830914, -0.18760889052806284
0.19011686778702971, 0.4044505466658687, -0.19442685445057656
0.1785942836109043, 0.3680832745744904, -0.1871418563393039
0.18688490597105717, 0.37002804470056105, -0.18783224938641124
0.17074078088510036, 0.3540895402459449, -0.18899349051170095
0.19873039739302215, 0.37048329314054834, -0.19234203956661688
0.19220146916774022, 0.38315247783919254, -0.19106791484219637
0.1932482448213051, 0.3865729180435321, -0.19259113900996505
0.19684653066334062, 0.3828987685024411, -0.19414832222831513
0.20012920401267337, 0.3844393008764463, -0.19746558177474582
0.20469539162448225, 0.35151640955297575, -0.19669917129319447
0.2196489530547073, 0.3593190272719613, -0.21892857637896418
0.21677436952817408, 0.3599111840583, -0.21229387639031908
0.20388254509217155, 0.39057028454373366, -0.2025290706424005
0.2017800884581741, 0.380598331272404, -0.19757296918917389
0.20880307288271388, 0.37752103080716465, -0.2055613770549456
0.20079066272502338, 0.3593553965634134, -0.19375138310895854
0.2089758589243264, 0.3980034825092296, -0.20972493740163023
0.21855054107827215, 0.3683514651835566, -0.2246009406651693
0.21416898808333495, 0.36802315345917797, -0.20975216489115903
0.20879294856724906, 0.3928631547399481, -0.2091282762204833
0.21134614048820355, 0.4112044602062606, -0.22149084634614477
0.21530877665917364, 0.37310897308001356, -0.21740725431759594
0.21044549992778216, 0.3759407668886142, -0.20751898960294662
0.2129207694805591, 0.39424136166441487, -0.21727181356410752
0.2145708611853463, 0.3839810523634845, -0.2202267194242973
0.17634312121158247, 0.32933523643577445, -0.25808397111747855
0.17997554871597798, 0.33051408091755974, -0.2607321802026062
0.15253256566723572, 0.3310195212051377, -0.2605099941322062
0.16770919340813908, 0.33518557953757183, -0.2661157193378511
0.13978087107849907, 0.33179902210750956, -0.26234332125404275
0.11645331094214963, 0.33165567122414263, -0.2638907229904816
0.10347091830671401, 0.3342583080371618, -0.2680104166045999
0.09024458712251386, 0.3317179549474965, -0.2625146723451775
0.06558549013635383, 0.32963052907495805, -0.25635373701064834
0.060132921261364825, 0.3286414538928773, -0.254406095461543
-0.003119640403291879, 0.33000779526662183, -0.2585219154108648
0.011766916469319622, 0.33268488973209315, -0.26302725746788047
0.18176950267047606, 0.407640488210109, -0.27514265550095235
0.1929035191642683, 0.4336244143481216, -0.26911820320759006
0.19657952323306757, 0.4308310452250772, -0.2670137251890155
0.1981315949311494, 0.4335184509100156, -0.26567293613134346
0.19930473256541534, 0.41368708049388525, -0.26643118364672563
0.21184785765494504, 0.42204080454592496, -0.2429564603922811
0.20813975738896728, 0.43236120526568766, -0.24847366855844016
0.20813452786805248, 0.4154291161738136, -0.2556428826831935
0.21648478029055, 0.39908439197883316, -0.23728604474019854
0.2128621639660822, 0.3925280463367472, -0.25154667239003176
0.2117735555245984, 0.4124612196535633, -0.24036082917703017
0.16579954970762148, 0.40357626305570987, -0.27934904515933134
0.17188915502973903, 0.4013373754496321, -0.2780728173015401
0.1754648925695358, 0.4265817569693653, -0.27561041903077205
0.17572771546281626, 0.43163884880925, -0.27538334673805714
0.15460833095308435, 0.4319515965308022, -0.2804216380638085
0.15538576730560227, 0.4191258412657104, -0.28052597734724194
0.1527880614284686, 0.3968814297920879, -0.28158626294688704
0.1477375682223263, 0.39553504349642765, -0.28230103076802393
0.1689487804241668, 0.41008745531080976, -0.27808707769447644
0.18808158545692713, 0.42514387210855475, -0.2717509335788608
0.1626155738493488, 0.4081874288402678, -0.27977956009998073
0.15016200133172364, 0.40932225920150184, -0.28174900863383606
0.14088418125623836, 0.4316802938328099, -0.2822555579115683
0.14313064751251042, 0.4331602282683381, -0.282288799281122
0.11892325591850711, 0.4155647775760114, -0.28240564008329394
0.12664146359004103, 0.39976457157196493, -0.28355267209601237
0.13378531290698534, 0.3933846523738216, -0.2833358463020936
0.14244727115740813, 0.410624840828843, -0.2827046476735421
0.1262499884654722, 0.4062864781074478, -0.28341473625561464
0.14178380664547202, 0.40616205925324383, -0.282846306725808
0.11805441254186157, 0.42487813150119297, -0.2817525832117666
0.105941743418421, 0.40991122702195437, -0.2819093815339488
0.10477889433617259, 0.4173195855480706, -0.28075398978173427
0.09949189934648728, 0.4329613803279735, -0.2776220429799059
0.08108351022743171, 0.41191537189955646, -0.28004449372055734
0.08459783652352332, 0.4153404227106638, -0.27914261554643316
0.07276495740336525, 0.4212930266847014, -0.27780925688344205
0.06328433397071695, 0.40759834597211214, -0.28176118042420806
0.05263099259284088, 0.4080820695599019, -0.28241168446414827
0.04462163328091682, 0.4131034533569675, -0.28264542382739044
0.029894367693996914, 0.4010133090845687, -0.284368886667704
0.02972695805379535, 0.4122927323264508, -0.28357665077489463
0.005777360141825965, 0.4186859798670742, -0.28394585138487183
-0.012986020965683964, 0.4183622475571587, -0.28443913527215153
-0.021113231373751245, 0.4032386801690966, -0.2858081627380953
-0.0008750723788994581, 0.4034271825763622, -0.2860129172347427
0.024595079224983236, 0.41953827475358657, -0.282895959307359
0.017375455092762913, 0.4055614478337399, -0.28470256786190434
0.10294967839201694, 0.40221386502629747, -0.2827724917847922
0.1013323868528125, 0.3851316859640813, -0.28402995741622206
0.11016956044163811, 0.3846568161737869, -0.2839402996901156
0.11491462430683377, 0.3693920905482191, -0.2831272953565479
0.1371076512133077, 0.37235548755031134, -0.2823072497974345
0.10991985714423311, 0.32642352048433876, -0.2528953418191331
0.14319773549990505, 0.32878637995550064, -0.25613778668816245
0.11000024660574649, 0.3242561258443507, -0.24111517947424732
0.12667318478279804, 0.35817518816150534, -0.2806488488643646
0.11249134242600495, 0.35574129821210876, -0.28075946710069166
0.14394977612166382, 0.33661955878030164, -0.26835343503649933
0.12011072811782711, 0.33338526956431785, -0.2662617151520049
0.1076015794677514, 0.34612594146145714, -0.27765456758467466
0.146443670483068, 0.3426869502117519, -0.2730346539988445
0.11592285376596145, 0.33705581214655306, -0.27077161861649307
0.053306628547554025, 0.32712710387190785, -0.24854789367614172
0.05042044440210974, 0.3446105452174475, -0.27394059654897646
0.05103532237190656, 0.350226380652434, -0.276606978001247
0.02048098127706411, 0.3384410992305171, -0.2695307554502673
0.01204729184979052, 0.34409085041850207, -0.2739418528366716
-0.019538916671785603, 0.3320190515348056, -0.26335668445885074
0.02214723893093039, 0.3428085266175339, -0.27290656471004915
0.023383931608552556, 0.3528994750427945, -0.27789153949881185
-0.006847811809221614, 0.34276546008751496, -0.2739377967419256
0.011583990835431752, 0.34918287514860186, -0.2769303719659585
0.0021614318190972684, 0.3253233454309699, -0.24379288982245859
-0.0037012724367318055, 0.32862070646106656, -0.2558428599802503
-0.015263984793011574, 0.3253942579576496, -0.24732431788686227
0.02281386156658788, 0.3282835456616278, -0.25534261368541455
0.04430847154979782, 0.38980515383057185, -0.2834907264715198
0.03669776281433993, 0.4046399385292566, -0.2838091374341223
0.022146798865549305, 0.4065793244957502, -0.2843673245545666
0.03119639355051624, 0.3864622541134376, -0.28424685602706534
0.04039089010351018, 0.39683853500282396, -0.2841083444928212
0.020073049043524867, 0.3907711414217996, -0.2849395438435197
0.03223671507079343, 0.37711046248894764, -0.2833444005119433
0.0015362929951357835, 0.3992073527274458, -0.28619780654358906
-0.02298187158727355, 0.3927491189917664, -0.28609967832968924
-0.006095949241308845, 0.39544185194196263, -0.2867848550043194
0.013644008294521028, 0.3893863556114149, -0.2852998432906454
-0.01863233437612358, 0.37948286807177845, -0.28555916226803646
0.011618164734512234, 0.39606558459960345, -0.2856220532049241
0.004245040679689416, 0.3820845565364267, -0.28566245219509806
0.016552110565303094, 0.3717033048038252, -0.28328521774011994
-5.742480177895186e-05, 0.3526642587577479, -0.27895468070879004
-0.017355374429875895, 0.3641639516268299, -0.28281269551669114
-0.0037311343476906394, 0.37130039961290606, -0.2846306133649774
0.011475277253026503, 0.3595213945750114, -0.2807521746493677
-0.0208252948417051, 0.3513047163001425, -0.2790201524733829
-0.0007501673254035868, 0.363386378146207, -0.2825842771887704
0.04650314958457356, 0.35089929050052726, -0.2772097046598584
0.026000194257434363, 0.3784984678854967, -0.28369577892214226
0.030101003807947564, 0.34972020409566756, -0.2769784694377757
0.02459715324056572, 0.36081241802664826, -0.2804429525239805
0.03442804749733577, 0.36729906537335205, -0.28175601438847003
0.03734816757514575, 0.37786174649406257, -0.2832655161965672
-0.003930714045353598, 0.41780344341175785, -0.2844967202977178
0.01845300428181254, 0.4256432771741797, -0.28232075245028754
-0.01899270814459516, 0.43025524341641613, -0.28201690907723825
0.03125744868218414, 0.42314927501654864, -0.2820383203005954
0.020731243316271058, 0.4198517049406769, -0.28305299441695814
0.03583139431506324, 0.43170795393354133, -0.27971220159934035
0.03614827097364387, 0.4320235300473759, -0.2796054307559321
0.01305769158858866, 0.4328117622112506, -0.2808455823492353
0.035541884643279266, 0.44233429387682077, -0.27684706218453903
-0.005766507401974531, 0.4266881396592759, -0.283015074497882
-0.009129963179085415, 0.4373588224771843, -0.280138532992556
0.008881264751029969, 0.4412745650868771, -0.2789783366679981
-0.0005148298472041715, 0.44068117650279637, -0.27926688729332866
-0.00410126624714843, 0.4437000319761331, -0.2787617860573828
0.13223793055576305, 0.3852496773487385, -0.2833757273708576
0.12552276750535016, 0.40448736450267525, -0.28352600416865503
0.1583703276591888, 0.3923550214484145, -0.28114761901498864
0.1503732954775731, 0.3909608172407669, -0.28209298609883743
0.15759224119764703, 0.37966441141004037, -0.28103042319901295
0.14050567912532652, 0.3703740730369323, -0.2818546093526848
0.15320663947651786, 0.3835396685382282, -0.28162208911409914
0.157075209913133, 0.3853269033982486, -0.2813140662988332
0.17683579175659248, 0.3894061381888297, -0.2774477502473737
0.14609113428130838, 0.3681630612174194, -0.2811312286638262
0.17895535929421022, 0.38089148571393816, -0.2774286075189518
0.1505087986494526, 0.36081558952863185, -0.2796403984910933
0.1315793482861881, 0.3549233415703644, -0.2792745287397579
0.13079672831254058, 0.33201302374040853, -0.26336251024618756
0.1267942023187741, 0.3437264343011853, -0.27489914824060624
0.1646321793570223, 0.35381766788744523, -0.27702473362628266
0.15973158225186906, 0.34204562585326753, -0.27215718732602945
0.16523011244005392, 0.32946377220155443, -0.25725349582508367
0.16773292267344758, 0.3264399475672934, -0.24918181416248514
0.13287144304077272, 0.3248391515595994, -0.2415214861957759
0.1867249412938375, 0.32800599163305644, -0.25671195540846403
0.15271652573829023, 0.3250008624005625, -0.2398338716352321
0.18332195318920566, 0.32429696296075883, -0.2373338586480369
0.18147177836604367, 0.324812952483004, -0.24557058962795736
0.17635631525406742, 0.3588545872656803, -0.2773228537988408
0.1838598205751677, 0.33500135981474466, -0.2667927351060049
0.1567472865288855, 0.33340237591318805, -0.2637946632427723
0.1466801052416885, 0.3473181915642844, -0.275467471304537
0.15051328182291987, 0.340781300543062, -0.271692736483619
0.07070273989442935, 0.42503693083152005, -0.277048224003486
0.06126625070202927, 0.4268744962867498, -0.27784431891314565
0.05847101627410739, 0.42398230393743763, -0.2791754514231047
0.09327106047193752, 0.4323230007455467, -0.2754895520274995
0.08680586439189676, 0.4277893926625778, -0.27504293249314615
0.07795849083480233, 0.4374437404918123, -0.2689993527772656
0.05905638440134559, 0.43158468765886404, -0.27601299060825457
0.08017179030237134, 0.43452262539805303, -0.2707568197763558
0.06848540625363722, 0.44080713453363796, -0.26819523793587974
0.05418786063249928, 0.43717302831628263, -0.2743616890110934
0.052566682421108506, 0.44417361892624413, -0.2722820494579273
0.05897790107119858, 0.32567607164294543, -0.23923631619032928
0.05169042913238278, 0.32811073269533286, -0.2540579587863261
0.0660151449259611, 0.32679466634756704, -0.2500322093405811
0.07523037118340242, 0.3263673341670019, -0.24963195106211872
0.11717028980437529, 0.3279095224966586, -0.25629990361093813
0.12419151214792866, 0.3263810393267827, -0.2509793738483782
0.08587721536699687, 0.32534195400036037, -0.24675699568964637
0.09729591413022105, 0.32561800940892677, -0.2485974193160111
0.08756839604466579, 0.3265468295580084, -0.2512051072715535
0.10366344934084981, 0.33670939622943535, -0.2708972203663375
0.10962234430839442, 0.34023783890781345, -0.274036701774733
0.08843551983866482, 0.33788954764978046, -0.27034627024395047
0.09688221954314434, 0.3426715950128516, -0.2744457520880492
0.12292551144328172, 0.3498124331321103, -0.27818215950786834
0.05033801490903917, 0.33491745586945965, -0.2661979232700245
0.06854196764657103, 0.34505406734978533, -0.27436100952332404
0.05478236182323479, 0.3458638635937865, -0.2724639002160628
0.07877800066744339, 0.3311411735149311, -0.2618150708891146
0.07960219656756495, 0.3447280236552231, -0.27537306382556925
0.07916351843608815, 0.3459743008916051, -0.27607090892924946
0.06538073720628745, 0.3460051653399981, -0.27388044876003836
0.19279383635352437, 0.3326099321542489, -0.26361865387369365
0.194519715230193, 0.33340442234639156, -0.26419542078604896
0.17062186676869423, 0.34618756945763873, -0.2739105660814797
0.19204632454948406, 0.3429307052830709, -0.26997657084663285
0.18755472416861407, 0.34661830525604587, -0.27299980635117055
0.19420746373084505, 0.3241277109399391, -0.2378996145671157
0.17280482618507648, 0.325869375392713, -0.24774188143101994
0.20124481871444755, 0.3438440578335697, -0.2666353391267341
0.2173277611268246, 0.3381766522392763, -0.24411676016101957
0.21647720632582448, 0.34253929661624016, -0.2502101650076114
0.049711341123774615, 0.36860433420153804, -0.2806260926903971
0.07265912808546979, 0.36429008807256136, -0.2811726928032074
0.08744312324866987, 0.36068514968086696, -0.28028340367014976
0.11193416710997384, 0.3595650024632906, -0.2816230851196794
0.09350617251812746, 0.35238299370087783, -0.27855134188122066
0.08365064492223054, 0.35374746184927197, -0.2789872528225692
0.08641508252603393, 0.3786824916699631, -0.28239762391813855
0.09191935396730427, 0.35897717083985325, -0.28010178796080454
0.09558903047321105, 0.4111832003140292, -0.28039872416292877
0.10637341693340492, 0.3973984462144077, -0.28314247904104506
0.09727585945016144, 0.39747766983021393, -0.2825406620575879
0.10979467199531415, 0.3698450210731615, -0.2833420489647617
0.1135257580425805, 0.374737844256776, -0.2833787747204381
0.09106546133510829, 0.4121374640392958, -0.27969535007804724
0.09562463251357955, 0.37343107897732997, -0.28285913254630113
0.049328591293979665, 0.3785515864058484, -0.28198751851538895
0.05796339777074171, 0.3751370554296396, -0.2809442568702265
0.06624879077609386, 0.379490505788171, -0.28242795337809473
0.07872470448201767, 0.38179946816216304, -0.28332120807021716
0.08142603162489867, 0.38728640008888576, -0.28302169484787626
0.08210278484561577, 0.3772141790451756, -0.2827280148220759
0.07497585449840827, 0.39073009675390225, -0.28308086280708644
0.0739718633093253, 0.379215163861073, -0.2829677417643641
0.06804866951301708, 0.3896211755165643, -0.28310762979725346
0.05909587545120121, 0.4035298169810355, -0.2823172804625823
0.052675846103319726, 0.38037576175751614, -0.281899312968835
0.06225437389446215, 0.3713385461440096, -0.28046386660832234
0.051867835469467605, 0.3862776233792742, -0.28247893567389243
0.04952334691236447, 0.40989107000738284, -0.28254297845975285
