0.04331384226741142, 0.13552713218440587, -0.072656382675962
0.0434426255777724, 0.1024708405369028, -0.07256434208284673
0.042973089252337324, 0.11782904807905512, -0.07284723953854153
0.042618333513269685, 0.1165874628747039, -0.0730459405773958
0.032491776214294624, 0.0893946703950713, -0.07805390681692188
0.03567669668860001, 0.0882815031633715, -0.07658056722405174
0.031508144227921794, 0.10494770372058437, -0.07848852538425036
0.03926978774161657, 0.0952828303450109, -0.0748712753928264
0.040185698539088, 0.08810855804445383, -0.07432267431739858
0.03716016887293675, 0.10437128025558343, -0.07596237098427483
0.03836467038842658, 0.10270933522701219, -0.0754044621720091
0.035838638085337285, 0.1202164100220809, -0.07658752960762154
0.035081731208135125, 0.11889162426966829, -0.07693641271144655
0.03185837082175131, 0.12358142829853058, -0.07837389284680404
0.03659850046940627, 0.10305117098718312, -0.07621910633393598
0.03537512650093167, 0.10552919668421183, -0.07678704640537587
0.02092929482888884, 0.12177979032605987, -0.08195230084150308
0.023540270628824286, 0.12228225572374837, -0.08121610199809662
0.02669586155431247, 0.11791290899795759, -0.0802787947018046
0.031582774111937474, 0.11510574264580588, -0.07847558922486701
0.030013242991502743, 0.1303022732732182, -0.07905472582786116
0.016979935013302937, 0.12505413068963864, -0.08283561576154905
0.013313425327147126, 0.12287712368175624, -0.08356516165950909
0.02550523654504623, 0.12802930155718487, -0.08066205313042828
0.025512942487251528, 0.1341855460019377, -0.08065986968244121
0.019052117007837592, 0.13158822540693138, -0.08242330214710815
0.01971963476133332, 0.13201791931061202, -0.08229048240029524
0.03065917024728929, 0.10299301298451177, -0.07879869497569958
0.022986908672990358, 0.08919949845542773, -0.08129925457400808
0.02467515788386611, 0.08886630322980067, -0.0808217289940896
0.017601261104104128, 0.11370048831442386, -0.08271125967501367
0.01533833693536588, 0.11238643583123756, -0.08315953825135154
0.028006824546952552, 0.09158134433397895, -0.0797312980905662
0.026420740242468495, 0.0931199053103658, -0.08032364174858651
0.02246276922739774, 0.11178653212453651, -0.08151621857482767
0.019809343107630998, 0.1042486017583096, -0.08225277258679402
0.020100887086026274, 0.10703988265876138, -0.08217487092841075
0.024071920984230877, 0.12306921923089414, -0.08106619607238541
0.025729779476132003, 0.12018168944809918, -0.08059872999076706
0.01262356385782936, 0.12630184724233276, -0.08365286806150815
0.009993584730140245, 0.1209873601629758, -0.08396398218862537
0.006199839796077043, 0.13169660567501065, -0.08437806685699605
0.003021720854608106, 0.12092421418695859, -0.08450313136738345
0.003531936068255612, 0.12153999592461777, -0.08448305351093371
0.012251321440955526, 0.131720445948728, -0.08369690261850779
0.010786680546331771, 0.1330611198978393, -0.0838701627396271
0.0058239699729393125, 0.11947220399647382, -0.08439285798856344
0.0043397542986026005, 0.11610197464633237, -0.08445126445793695
0.00011061658101662744, 0.09589782497250506, -0.0845765105669361
0.004929460122171189, 0.10183722981670576, -0.08440974568716854
0.0031722980050286702, 0.10203834071209908, -0.0844791878393536
0.017946019365196283, 0.11558688665358517, -0.08264338859136616
0.01888877492225559, 0.11925964764780868, -0.08245580323691029
0.016249942509321467, 0.10750215103931614, -0.08297076109522217
0.013407049421944912, 0.10185355727175056, -0.08352787913263074
0.006849622048844959, 0.09424064376209076, -0.08428725261915641
0.01623460335879124, 0.09408891937283058, -0.0829339794687154
0.017310348905218598, 0.08838868558898799, -0.08269477908897584
0.01176420120757851, 0.10680661308606308, -0.08374350581790109
0.009622751824787269, 0.10836749206204041, -0.083999161762049
0.0029066072607290116, 0.11066746288259283, -0.08450244590381766
0.00045305449595980945, 0.11401701014940992, -0.0846039690715117
0.008386415885891958, 0.1061914212833741, -0.0841421712856456
0.013113402813819328, 0.11882145591317965, -0.08359492249283587
0.010103111472598797, 0.11599220011115648, -0.08395102573436306
-0.003441006261581405, 0.12412208373069879, -0.08448662984461844
-0.006080480319431053, 0.11813570659059906, -0.08438276193804667
-0.009234926537825483, 0.1262143177695545, -0.08405372221132312
-0.0016099755897456675, 0.129164106398246, -0.08455868409502182
-0.00024012049065682452, 0.13563233331359675, -0.08461259028456403
-0.006694380083058492, 0.12838308516656527, -0.08435425675491795
-0.007587033156812273, 0.13928185915225932, -0.08424866011373675
-0.0017730244396717161, 0.0975841832171817, -0.08451839666883125
-0.0021339598242066326, 0.10068921707139455, -0.08451764097216527
-0.0044212706917270495, 0.11846161026357747, -0.08444805473002574
-0.010111449278876639, 0.11373891317108861, -0.08394937256691129
-0.009348694459922917, 0.1109102991276808, -0.0840353757670807
-0.0006279235275113695, 0.10960860563652812, -0.08459054241027396
-0.000758331948556055, 0.10516854183305069, -0.08457882037949775
-0.012256719363106931, 0.09047531151232698, -0.08363119509629874
-0.012345246005342782, 0.0942200106175538, -0.08363703862330707
-0.003994537571531981, 0.11163552244742198, -0.08446106858991484
-0.0180293014810855, 0.12397600415825574, -0.08262680794419752
-0.01561055861493348, 0.12714850643423592, -0.08310807889950744
-0.016872808318804434, 0.12950913100609174, -0.08285692184902468
-0.01619632567350789, 0.13419466472593897, -0.08299152523637719
-0.02241574292687574, 0.12729142392474296, -0.08153316300971343
-0.02603536052696881, 0.11666121798050658, -0.0805125635008081
-0.018838366898722265, 0.09503323789776413, -0.08242005817313422
-0.008596255754251032, 0.10768671448938359, -0.08411957049026675
-0.009864753235032418, 0.10308283711183998, -0.08396263488514932
-0.013412306435640585, 0.12609248252636931, -0.0835454775325848
-0.016317802207046365, 0.12033400637057591, -0.08296735460413657
-0.02248056200077453, 0.11098321225348562, -0.08150996022256078
-0.024571307018962738, 0.10617100863727495, -0.08091303417438722
-0.01565604501073201, 0.10137246822460108, -0.08307965261639241
-0.021009828622748816, 0.0992605300287832, -0.08190195437036488
-0.023265930675299876, 0.10081582626657543, -0.08127281343821832
-0.010305701102407503, 0.11444422005402569, -0.08392705454043761
-0.007650167516953316, 0.11766771145327987, -0.08424119161721774
-0.01807707626629003, 0.11382220847453439, -0.0826167589221469
-0.017566311366174064, 0.11223681241158814, -0.08271599168145588
-0.020583125859518776, 0.13250257674141008, -0.08204989385965401
-0.028287248386351938, 0.13373946214964189, -0.07969158460185476
-0.02645129040948492, 0.13761484490750653, -0.08036903388577014
-0.03046406656026293, 0.122215006659578, -0.07888836159169127
-0.03166065807250164, 0.11442303688636574, -0.0784468329137329
-0.03508355131749369, 0.12233715347024156, -0.07693554613156114
-0.03445531690279612, 0.12409135641493978, -0.07722512033233485
-0.02217792414544473, 0.10511407760357992, -0.08158625116869621
-0.03194501659720636, 0.09829056486686073, -0.07830909383562895
-0.03222845272464962, 0.09083875107590159, -0.07817013141948909
-0.037609639254164315, 0.11275291990464843, -0.0757688556703295
-0.0346431831560428, 0.1127013083629248, -0.07713611080849006
-0.030288523853713813, 0.10185054288527742, -0.0789336472243278
-0.02929617567644911, 0.10408153196552694, -0.0793033393316427
-0.03805277061669145, 0.08956708799997348, -0.07549146298507464
-0.03202178166470737, 0.11026571676035735, -0.0783073933418069
-0.031259556346405135, 0.1074413563078232, -0.07858418220579519
-0.02231929165051935, 0.11458153209742603, -0.08156035873483092
-0.02273840020820828, 0.11708019467147274, -0.08144218548135124
-0.027384238460466392, 0.1241466593603782, -0.08002478581635292
-0.027466999423098135, 0.12319523290901505, -0.07999424788706616
-0.0331109644737292, 0.1279272939983407, -0.07784477727564869
-0.03986911500994976, 0.12681563223277334, -0.07458576758461806
-0.04335963895083774, 0.12576961152040567, -0.07263070318239838
-0.047466250191898304, 0.1257127573626137, -0.06997945435313263
-0.04845270371846979, 0.1236079137832808, -0.06932041597042002
-0.041758367450113486, 0.13161451671042088, -0.0735275840527371
-0.039873630224251846, 0.1342482319319459, -0.07458323785478765
-0.034082529136916145, 0.1052758460511716, -0.07738241028577539
-0.043887022250720616, 0.0977541796708686, -0.07229736967382874
-0.04268541080033575, 0.09691866161865631, -0.07296625498788481
-0.0398691732197787, 0.11851153685180735, -0.07458573798376542
-0.03885663617757865, 0.1151162728301228, -0.07515286408403746
-0.04637124062538433, 0.11302664950325712, -0.07070896118729172
-0.04778147184075555, 0.10572012749056969, -0.06975376656056488
-0.04614877970873372, 0.09670477992533731, -0.07081435752559628
-0.04067036833386884, 0.10503867925725924, -0.0741214410375321
-0.042428897170890205, 0.1041699947167495, -0.07313500254585983
-0.043745539453033444, 0.10924101927990668, -0.07240616864668051
-0.04341430266186624, 0.10658236456258621, -0.0725871746659004
-0.03238737053669569, 0.12475512750770282, -0.07817830615203256
-0.04693827814439735, 0.13212988133408163, -0.07033219403488175
-0.04640107930174222, 0.1329112565150565, -0.0706910903355163
-0.051577707726902886, 0.11452002220895727, -0.0670114193174195
-0.052557117462218694, 0.11539018638410559, -0.06623921923957468
-0.05641131529166333, 0.124982154413041, -0.06300291437265251
-0.056948036026816716, 0.12562394888481582, -0.0625068382746457
-0.05384745650379631, 0.1296233615500238, -0.06522186178947259
-0.05583507049398685, 0.13421045843383103, -0.06353552867610816
-0.05513935460952554, 0.13447498126638946, -0.06417856666494412
-0.047351683357261545, 0.10596650355659676, -0.070041343565266
-0.04692770404686711, 0.10144868201832606, -0.0703165388258701
-0.054842815107871146, 0.0935149305328403, -0.06437157545445842
-0.05480470471073688, 0.0919746544971538, -0.06439313592151522
-0.05935265878402779, 0.11404582959164085, -0.06028402608293784
-0.05878124970718116, 0.09986653261248915, -0.06077981990515393
-0.05934557008684423, 0.09995363168685233, -0.060258746846492725
-0.050580687688475526, 0.10360167865137444, -0.06777752184341712
-0.050205096278622866, 0.10628451189649002, -0.06807871778801
-0.049922624964108514, 0.12600216561525357, -0.06831635367331293
-0.053449032200387415, 0.12686056705190527, -0.06553599684035005
-0.054000294813089655, 0.10448841766042959, -0.0650830600724867
-0.048036836719926805, 0.11476487721036513, -0.06959824894303279
-0.04774957532452827, 0.11849621494330942, -0.06979016169071967
-0.06327800906470384, 0.12743605199633268, -0.05611369765160713
-0.06420061914492745, 0.11569426932679722, -0.055115515799417106
-0.06244393383983573, 0.13706758702783353, -0.05701611234833075
-0.06124972213208377, 0.13965050210521118, -0.058308148493898954
-0.05687676620533094, 0.116328561415786, -0.06257271545714656
-0.06328545955070217, 0.08942197801497959, -0.056003717392284866
-0.06353932787033201, 0.0943859973211149, -0.05576070485772219
-0.06156694509226614, 0.11107806240367546, -0.05795816504597385
-0.06265437526888634, 0.11266519478287737, -0.05678511813188062
-0.05792464314840721, 0.10346805942786018, -0.06158256281474974
-0.05574577253288813, 0.106975064425756, -0.0636035206345935
-0.06226487557053938, 0.11476590926589622, -0.05720983583765893
-0.06802089932949977, 0.12619885961440303, -0.050297370006950594
-0.06552267266919867, 0.12206690900788017, -0.05346595266585956
-0.06804202322069772, 0.11204498945593691, -0.050265431606930026
-0.06841922963648703, 0.107380654067604, -0.04977583767699774
-0.06389850159726918, 0.10819001044197761, -0.055429287049111216
-0.06224271354494676, 0.10596015002773904, -0.057215857772012296
-0.06497350004284486, 0.13698717078531095, -0.05416249062572978
-0.06901051197147288, 0.1355135546249317, -0.0489165661804242
-0.06962633909539875, 0.1368863635070098, -0.04799479343239823
-0.06754440991206395, 0.11778211263898777, -0.050901700298652236
-0.06743644136256044, 0.1159767905568502, -0.05103863666069613
-0.0717936570224055, 0.12647969660037234, -0.04475075534182899
-0.07056300781195184, 0.12725105952878882, -0.046592799347045646
-0.0708907277578317, 0.08940264747826097, -0.04597758253360397
-0.06693474486503652, 0.10167333869763091, -0.05164499758113082
-0.06512799428639363, 0.10145326468523906, -0.05393603117903068
-0.06856255156009271, 0.11268142875106857, -0.04958305423192029
-0.06992764707468922, 0.10976885930054746, -0.047532014191396306
-0.06588198585075064, 0.09198136166427386, -0.052916371978938795
-0.06769997002165805, 0.0892760666800966, -0.05059164783154704
-0.07208010522693313, 0.10902274360008728, -0.044308229052383435
-0.0710809072349013, 0.11630499185706551, -0.045817598683653135
-0.07096188077077946, 0.11446803954294817, -0.04599575131881403
-0.07472686187452891, 0.11089295103317075, -0.039607258546084365
-0.0751450213434308, 0.10697349155741262, -0.038848789820983116
-0.073531225435053, 0.12317504654324299, -0.04175188506271852
-0.07722439950814323, 0.13947464343102073, -0.0344569050353187
-0.07562260213780031, 0.138424449826205, -0.037932028852014674
-0.07518766174276774, 0.12387572938290939, -0.038794522930541864
-0.07476019187416258, 0.12025354108327557, -0.03955772266504376
-0.0780182212536894, 0.12509759585976307, -0.03273469713805268
-0.0765368926919742, 0.12587971058230824, -0.03594844714273322
-0.07259111701296014, 0.13482176348526195, -0.04343033140596805
-0.07669382635413818, 0.09202940067824322, -0.03546970637769132
-0.0776778878899574, 0.09573933470432411, -0.03337312526893076
-0.07385995836323646, 0.10607807564267509, -0.0411403880296416
-0.0742625178465142, 0.10536316603825109, -0.04041949782722468
-0.07529717876422534, 0.09475634818245868, -0.038504700702276885
-0.07426773081779624, 0.09598629835976451, -0.04035353629851274
-0.0754974567345259, 0.10882987009856607, -0.03818457448189786
-0.07905180996505744, 0.12157950773304955, -0.03002110284470544
-0.07835591519711525, 0.11712919624807842, -0.0319070688910286
-0.07707744747073908, 0.11444728346909315, -0.034775722913770964
-0.07552398405405426, 0.11567373778457038, -0.03814598493180205
-0.07874925406756383, 0.11300482446774401, -0.03083604033741867
-0.08039530693621143, 0.10436285023788236, -0.026338012661478193
-0.07642891642771088, 0.10357612204164612, -0.0361451390908635
-0.0791218196124233, 0.11501661217882572, -0.029831389157222152
-0.08024695772631686, 0.12541214371175247, -0.026782099053360986
-0.07980596898052406, 0.1284895567100713, -0.0279772330497011
-0.07891430356299836, 0.13454921659310007, -0.030393763220069897
-0.08096636669890013, 0.13212593385791935, -0.024425889856930793
-0.08168852131169801, 0.13753295127277368, -0.02186475824337357
-0.08207283130461383, 0.12595290822810637, -0.020501789913412897
-0.08176365888284132, 0.08858401246585534, -0.021330044992113557
-0.08196042253179461, 0.09434678495350449, -0.020724121364584482
-0.08109226846983476, 0.1059311983669032, -0.023934302271650824
-0.08090648187764049, 0.1105354264984912, -0.02461838765954527
-0.07943772748314598, 0.09009283627155834, -0.028783796522062092
-0.07944457045665868, 0.08766833008183847, -0.0287349420247255
-0.0799058037210058, 0.10202865500872428, -0.02765461489935834
-0.08279996480100571, 0.11320197017143452, -0.017151610432015102
-0.08288505011123484, 0.11260899128872713, -0.016719482329952937
-0.08189676823140825, 0.1058500492235156, -0.021080681077815647
-0.08175375337853512, 0.10257318720286843, -0.021569980960276444
-0.08107057754316305, 0.11590228087514762, -0.02405634258215985
-0.0806616944271249, 0.1207964415470505, -0.02550644085362077
-0.08240162321853911, 0.12501370242377294, -0.019161043972022847
-0.08284384914174764, 0.11727038358623723, -0.01693851606100229
-0.08256898242548401, 0.11703837683039925, -0.018319940530825647
-0.08364211321622567, 0.14097167033574523, -0.012714336466950015
-0.08414156899882051, 0.13994547493579018, -0.008492317861823521
-0.08392562096465128, 0.12377950663632983, -0.010317843626170423
-0.0837408407583998, 0.12505743712484396, -0.011879868538262454
-0.08288101673105024, 0.12934736210123718, -0.016751735872919088
-0.08413420803878618, 0.09678945760488321, -0.008237133635466373
-0.08423683406788768, 0.08799745903887211, -0.007045745660555276
-0.08350703507885351, 0.08961682685875497, -0.013255302069315505
-0.0834435928340973, 0.09316626922899365, -0.013652880970227644
-0.08306128290853824, 0.10219970392361612, -0.01575467092171598
-0.08295506923208079, 0.10426420970192954, -0.016304167967546218
-0.08393362332134131, 0.10886706880916668, -0.010183043817167637
-0.08410839758942934, 0.10356927786354589, -0.00863874130483196
-0.08423421272273784, 0.1116184675509942, -0.007676814818137693
-0.0837736329198968, 0.11699451285800239, -0.011602593506575857
-0.08386410433726187, 0.12217955898510059, -0.010837865219510226
-0.08444815080202228, 0.12180587353249653, -0.004418853775601476
-0.0844594728420693, 0.10945533068187026, -0.0039526875066489995
-0.08444422461757434, 0.11291671046275532, -0.004470875470769033
-0.08437285549581534, 0.1293029032438444, -0.006332245838658318
-0.08438684381943254, 0.13297170816872705, -0.005976776836234013
-0.08459288449720438, 0.13089347048587363, 0.0007409048586599352
-0.08444572885848854, 0.1404974292064411, 0.004480399321900301
-0.08437920785476961, 0.12741415313422622, 0.006170819882521847
-0.08461288912885655, 0.11473179568609974, -0.00023255009630637784
-0.08453827648762592, 0.12196847439717652, -0.002128594511856651
-0.08441678469995154, 0.09121851647728564, 0.003654475651534143
-0.0843019518654771, 0.08849942838225838, 0.00627341622985356
-0.08448127152766693, 0.10401139950919504, -0.003193306605198806
-0.08439847565125619, 0.1058742562646314, -0.005367742981954108
-0.08448271039914673, 0.10894981019222966, 0.003343089600947841
-0.08452534368795536, 0.09191162810731479, -0.0009718783245205591
-0.08440733226350333, 0.08814142100724776, -0.0035559938607073313
-0.08452211840666696, 0.1146216189163851, 0.002539200963437733
-0.0844906971030091, 0.1200321857308492, 0.003337673790059762
-0.08454379232842867, 0.102176667509068, 0.0015351991791685818
-0.08439707716013983, 0.10768641257146977, 0.005471645072654565
-0.0838236025727794, 0.11199957494901641, 0.011152685353750497
-0.0843179678497212, 0.1220048294043663, 0.007001169271558276
-0.0841427702004243, 0.12492005130664688, 0.008482189002615007
-0.08400603400775901, 0.1286833256514098, 0.00963807779507063
-0.08434876015176708, 0.13010458733184058, 0.006740868936036711
-0.08232799980668974, 0.12054951731453976, 0.019531055886736225
-0.08250492812800891, 0.12058125095525746, 0.018641859826581893
-0.08356363256412319, 0.1334152084380426, 0.013321083891573698
-0.0836964322522245, 0.11917259122046991, 0.012255271321556387
-0.08361816798383026, 0.11994265908918847, 0.012916872161474195
-0.08245059637046741, 0.0977823203173374, 0.018745893471879826
-0.08225713182550341, 0.09097595408957768, 0.01956724269266792
-0.08387781172547466, 0.08710781933461079, 0.01004794648955994
-0.08372166335554239, 0.09127123652274889, 0.011521279400029536
-0.0832157550445245, 0.10797777475953818, 0.015022250351608129
-0.08433901389246055, 0.10425319456397052, 0.0066979082209864226
-0.08384389345565532, 0.10333632019332567, 0.010871731937373869
-0.08239646595043713, 0.10517685585454326, 0.01911853464880274
-0.0830841238274681, 0.10515533664385675, 0.015662335281405714
-0.08192679604892461, 0.1121333990547291, 0.021008530434221073
-0.0816400387218722, 0.11407779080326769, 0.02203613051579878
-0.08224482453481094, 0.12132946405359324, 0.01989181479668503
-0.0829249430134903, 0.1146981322159732, 0.016530972610867996
-0.08312868371497448, 0.12109234037006594, 0.015507025054873657
-0.07820886324038501, 0.12381398309250413, 0.0323055970709377
-0.07841084396731376, 0.12477825682749244, 0.03175820819921784
-0.08156692760587869, 0.13217118077210663, 0.02229601636539868
-0.08140054977308826, 0.13058149908691116, 0.02288608519374398
-0.08006449618091602, 0.1376397838800837, 0.027276605431704057
-0.08210803335122593, 0.11515259217284872, 0.02037695090417379
-0.08110865337109115, 0.11838909050042754, 0.02392128651541943
-0.07939606871926318, 0.0912990025139082, 0.028911777728126246
-0.07903536068158318, 0.08830251518334786, 0.029851873261104788
-0.08160684225082902, 0.10130902899619366, 0.022084126347271242
-0.08076661100912591, 0.10118830673619376, 0.02506340224897855
-0.0788547193118342, 0.11037025691847792, 0.030538939778859835
-0.080622116179765, 0.09428735680291635, 0.025469551926422168
-0.08073647117767771, 0.08906786779414179, 0.024980724537588594
-0.07910303558395569, 0.11699262280145357, 0.029882287522620336
-0.07907402806256861, 0.11509116916906993, 0.029960893037211028
-0.0771750888760324, 0.11995648616514697, 0.03456388142986371
-0.07675107601067772, 0.1239368545438979, 0.035483780890310394
-0.0768385023039408, 0.11207683496340137, 0.035286659146772384
-0.07893827414592179, 0.10463857037277524, 0.030287938947133608
-0.07874768745980912, 0.10760298172849386, 0.030817148935266478
-0.07389429664232042, 0.13418161110304075, 0.041103671706130454
-0.07361860628925611, 0.13812481657501302, 0.041595885755947345
-0.07476235651341558, 0.1259398094564648, 0.03955385578819076
-0.07798165194712751, 0.13508651224069199, 0.032814033967160317
-0.07780273629338086, 0.13144344667222374, 0.033202192442669295
-0.07680876572451076, 0.12070874026759038, 0.03535862334758172
-0.07666502131787298, 0.12130553854139567, 0.03567047833600532
-0.07266017052244349, 0.09465228327418038, 0.04321182723799136
-0.07298671419635909, 0.09330383315470722, 0.04261688163299698
-0.07752478885784564, 0.10394651258078855, 0.033768938676570145
-0.07377976498975533, 0.11090359699235211, 0.04129820973957511
-0.07380791560421172, 0.11185486628763472, 0.04125083827055174
-0.07617411524818912, 0.09171472066464048, 0.03659396619911018
-0.07713190913401974, 0.09003320426164504, 0.03449863213752138
-0.07273644386956771, 0.10141396990195164, 0.04313212653532881
-0.07391242132171588, 0.1058462531491095, 0.04104601630710293
-0.07464500175201232, 0.12398021344150056, 0.03976337979729197
-0.07176798263605988, 0.12465742417516754, 0.04478917688918817
-0.07212405982865105, 0.1180405529557754, 0.04425620299395851
-0.07003513286029281, 0.11342705060411967, 0.04738091230832818
-0.071386675173395, 0.11155479269513607, 0.04535291564246764
-0.06505545326290785, 0.13891953664039725, 0.05405853599820917
-0.064787432957862, 0.13967955249323818, 0.05439847487708479
-0.07013775875348874, 0.11556059078399408, 0.04722931458379469
-0.06906854438314798, 0.12824155219350616, 0.048829717914937
-0.07000559927134929, 0.13258472687781686, 0.04742712956080239
-0.06496113539223189, 0.12585799830973374, 0.05417816799922173
-0.064518473551633, 0.12200247360223646, 0.05473960906774271
-0.06440185383350734, 0.09315512528377087, 0.05480189643376582
-0.06442215731288839, 0.0902776546257706, 0.05475602839841413
-0.07094802043622266, 0.10763032499050548, 0.04599901889556623
-0.06832213429437607, 0.11203899336318565, 0.0499101689687932
-0.06700622449864249, 0.10870813373920853, 0.05157119939765821
-0.0689359409636264, 0.08978692074055672, 0.04890652105258118
-0.06844318560023782, 0.09257905297551317, 0.04966583322208956
-0.06390828602940293, 0.1190034295535171, 0.055431787716515996
-0.06287455832654715, 0.11978801550841092, 0.05655020590278635
-0.06147893304414694, 0.10581829978750877, 0.0580419069280616
-0.0676194354757164, 0.1168800765016547, 0.05080655569718705
-0.06767900846253513, 0.12256215310862953, 0.050730995791540584
-0.06461861032257697, 0.1056746079970379, 0.054592227021652645
-0.06500676555131352, 0.10305612932697661, 0.05409364574588937
-0.06131167475595422, 0.1160414332147387, 0.0582411310637114
-0.06381303406872411, 0.11485697915891324, 0.055534841921377254
-0.057537298473713444, 0.12293008443648741, 0.06196221383122909
-0.06148410430514019, 0.13089515184948997, 0.05805457722978833
-0.06401082532784964, 0.13976667921936464, 0.0553208463327182
-0.0597680787688788, 0.1296145718359314, 0.05990035464416332
-0.0597550407902791, 0.13089967867969554, 0.05991240499876834
-0.05452128275459992, 0.10241195790983428, 0.06466837838803924
-0.05432276058216478, 0.11416077607709581, 0.06484709127992272
-0.05859986414860824, 0.08892331342824085, 0.06088297034047302
-0.05707760390576667, 0.10096440322966904, 0.06236041020610489
-0.057262377657383914, 0.10668011674370155, 0.062201173032383775
-0.05742208202275771, 0.11508829133539213, 0.062068703634979634
-0.05785495237249936, 0.12049396980415353, 0.061668612852484185
-0.054677388619937886, 0.11954500542082785, 0.0645675306688882
-0.05347712754122978, 0.12486337347055179, 0.0655138593073725
-0.06034646666707166, 0.1012121347788481, 0.05925709366853983
-0.059650636003694815, 0.10486416989797245, 0.05999009620480257
-0.05583508270101977, 0.11289540832232765, 0.06353293576230377
-0.061391082526887054, 0.09412332995114212, 0.05808329311490579
-0.06355578970520585, 0.08844154325614163, 0.05570500101687051
-0.049992745202315544, 0.11855704250403493, 0.06826106298850115
-0.048044701940249214, 0.12378023837441761, 0.06959300257957421
-0.046563892414617745, 0.12239552904759568, 0.0705823170296282
-0.0538510587390467, 0.13083353564569214, 0.06521903882552522
-0.05332929973269396, 0.1340897096588252, 0.06563041101463074
-0.043086815595790195, 0.12705861225181841, 0.07278352677182562
-0.04150038547726566, 0.12728484849421232, 0.07367209579922404
-0.049732074703991394, 0.1298924295197536, 0.06846568390021328
-0.03960669674914972, 0.11259820055981347, 0.07473007564824788
-0.04166352985693514, 0.10770033395043216, 0.07356970370830478
-0.04580770557787882, 0.08711044264458545, 0.07099229313988038
-0.046115566858740055, 0.0923968921474077, 0.0708141321783362
-0.052905578978482026, 0.10532712513072313, 0.06594776077889807
-0.05050559303442539, 0.11071712884730052, 0.0678501722866414
-0.048072324963931115, 0.11740710760787829, 0.06957454451307249
-0.048047436778294435, 0.10263705941975819, 0.06957058665074164
-0.04438204204040999, 0.10941190205841976, 0.07203148385157873
-0.04844276319620104, 0.11414027481053662, 0.06932698294992432
-0.04946280881434177, 0.10434579559317353, 0.06862803633358677
-0.0501560810266954, 0.09717778301343717, 0.06808694886249299
-0.050233935354852245, 0.09506873752040815, 0.06801394063147603
-0.040928601749833406, 0.13114490670744966, 0.07399235525565107
-0.029342634686608714, 0.12127161719368534, 0.07930217216406334
-0.03000264115720599, 0.12650769589052446, 0.07905863673091595
-0.03301948173924969, 0.12093982021970086, 0.07788696155767431
-0.03389747747709597, 0.11506349078240469, 0.07748226182878992
-0.030638312505512327, 0.13720356822127294, 0.07882407923685851
-0.030810432068547854, 0.13445213245727544, 0.07876057015556132
-0.03443715385930792, 0.1294163010365674, 0.07723350946259663
-0.03546940628015796, 0.08845482923717035, 0.07667693214677887
-0.036079230624160366, 0.09230073238186283, 0.07641417203756787
-0.030137111177397313, 0.1104086956879626, 0.07900305233907222
-0.03127462761288888, 0.10720603530804457, 0.07857825827270137
-0.03771284661789849, 0.11856360239006958, 0.07572363142489202
-0.03838018727451929, 0.12599791396509702, 0.07541602762992515
-0.041072743175456276, 0.1171261942469301, 0.0739116236772886
-0.041075753772656216, 0.10410334249847028, 0.07389280753957114
-0.042001654446734815, 0.10368438323477736, 0.0733734917548585
-0.03305272876135438, 0.11217105345820534, 0.07786835153147567
-0.03629898385798636, 0.10290404237510642, 0.07635691348112596
-0.04111654315787323, 0.09093050097833112, 0.07381528989127596
-0.04282145446100419, 0.09013418588888984, 0.07285640595960002
-0.037997846346554565, 0.11409364436768889, 0.07559212313990024
-0.022772199140316148, 0.12681561921689205, 0.08143266202272785
-0.021986618962987925, 0.11882809854725265, 0.08165416740932269
-0.025657589236534245, 0.13943282717016098, 0.08061908930141433
-0.02252174655686747, 0.1386065693110419, 0.08150328140113094
-0.015033783912737927, 0.11828305841054333, 0.08322284774180005
-0.017211535319005218, 0.1246237002025696, 0.08278952809713704
-0.016530641725817807, 0.13751478629070518, 0.08292500957146992
-0.023588025471395494, 0.09045703491618229, 0.08113542324137382
-0.02396696423422328, 0.08958885298326086, 0.08102467285504603
-0.017687827781000816, 0.10884812320483295, 0.08268669472794257
-0.01694419114306535, 0.10664191269548406, 0.0828313246790957
-0.03221610539112466, 0.11426326261192442, 0.0782418885088047
-0.03189874539778421, 0.1241292997540637, 0.07835899553856629
-0.03147763257408311, 0.10272022438034024, 0.07849626091204201
-0.025018317941580652, 0.12376756126562385, 0.08079933931688867
-0.025298870428936034, 0.1254840003623535, 0.08072023363983383
-0.021779293606713792, 0.10797594576833981, 0.0817030661669861
-0.024474357809128506, 0.10322640319663938, 0.08093584037695284
-0.0272124692558993, 0.09499955328561001, 0.08004018339801713
-0.0277685666873236, 0.09645375378362189, 0.07984169654691739
-0.024097779878551627, 0.1083769440693162, 0.08104995635747043
-0.007325242774499288, 0.11913715151321158, 0.0842796318888911
-0.009150725143130256, 0.12573689039954528, 0.08406368596151566
-0.012204503296837725, 0.1387685876384126, 0.08370243841553666
-0.011266877584637198, 0.13161782435025518, 0.08381335511519512
-0.00816843751569079, 0.09145147752897265, 0.08411907846293659
-0.006716895063110993, 0.08762018316648658, 0.0842740931914617
-0.00651196959952758, 0.1106516909814598, 0.08436054393967166
-0.015952962929701702, 0.11637336086349508, 0.08303995362556307
-0.01891798913840272, 0.11945114767102571, 0.08244998557915167
-0.0157879383277421, 0.10353629444910227, 0.08305668852200887
-0.015338163666673562, 0.10812631575410223, 0.08315312704722315
-0.013044899906312614, 0.12336864298817754, 0.0836030234585616
-0.006077942540882464, 0.12655211963161392, 0.08438286288673782
-0.004146332466774637, 0.120560736517805, 0.08445887511259308
-0.006884859813152519, 0.10152699123196919, 0.08431282670024237
-0.011230890103237936, 0.10394015949197798, 0.08380230840110511
-0.01045961025700809, 0.11283916390891394, 0.08390684533119534
-0.008647374499915797, 0.11295191113980557, 0.08412139274962616
-0.014981096252359232, 0.08859608954551618, 0.08315916005808963
-0.005787963425800185, 0.11482433166416756, 0.08439427405727187
-0.0008132547607120172, 0.12285508937072072, 0.08459003755598256
0.006059444391878136, 0.11944454517053657, 0.08438359046500453
0.0054243785243084305, 0.11797093767644418, 0.0844085814172596
-0.006170409401392102, 0.12809022573467088, 0.08437922415449663
-0.0006235512609499094, 0.12774807370602181, 0.08459750272228347
0.008929800905185518, 0.13984222781088695, 0.0840898190905495
0.001163262294747877, 0.13785550207137645, 0.08457626381787915
0.004248690175635968, 0.13038156882326007, 0.08445484682624503
0.008673361557116559, 0.12460128269734325, 0.08412015469800427
0.007747103612077106, 0.12734864793499226, 0.08422972668308411
0.003503186521179675, 0.11885710756919332, 0.08448418369122397
0.005208269061093582, 0.1156393606090239, 0.0844170857019024
0.009998505452947393, 0.11093282409364259, 0.08395854184047741
-0.004725130385273508, 0.08779391834610775, 0.0843598227373317
-0.0009912771172964218, 0.09830548727176402, 0.08455228468183408
0.0055574534302999315, 0.10491012534511525, 0.08438958283813565
0.005604101614369221, 0.11099330557353938, 0.08439677687067113
-0.0003016324755706804, 0.11203417349855765, 0.08460698389155198
-0.0009134342514710045, 0.10341052627257037, 0.08457010856074104
0.0037579706936956524, 0.09403570825081144, 0.08442491311401763
0.00937168409942658, 0.09601845906334303, 0.08399664007280302
0.012228950316908231, 0.0949117628607456, 0.0836538120355865
0.0028447270582203747, 0.10796029031772642, 0.08450086103113977
0.0008323927798235135, 0.10730962767130586, 0.08457908463822301
0.019040368514636596, 0.11824975111371087, 0.08242563306654085
0.018828259217588662, 0.12474943705242521, 0.08246783747231883
0.017414142858739483, 0.12967467550405273, 0.08274921213070524
0.02602642667207211, 0.1086531081686998, 0.08050657007130749
0.02501536646752541, 0.10731761997682313, 0.08078959495899585
0.02107825977164449, 0.11983196006648028, 0.08191028822062425
0.02282654707643636, 0.12193366109823227, 0.08141733519005491
0.014915252688352879, 0.12168255751710867, 0.08324643054407867
0.018139666022351036, 0.11740787427364899, 0.08260485096001664
0.01451103087100621, 0.09913840683850807, 0.08329920047645244
0.00680123582931225, 0.10822689634073987, 0.08433272483655092
0.00791902145154972, 0.10975391687929534, 0.08420277483334025
0.008022820077003757, 0.12008938401116381, 0.08419711069509175
0.011928698810969343, 0.11664850030579464, 0.08373506351733989
0.016851647880303546, 0.10816621396253552, 0.08285204075050574
0.017750953692378002, 0.10592888194957067, 0.082669718120763
0.024149546196240945, 0.09519503286230778, 0.08099839644111881
0.014175830323034344, 0.11199801648941536, 0.0833902563117936
0.018155316670150953, 0.1026755883027031, 0.08258433926991847
0.03184890831856505, 0.1240841816383994, 0.07837738561244477
0.029383565385561004, 0.12070465326202343, 0.07928706419270519
0.028850571745877934, 0.1362708708879553, 0.07948373236341082
0.026573550142345158, 0.1328018522676182, 0.08032392646344452
0.02239187404777028, 0.12773269963027292, 0.08153989684564217
0.0247594404042409, 0.12176750026870817, 0.08087232989405163
0.02199731921802798, 0.11766071301623199, 0.08165114713168849
0.02864470607061283, 0.11520083361794604, 0.07955969416530387
0.027501822743912527, 0.1188228466582843, 0.07998140472430387
0.03290356142854621, 0.11402893155519063, 0.07794014279040154
0.034425503881264745, 0.12650227858459506, 0.07723887926402229
0.03359069349748044, 0.11891642389776393, 0.07762366897725956
0.021216627479687028, 0.10842244780715392, 0.08186240183587502
0.021012422723017704, 0.10222273676058052, 0.08191042805382814
0.031046807434753312, 0.09765295889430756, 0.07863758613412888
0.026960323667040004, 0.09938816307265498, 0.08015346297680209
0.027203165124383526, 0.11241461807653783, 0.08008881210861502
0.029066141883143617, 0.10312536677286974, 0.07938671175927062
0.030080988538396088, 0.10129947018609062, 0.07900935787980493
0.03462896439136644, 0.09638267484286449, 0.07710209816193826
0.035575539606809814, 0.0987574718787683, 0.0766771095754753
0.03829676837820372, 0.11522973258302548, 0.07545449325248184
0.03686020539240716, 0.11816709031125838, 0.07611664662529208
0.0364541253250008, 0.13119132152513333, 0.07630381629254511
0.040561428434549116, 0.12436118273687449, 0.074198011475284
0.040048707851669245, 0.12422944496742824, 0.07448518912098616
0.0402170286749558, 0.12910169443508704, 0.07439091528766481
0.04056233534836884, 0.13292101860190964, 0.07419751126229793
0.047274038445128966, 0.1229075396912627, 0.0701078758072119
0.04878366479043439, 0.12311222959805969, 0.06909930994865812
0.04926447225253002, 0.11022918840084191, 0.06877103472524566
0.03889855959716867, 0.12590296231087347, 0.07512939542354612
0.04099404794976701, 0.12035583681441206, 0.07395569860164755
0.03448434321874154, 0.10468475272054548, 0.07719624662380327
0.033192425676286955, 0.10394227503158648, 0.07779051941806098
0.04282190549399505, 0.09761973165843926, 0.07289328951608595
0.041050235761294095, 0.09494938481156373, 0.07387236769934699
0.04332321015158406, 0.10295041461677791, 0.07263203216508683
0.038887882137560885, 0.10622369848608171, 0.0751218580395197
0.043343906405339964, 0.10096595340795309, 0.07261706547303833
0.04818886609160707, 0.0913839099182028, 0.06942370498655685
0.04752748500675945, 0.09692515781666936, 0.06989441443210208
0.04682150920706174, 0.13291160910910096, 0.07041020639276256
0.04445778211601259, 0.13775345455740276, 0.07198938575960752
0.05488537443506734, 0.11468176895088361, 0.0644035485385864
0.05208834575822069, 0.13078043598072578, 0.06660881387141096
0.05180042228242332, 0.12938380897038343, 0.06683582496666884
0.059325052825610285, 0.10219821823299673, 0.060285632357181346
0.059805648050307504, 0.10251056559123731, 0.05984205805875541
0.05775310235624384, 0.12667014717990763, 0.06176273564056044
0.05649112461775781, 0.12331222458748506, 0.06292915588342207
0.04757562926228444, 0.10129193630308239, 0.06988339800450202
0.05011341026165989, 0.10068550819608113, 0.06813992522505105
0.05244008956273241, 0.09937818292809368, 0.06629827650094201
0.05407440002171758, 0.1254939559787912, 0.06504293165724244
0.05378665168568688, 0.12722654831634303, 0.06526980491027633
0.04649647879151731, 0.1204009160070532, 0.07062735392676396
0.047428574361104474, 0.11520112073875742, 0.07000462702057113
0.0519523055641774, 0.11192788615668539, 0.06671182017937345
0.058707568692365916, 0.09974044214025997, 0.06084717330865575
0.05738947715216447, 0.10052075735021215, 0.06207004929106362
0.05429432536681764, 0.1023578823854537, 0.06484720597117445
0.05146615520201665, 0.1084386562622419, 0.06708852537597623
0.06292937796705778, 0.12023966406458661, 0.05649088585733038
0.06364906198289105, 0.12579286536101536, 0.05571223929024567
0.06039347575533593, 0.1313005772692729, 0.05923454261199296
0.05798611220229405, 0.12160107352422747, 0.06154737716289016
0.058477488120193884, 0.1174418029951963, 0.06109320696580904
0.056818779996331725, 0.12833119448461788, 0.06262630672541453
0.056014957813083986, 0.13015851333531192, 0.06336926258500993
0.06664248385701287, 0.11719715268658992, 0.052045638964217
0.06772203780710219, 0.11832777551177376, 0.05067640142602167
0.07112195032763483, 0.120649282608081, 0.04575615409254699
0.06974417816911611, 0.1348553957141918, 0.047818401152027235
0.06982342178996831, 0.13611737510811944, 0.04769978866019579
0.0663921922475114, 0.1307270970238937, 0.05236309284034323
0.06464012746147768, 0.1343182132959408, 0.054585300723458956
0.06473872869617622, 0.1107562852448854, 0.05445203430124968
0.06851050708167963, 0.11133062537218816, 0.04965735855162817
0.07034183003175981, 0.11310249005772484, 0.04692096028163465
0.06788514529628507, 0.09774245118790734, 0.050415972571242904
0.06775389915959773, 0.09428545342194235, 0.05055826687386375
0.06379156532052183, 0.0878537036758319, 0.05544614873222589
0.06111696164172317, 0.08713041239189001, 0.058335261245466036
0.05582056963411966, 0.106268002805992, 0.06353295679215823
0.05610516607752211, 0.10922643361644195, 0.06327589122587697
0.0602178214903414, 0.10560035059815122, 0.05940584668507983
0.06231420023975024, 0.10719323168694317, 0.057141198758580786
0.06003287841995826, 0.10096807607204365, 0.059595824476287404
0.06173104286876782, 0.11703330026248479, 0.05778739409144622
0.060034843816021546, 0.116843724025815, 0.05962255335331762
0.0645203251817145, 0.11697055004685848, 0.0547372493697727
0.06827635783480826, 0.11161806233180308, 0.049967199015740135
0.06695893020620279, 0.11367309375182759, 0.0516430616288931
0.06853896678795027, 0.17216156159409135, 0.04434439280476539
0.06658398094524168, 0.1876209967183244, 0.03612546510149379
0.0646325142532642, 0.1838193915796708, 0.04264820704273568
0.07057304269543534, 0.17346326519105504, 0.04016496799051129
0.0745402669377066, 0.17495526402375794, 0.03110010666776391
0.0734365101583565, 0.1785419254103051, 0.030701352008565507
0.07146139352693387, 0.18588820709449116, 0.027363143968593476
0.06801726532759567, 0.18672490844071057, 0.03433469742685685
0.0759317282962336, 0.17384869342589865, 0.028418198153259272
0.07860893019544166, 0.17412059525020152, 0.019629187918892572
0.07534421799543836, 0.18562628241418297, 0.014020275608067114
0.07256212045475352, 0.18673601721271377, 0.02321405996891656
0.07841071760005058, 0.17861074246265968, 0.013419731313218641
0.0808146442125259, 0.1736709702804314, 0.007468855805869682
0.07546641322770582, 0.18791119559059677, 0.005313591532605896
0.0777831453495585, 0.18135126764143258, 0.010943236502980524
0.07900914439383092, 0.1801048297149297, 0.002209265577504426
0.07877966651489322, 0.18081667358271641, -0.0012409152310997962
0.07547906772404817, 0.1870940241853104, -0.008712147141048183
0.08064074564900439, 0.1746824860364477, -0.00570533615940556
0.0803904697484508, 0.17382603505220975, -0.010624466127028293
0.07446827783578172, 0.18562484713375577, -0.018272189987447562
0.07790484450024798, 0.17701975648147, -0.018620298283366747
0.07950323739997495, 0.17394524801403524, -0.015723440846873608
0.0752594959816345, 0.18612669308145605, -0.013307525099062151
0.07735585246064348, 0.1756241561367964, -0.022267252303737217
0.07378008484995799, 0.18274307372192805, -0.025114029185948353
0.07510343351522528, 0.17347080395754805, -0.03101897794152412
0.06959574758471325, 0.18533981443573047, -0.032379626941891754
0.07307854328617311, 0.17310573266271273, -0.03571186643221249
0.0638778497753771, 0.18709479281471197, -0.04115948860970361
0.06829323668594123, 0.1777450439235378, -0.04137876040785099
0.06874988503581325, 0.18410254101181323, -0.03545596657115453
0.06794906268010728, 0.17217946625327954, -0.04521690741546285
0.06043791120009886, 0.18079373138387644, -0.050581468202717805
0.05756646464957047, 0.18384929177111237, -0.05178013712575974
0.0646215164339172, 0.17187664594605606, -0.050023345460183964
0.05031116016517429, 0.17976924455291432, -0.06111786959673608
0.05460658366034273, 0.18065208281951903, -0.0568874506950951
0.058521310913371205, 0.17657176090583843, -0.05482211214157298
0.059299977220548625, 0.17488699172391825, -0.05478888076048235
0.052209683619581206, 0.17910829155049382, -0.05980983718146463
0.044923352144401636, 0.18418148058250722, -0.06291914280646721
0.03758165509197073, 0.1795693683411527, -0.06973830897315264
0.0474862220205605, 0.1808141613395495, -0.06286674924136608
0.0433343570608039, 0.17553665055647863, -0.06789047270434538
0.02796621852331868, 0.17764239268872134, -0.07478021116831476
0.034874460045033334, 0.18413388887266868, -0.06903546337749042
0.0305272481535585, 0.17887739133485853, -0.07339636634381685
0.04015796291733955, 0.18095941254904335, -0.06771608764887209
0.013909374503946264, 0.175286890991599, -0.07941820377193279
0.021045900760690153, 0.1844797073344313, -0.07421454755337244
0.01943971167913959, 0.1748128919141419, -0.07842788942861068
0.029232558390520143, 0.18269540562461367, -0.07228294155234309
0.005535992242475709, 0.18657607695071887, -0.07605103761106108
0.011207938328042264, 0.18229443875776935, -0.0773300907772126
0.001238045783122128, 0.17589556042128768, -0.080420746951116
0.006817645339323286, 0.17887047982146143, -0.07918474165894954
0.011518308003422963, 0.17959592296617152, -0.07839051368069012
0.016919124927730216, 0.18422066887468094, -0.07540390123711053
-0.0024295290803678406, 0.18606288182376496, -0.07640135664213157
-0.006283977890164622, 0.1860484428022539, -0.07623386261192308
-0.0011215725512578037, 0.17320715926117633, -0.08130247997629228
-0.009238977765146367, 0.17569728093127016, -0.07994003939713729
-0.013359113985094408, 0.18608664844238682, -0.07526735080242822
-0.020549949855433985, 0.18746761582400245, -0.07297576445354385
-0.015712740277775562, 0.1754510079293587, -0.07900482135982431
-0.02476724335861933, 0.17673170575768665, -0.07627575414003243
-0.026270974463384156, 0.1873269677251549, -0.07118337761811068
-0.030262984082669496, 0.1756849996007554, -0.07461292379219661
-0.02899236184635422, 0.18787988789593552, -0.06991497520531226
-0.035369340391629166, 0.18342783003457985, -0.06914180973127998
-0.036118005123781924, 0.17386419370525297, -0.07261903926769055
-0.0411790239057767, 0.18438127868814125, -0.06531399072562434
-0.039514413211482996, 0.1724640312194394, -0.0713108178575656
-0.04626290129055094, 0.17418869607353576, -0.06646242186750291
-0.04790151918212935, 0.18548760464052808, -0.05989641697954099
-0.0517289291753441, 0.18390038556599828, -0.05758287376189464
-0.05018435005556719, 0.17251462732351563, -0.06422968046212771
-0.04954564428374606, 0.1729058139508065, -0.06457085349634496
-0.05377170798779857, 0.17295373378286566, -0.06109836083962094
-0.060730273721388076, 0.17472071602420775, -0.05332124451760497
-0.06056113925918492, 0.18683337077876971, -0.04609317966956272
-0.057255975598145895, 0.18052975754067263, -0.05428786323854052
-0.06359392894925532, 0.17879936631848362, -0.0476813530287803
-0.06714200843875136, 0.1789873085944141, -0.04242955173333992
-0.063483617158614, 0.18487019734699467, -0.04352787707455457
-0.06713650440142248, 0.18589211139884015, -0.03671014915916445
-0.07118580571991671, 0.1762968924180612, -0.037180535756133636
-0.07045942559411028, 0.18331713112558093, -0.032651609219561596
-0.0719867180296406, 0.18321613850575308, -0.029367308907121064
-0.07318140043107874, 0.1796109866127209, -0.030422247113561257
-0.07538540077713438, 0.17765679332088002, -0.02631246606847563
-0.07804140193441939, 0.17485468675722343, -0.020760178208004437
-0.0778827978036761, 0.17524109564851156, -0.020858474525278003
-0.0737205206399027, 0.18397084858440654, -0.023630630171536396
-0.07527119405369168, 0.1852509509237516, -0.015241548963816279
-0.07969847079683491, 0.17305497472930204, -0.01622944522886987
-0.08111218925010891, 0.17202632827011466, -0.009517940611238822
-0.07602154467393615, 0.18672866986294956, -0.0045621661928721665
-0.07611016602891582, 0.18483490573468403, -0.011917023558978465
-0.08131191980735741, 0.1726806511257671, -0.005247031109937081
-0.08059891507409155, 0.17477757716219006, 0.005979903613115595
-0.07719844742115424, 0.1833917842831942, 0.008172657470278183
-0.07857387471858499, 0.18096374890093192, 0.004810001168289737
-0.0786062586879613, 0.1787391505408003, 0.012072209403756744
-0.07436658465406978, 0.18480236001631603, 0.01997867893919808
-0.07915278048561399, 0.17352093554295125, 0.01819351624790705
-0.07753206203091442, 0.1812511345758735, 0.012980921994379332
-0.07910441381568993, 0.17241520877973376, 0.019920744761640907
-0.06934551866597058, 0.18604013335069167, 0.03217951919111173
-0.07276686737120236, 0.1830981383021244, 0.027404393190390276
-0.07522262331314228, 0.17347845252080546, 0.03068867972658678
-0.07545635715401892, 0.17527828894364125, 0.02836020258923279
-0.07330016889138886, 0.1740359832694117, 0.03450649912815135
-0.07171842202690712, 0.17253808111139426, 0.038737307764687284
-0.06820118843221114, 0.18337590068355603, 0.03709589647748699
-0.06408860058582752, 0.1871990893882643, 0.040760642998435334
-0.06831412049828206, 0.17300184788045575, 0.0441878241656951
-0.0622736630573965, 0.18121530894651683, 0.04795071091191795
-0.06158297390183693, 0.17670506937685165, 0.05133471608960409
-0.05589205582711161, 0.1874842911989441, 0.051213477735073704
-0.048441248458550835, 0.17475971386005806, 0.06467192892353942
-0.053548087100136546, 0.18418845427463923, 0.05572727949023888
-0.052420214184965466, 0.1797010407004963, 0.05935207843110027
-0.05819147687610143, 0.17192851481070823, 0.057409191509752946
-0.044115375604109205, 0.18730946083154926, 0.06178836937686236
-0.039427278313146776, 0.17938993258480296, 0.068771599293735
-0.03795275333874114, 0.17959686659776436, 0.06952016735630819
-0.05069420552183162, 0.181144578161016, 0.060150602511756114
-0.04245422164284164, 0.17630295261454906, 0.06817801990018446
-0.025507961006305726, 0.18034941627975867, 0.07474656566762458
-0.03431289526689313, 0.18398139026206034, 0.0693688737027863
-0.03927504067877578, 0.18584150601670857, 0.06572564134301619
-0.031172930756439603, 0.17414589705145966, 0.07479727388175852
-0.016381350680585754, 0.17916855583800845, 0.07763603580659015
-0.021406874047383468, 0.18351555688294272, 0.07455761504553762
-0.01946431488277458, 0.17413876230923023, 0.07864929851557352
-0.029244099530197885, 0.18374344847678192, 0.07178259345654625
-0.011711895154805835, 0.18076739289014604, 0.07795333381130072
-4.242207926605727e-05, 0.17420395731234214, 0.08101972063069297
-0.015624752324608925, 0.1832237531257035, 0.07611283599037116
-0.007294906191186903, 0.17503416810997047, 0.08038771516343846
-0.0014490761921519403, 0.18150045170206303, 0.07846760294375746
