-0.0011883915543643253, 0.02222180517401002, -0.07236246026540098
-0.010788973022757423, 0.02265710734171077, -0.07177426087764399
-0.00908325953153238, 0.023335164871142778, -0.07227642137728865
-0.008406444346141484, 0.0319507256775292, -0.07565207481658194
-0.011794874625205705, 0.026110285842461528, -0.07316889526904795
0.005653197385093651, 0.022868543369859936, -0.07247150609432573
0.00834891443861837, 0.02655900409403171, -0.07379145087272751
0.006374926594050285, 0.02527633578179274, -0.0734567508183651
0.012162073090984691, 0.021766079563618475, -0.07114723470681442
0.016616026688919573, 0.02315277142495063, -0.07088300701457806
0.019586618512024465, 0.024865313908604112, -0.07085999014319205
0.018248892977561538, 0.02395336928977248, -0.07082034287379768
0.025709367008946958, 0.021745877064878474, -0.06741200603858748
0.02629320589012031, 0.026527428301321355, -0.06943875513830472
0.0246891625836922, 0.02885773935539375, -0.07088923476565431
0.02940905474428373, 0.024159972826532407, -0.06705266472136265
0.033569331148436264, 0.02463200041231254, -0.06534244980954695
0.034830616875105726, 0.025980509555346584, -0.06531596569679606
0.04332714462630769, 0.026339451854359847, -0.060247046958279496
0.038753969319507905, 0.02165563638386516, -0.060824245884251664
0.044007334234722736, 0.023542111664009602, -0.058179684091539896
0.04214715625850648, 0.028723170708342502, -0.06204796853671331
0.04535086999071953, 0.030047157528102, -0.06033910074344402
0.04890661288002636, 0.023055932795707005, -0.053821466797147485
0.05236691677776691, 0.022342740252351043, -0.05001807834908221
0.05741059628709841, 0.029094983109456976, -0.04853672017046127
0.05497431113075893, 0.031734959023774476, -0.05255279248701411
0.05008737801127027, 0.029033868931783828, -0.055989061549120485
0.06321938369974044, 0.024786410216427496, -0.03749881498661931
0.06594214299223813, 0.03249038483137147, -0.038407944745792996
0.06317388321032098, 0.03238153817204201, -0.042724978233714475
0.056475863913442344, 0.022067722018357737, -0.04512073854085591
0.06587444707078723, 0.02326055922407256, -0.03102000559610154
0.07071926604370232, 0.030317265086401857, -0.026598686606415838
0.0687804456893197, 0.032220839535757696, -0.032833845264273076
0.0631788042706736, 0.022937065666673136, -0.035906383871952295
0.0719344281980528, 0.025369912143500727, -0.01633011213764476
0.07417209898250751, 0.030979904127155313, -0.015558202678114051
0.0704390826621929, 0.023338463496722816, -0.0186043008528432
0.0720930833370449, 0.029788082964227393, -0.022054124831418814
0.07376371837545476, 0.025760345297671485, -0.005169468827503552
0.07563894558764346, 0.030899066089102964, -0.004424005488049736
0.07189742145662735, 0.021638771765388018, -0.0059343881402911134
0.07061658458233765, 0.022117597507046644, -0.01562147562711838
0.07206252399533714, 0.021555858183834917, 0.0013592303266343
0.0754167145847022, 0.03218508943583634, 0.01108145486232007
0.07429390759540665, 0.02652271734824104, 0.00022532879083329925
0.07597770214625607, 0.03167269094046927, 0.0025760691791537342
0.07088181254885155, 0.024887786380040515, 0.019545570337125624
0.07268749940936586, 0.03165837523522966, 0.02231412250401512
0.0720931514427478, 0.02306956387367593, 0.009637698892944092
0.07444956100852852, 0.02984822495182645, 0.012170732826328069
0.06901748314470778, 0.024107884540084806, 0.02436000302316043
0.06866470062709092, 0.032002741220385406, 0.03290582720382838
0.07072209638297268, 0.02677043826247904, 0.0230700128015379
0.0703787510619479, 0.024856839286906025, 0.02127954197833139
0.061834404625498954, 0.02320767238232402, 0.03847101757000507
0.06399855927889217, 0.030283551460268083, 0.040192736399544585
0.06566545330277204, 0.03247936535245039, 0.03889412255723715
0.06530079865344911, 0.02655367289325395, 0.035373637052601034
0.05852183691918263, 0.023788968555453684, 0.043748742408076316
0.056861300705789035, 0.03191141749110089, 0.0506005100321087
0.059640787389313485, 0.030985694185446392, 0.04675745165312371
0.0571487095576543, 0.02573222063116952, 0.04687110844455386
0.04468883907259276, 0.026105058228323413, 0.0590781664244448
0.0482030887031064, 0.023518898907457633, 0.05474903826853518
0.048120444316336594, 0.03204326357937211, 0.0590289614702701
0.0533220805625009, 0.024790368472660234, 0.05057103658726084
0.03559124852857749, 0.02569388042541257, 0.06474538568835132
0.038777066373292146, 0.02153834899954535, 0.06074675680494537
0.038769261646849226, 0.02946286199086116, 0.0645472684172432
0.041481449179585475, 0.030556380718014396, 0.06325034619730702
0.025579589458394038, 0.023713617914354803, 0.068382606375235
0.02829284830334068, 0.0321963786316327, 0.07078242081509205
0.028339412447059543, 0.021946187106513547, 0.06647330161273578
0.0335139284578337, 0.024276065753961892, 0.06519398714840804
0.015489901765129132, 0.026347936957084518, 0.07254028074432017
0.012832139451181628, 0.03210204826378447, 0.0751076654207414
0.02037586583242602, 0.022359060184241473, 0.06949188558499372
0.024383520115804067, 0.022084813682283246, 0.06806016440845614
0.005445574162648164, 0.023565470698459698, 0.07278651312568317
0.004654499144974092, 0.03024564904583177, 0.0754051602404826
0.00780585659228098, 0.021856092389087367, 0.07177230942345549
0.010632300198750593, 0.029980603075814634, 0.07470702304382784
-8.00881064696975e-05, 0.025193075550873707, 0.0737142434185081
-0.00438852550076158, 0.02580584936763316, 0.07381448659138976
-0.000507014189206015, 0.03181814994144382, 0.07610916608248393
-0.02634566403800458, 0.025086976439229733, 0.06874393734306598
-0.017939241724952062, 0.029376040787046705, 0.0731061927670491
-0.006192084760211406, 0.025964797665505596, 0.07378336613209732
-0.006763208900775271, 0.028815643118489852, 0.07476160799033993
-0.012595812722932247, 0.026104099727576005, 0.073006759305105
-0.014272986556679997, 0.02743214763001278, 0.07318473850443197
0.010361273522799221, 0.004737667159728096, -0.002424423571460432
0.0173723154178761, 0.0049541416351563325, -0.008147528743490732
0.012930880769783042, 0.004877994103619221, -0.010702789609586491
0.007719379222207833, 0.004737567674985843, -0.008165633048551554
0.007465598190374528, 0.0048082184209519326, -0.013192751880006409
0.0012610434460739069, 0.0047381051339136825, -0.007821238981396505
0.00041231570279150664, 0.00473890141392703, -0.002979792305710681
-0.00018947745222828936, 0.0047380268843313774, -0.008391704807459025
-0.0012774320800950198, 0.004738573648122469, -0.004853651301119498
-0.006876662864912885, 0.004838783459941002, -0.014654104646727362
-0.005913621177336795, 0.004737843375105104, -0.00748611720690018
-0.0140477880087463, 0.004886778455174553, -0.009004370311336905
-0.008468510335911622, 0.004737857084717939, -0.004195957295995475
-0.009496779460255678, 0.004737845531428347, -0.0008639426595700649
-0.008617746191372443, 0.004737922473169592, 0.002754902662452114
-0.016966773717806513, 0.004914428991805417, 0.004698979772928582
-0.017228828215360738, 0.0049427304172569115, 0.008357178882528214
-0.007711140184034815, 0.004737715372585275, 0.006823091821056328
-0.0053483935772952965, 0.0047380594305953, 0.0061888715098441325
-0.008498098604848781, 0.004792240500570261, 0.011507865852761414
-0.009804574033119948, 0.004920664698329032, 0.015190735260543438
-0.005959768354644977, 0.004799870805016436, 0.013517669364118717
-0.0033610779371223585, 0.0047810964564783485, 0.01362877929791911
-0.0021893730508818713, 0.005011379589803312, 0.02052655148070539
0.0021653460670725258, 0.0047929049952370305, 0.014345889006318247
0.003596259454563353, 0.004738073308677814, 0.007270735072293863
0.005245894081434474, 0.004737821635759255, 0.00809381805371491
0.005496061170152525, 0.0047380449872894415, 0.006179312219823235
0.004381812511776829, 0.004738386007377283, 0.0043713842688910005
0.01690296642773566, 0.004949233574324034, 0.007228759932353291
0.011482835398800236, 0.004737469024164371, 0.002759661041563119
0.012194431236249349, 0.004737409606161219, 0.00025092187790457773
0.006489849272615837, 0.004738298966912897, -0.0017833917424551027
0.003772566621496891, 0.004738642507412468, -0.0026471561697449845
0.006073335644139553, 0.004737359895723391, -0.01094812236053667
0.008228918520865689, 0.004737577267651767, -0.007569598893940085
0.016590402550432932, 0.004880385590435702, -0.002054868866258436
0.021214591410016505, 0.005075363718359458, -0.006123525874675292
0.029914962538827104, 0.005601205599336331, -0.008481472967330783
0.036612860090297364, 0.006233752048803316, -0.010849063064932154
0.022469905066869328, 0.005223326659745695, -0.009275461936812612
0.03823259939189691, 0.006479630480442367, -0.014450100948310842
0.027241196702930015, 0.005553859078620891, -0.013271106477395838
0.023198912018760624, 0.005336224371399777, -0.012571287062856908
0.03336091796646928, 0.006260804172645849, -0.019179498933693195
0.011906759497447919, 0.004800842485665929, -0.008756336579089266
0.030753416810631526, 0.006160472794127085, -0.021260179847813844
0.017306551458422293, 0.005130256868468135, -0.014589798965056088
0.02840192124542614, 0.00611805031160856, -0.02360498540888425
0.008665571242301027, 0.00473901568654693, -0.009298784690838294
0.03036461139899599, 0.006485919271732047, -0.027463485141843554
0.016717294061729473, 0.005331812565205271, -0.020603169863002282
0.015460074777252825, 0.005293714102075103, -0.020798312226726193
0.016309227596204512, 0.0054051390555417056, -0.02250491229773815
0.01265650286702246, 0.005175932979708902, -0.019736835402937906
0.020855524506644657, 0.006352897378800481, -0.03355353434780178
0.008972403089190745, 0.004906451698271742, -0.014991624917894408
0.014964997222878735, 0.005746062959136351, -0.029271997180515267
0.012682781542320077, 0.005731113473769263, -0.03014787019401846
0.00664155039334785, 0.004938985087175676, -0.017472225136089398
0.008213619620571884, 0.0054112884203779505, -0.02651844867443754
0.014541860027991653, 0.006438141953862301, -0.037715300459079455
0.011089718705917857, 0.006506143490871339, -0.03963878287877556
0.005479844621312898, 0.005445848377581873, -0.02793983936177577
0.005463970832613207, 0.005858943661292078, -0.03366681105377646
0.0024432422852650963, 0.0052197966151569086, -0.02410816290109754
0.0020825724068570996, 0.005487165963457186, -0.029049560704230246
0.0013606267912380427, 0.006061776182000925, -0.03627764638488723
0.0010789069537531968, 0.005382933304716427, -0.02738897263631702
-0.004645938551326908, 0.005570290000159787, -0.030187849494813734
-0.004766338167989342, 0.006177735398150459, -0.037268842271436314
-0.0064264692876298945, 0.005690612033263509, -0.03159908105905861
-0.0026004409526237237, 0.004988706049681111, -0.020291712458161817
-0.004922849293477464, 0.005290894531958331, -0.025384230347932496
-0.007712364409637025, 0.0054892573580647315, -0.028015599605040933
-0.005734787988163792, 0.00488324912851462, -0.016722905430194435
-0.010643794278924895, 0.005546052090151721, -0.028223645921992273
-0.010152766640057154, 0.005270699345342094, -0.023002858350221044
-0.006514216034452262, 0.004774302230134026, -0.012266586135375242
-0.014466137776309618, 0.0055658923862250825, -0.026853523925932005
-0.018703964691959292, 0.005796108311885057, -0.02767095589273702
-0.021271476323858188, 0.005795565820552087, -0.025752526405542306
-0.015271890720462445, 0.005143198660030298, -0.01707983820979946
-0.014871252971014548, 0.005239958731087496, -0.020107256160543673
-0.016741858436789755, 0.005268707138815743, -0.018711613786372237
-0.01156817219708502, 0.0049221379883176266, -0.013474972686188136
-0.018117592568363216, 0.005233853864605886, -0.01707430968205846
-0.02328073529681016, 0.0055623225344789504, -0.019518507871062456
-0.0184661348256812, 0.005081915769892573, -0.011959790887710138
-0.011982581189493793, 0.004807095847336596, -0.008413451521994063
-0.021702126270157572, 0.005345155672274478, -0.015710064677471894
-0.02172661045664269, 0.005263885535314462, -0.012406259192804338
-0.016953707377762084, 0.004925662678670053, -0.008558144803919011
-0.027465279216897336, 0.005549410505121767, -0.01260558902615214
-0.030576365830684148, 0.005652168305091104, -0.008830831133842856
-0.02044744816250414, 0.005031374245680625, -0.0059393565380539155
-0.02501061606716521, 0.005307723289778587, -0.007623507552622755
-0.03263598865961498, 0.005755162087994938, -0.004607645213340098
-0.019408542783476222, 0.004992699903952896, -0.004344848546443067
-0.021617238912400843, 0.0050685803491413335, -0.0012747967408683254
-0.0266101064910726, 0.005349543440782879, -0.003582339968193296
-0.027610803096057387, 0.005410510137927795, -0.0014379712739015114
-0.01873464681939913, 0.004965237385410696, 0.0016860818401484927
-0.021170345325242316, 0.005048209322272765, 0.0018726332001104034
-0.020702735399261287, 0.005037834305753327, 0.004451377663438899
-0.018170950358976458, 0.004963223561090797, 0.0046147597237695594
-0.03787537699555683, 0.0062908468090734065, 0.008506557878813293
-0.030344336885122496, 0.005609425192760103, 0.0074698279275726
-0.03494448458239728, 0.006067872704223573, 0.01008419664063959
-0.028416793946451517, 0.005559047373505523, 0.010538397302050154
-0.02512538834257105, 0.0053844627423404205, 0.01077307499323676
-0.03830929827055264, 0.006609596209433254, 0.017917535738062634
-0.01914960324306393, 0.005081647133368304, 0.010811498297721683
-0.035936808200718734, 0.006528467333302466, 0.02056817803594837
-0.01877520186154935, 0.005118692460849481, 0.013210980679464638
-0.03345121164739964, 0.006453296933406143, 0.022984362831262213
-0.023192106006258803, 0.005563287224179555, 0.01965884661460942
-0.028485111891783547, 0.006070503313129598, 0.02265997126671116
-0.01224620804151479, 0.00487839334114527, 0.012482169006333522
-0.019854891713836614, 0.005449440468566162, 0.020336811103246862
-0.013091066784269792, 0.0050456139426417156, 0.01725838404725693
-0.016450195323021853, 0.005364626517649404, 0.02154169858966595
-0.023325660602260396, 0.006206212132993234, 0.02984941626656306
-0.010147594715638083, 0.005053637407694, 0.019237515056391333
-0.020944018594530715, 0.006315944255479301, 0.03300858879341677
-0.013943902801653167, 0.005463004141990311, 0.02495535473780274
-0.017123903296807696, 0.006079427395638815, 0.032239687261008246
-0.00909253221489022, 0.005442711073665711, 0.026797801327971254
-0.004086098846391578, 0.0047836141141242, 0.013631721397117092
-0.009547918465817895, 0.00538938994680732, 0.025541489042877653
-0.0075388309043255145, 0.005400715703584808, 0.026415917395973806
-0.009997724646941222, 0.0063035945968475705, 0.03764616851837638
-0.0027799703881921036, 0.005231431256303421, 0.024317995352339042
-0.005390664503699119, 0.0055261262673934695, 0.029227903020659432
-0.00016217606136133335, 0.005379190567484063, 0.027304000467815667
-0.00044737951197912443, 0.004894817142030907, 0.017910673264588714
-0.0021746666417268965, 0.0065642293224057145, 0.0417425043774255
0.00027741676753749786, 0.005422296094541694, 0.027986429355534234
0.0011409456903912255, 0.005242196379500435, 0.024603835222360926
0.002907569440146093, 0.004886108118975268, 0.017507587481410326
0.004844149448034313, 0.005218772173619188, 0.02377161789322341
0.0070147037624905244, 0.005132874958178485, 0.02206216609414361
0.009709833290459637, 0.006028934793380749, 0.03460778224903016
0.006987930068687229, 0.005482999612407639, 0.02810333270036875
0.007493944799503775, 0.005020540447983841, 0.019374770003160426
0.013370128551508162, 0.00550406083185216, 0.026265621401020824
0.020021706293274474, 0.00633461232115744, 0.033813969010970654
0.011914289567884088, 0.005287383468155835, 0.022784316140197325
0.012199295077653598, 0.005223592328000956, 0.021014899659065035
0.025719309657836337, 0.00636266228981728, 0.03014007186419586
0.01033987910321104, 0.0049524010615103475, 0.01593176431003962
0.011154904197296159, 0.004923259584547146, 0.014496578657869064
0.01595410958326453, 0.005328012879300192, 0.02114593811048814
0.01894712120594569, 0.005456642405380513, 0.021259560098108816
0.01932016318463709, 0.005191506353456155, 0.014386185225196857
0.022364250715143356, 0.005612583813237085, 0.02189674676289345
0.020876550045739874, 0.005391877399277494, 0.017634341506004604
0.0183302376222311, 0.0050773870218307725, 0.012308581986994818
0.025339842434221133, 0.005550540476389923, 0.01650485086430472
0.026196860287105484, 0.005577762683593478, 0.01593581295655673
0.028701251051879834, 0.005669602857069655, 0.014214908129434439
0.02128469078522116, 0.005095074504699329, 0.0071920902011254565
0.03598775054604529, 0.006231242972922517, 0.012690138744188787
0.025177845918465995, 0.005374467181499021, 0.009760879214017333
0.020383763720933243, 0.0049869575890806464, 0.0034211536048674683
0.038012632885474434, 0.006265918754099247, 0.006420227355689532
0.032190015520943624, 0.005698446746401393, 0.0030999764559973735
0.022390841989689665, 0.0051126955917095394, 0.002179769942694458
0.03627966947182285, 0.006057144055720521, 2.110497439645286e-05
0.024326137790279652, 0.0052133882596416, 0.0033290427609766636
0.021025266843714134, 0.0050300076236343, -0.0011244425376375849
0.027815545787811678, 0.005422909391369588, -0.001886129366990682
0.041197183821429575, 0.006510214409745786, -0.0010152564823116073
0.02347718280220372, 0.005199339997756975, -0.004742534784941308
0.03730715967997025, 0.006251036717513915, -0.00908293499629487
0.04399986660008715, 0.006986359786730671, -0.00969203950486051
0.04273970600692568, 0.006844229929914731, -0.010837925364026602
0.06043534955129876, 0.011526122962210027, -0.014178603051029245
0.04870149122820798, 0.00804452334361074, -0.018052616627235032
0.031052986908392873, 0.005743753683141211, -0.010669806385879374
0.04514740354880335, 0.007397313912160661, -0.015856670715945455
0.04474265397269597, 0.007434041884113573, -0.017676404618883465
0.03244419631870962, 0.005971252479283302, -0.01397198037530504
0.05455943439747207, 0.009660677392045897, -0.019973983705435967
0.05029120837637867, 0.008694299884467103, -0.020887794802298153
0.054959086111399845, 0.0109244047880903, -0.025992295459150563
0.04035876497133052, 0.006972532705363782, -0.019824278294603967
0.0423330502508299, 0.007356574737450489, -0.021759678806778926
0.050924451673751314, 0.009304377583929595, -0.02506969840679389
0.04438822664851891, 0.007818554950262343, -0.02453121016998053
0.03984351507634443, 0.007317213217129945, -0.025506508407821628
0.0454021414394725, 0.008639332599129254, -0.02962100055563251
0.04278342677828715, 0.008677466314932549, -0.03352303515268212
0.03739686728805944, 0.007116047968297005, -0.026701551560384694
0.043363544136783845, 0.008450078773790998, -0.03137369543393015
0.03312269430778202, 0.006694859680483503, -0.027536112779617622
0.024296037749971876, 0.005787668869118025, -0.02278363528637668
0.041737660330305966, 0.00862260923280298, -0.034511656756303445
0.046923359887665966, 0.010866132789722444, -0.03847879132046538
0.04468665000129125, 0.011609183600409204, -0.043309094267135195
0.03591649251558171, 0.0076721461548000846, -0.0343890206415213
0.02589138963843964, 0.006185711534470084, -0.02734881435341953
0.0414187115819494, 0.00916919610100536, -0.03802624999957548
0.02468112309034965, 0.006252852594893604, -0.029429994567118836
0.03784234990810334, 0.009411041051500566, -0.042844097622371
0.04205807623788412, 0.012131538056489857, -0.047317899044463374
0.03826031257887883, 0.01119355894699112, -0.04796021768057417
0.019558348052123836, 0.005877516373616101, -0.028170408283965696
0.029365910537714462, 0.007307244292441742, -0.03699295487772765
0.026316597778479518, 0.007284012039408338, -0.039030268616807307
0.028850690174242563, 0.007811021709855195, -0.04165533427184977
0.032408846917835785, 0.009261047762213197, -0.04638987912567304
0.036762610824903945, 0.012014441230042559, -0.05126925277020174
0.029361929104030855, 0.012071003124009735, -0.05595835521155726
0.02509213736753268, 0.00896634434853106, -0.04949520147085824
0.023660628479478474, 0.007651464808276878, -0.04357106251428271
0.02139926626393726, 0.007524403885939459, -0.04377285998755784
0.02149524847179829, 0.00762180403094157, -0.04445930048721527
0.016927101298642507, 0.007033495285416283, -0.042110372751232694
0.025879143458191724, 0.011333309952679707, -0.05594487768745769
0.019147498752590544, 0.008349346734483142, -0.0495360643194492
0.015218672036668244, 0.008434152534572645, -0.05121692654720013
0.009464212915360485, 0.005911808168780571, -0.03334672937085285
0.017308839750259028, 0.008413993620136973, -0.05047718769272911
0.01436873371711022, 0.00764736022037183, -0.04742917442665619
0.012897142890079476, 0.008676704588644505, -0.05283219287961492
0.008019850717665176, 0.006968481338307374, -0.044208389940894155
0.010454263137224005, 0.008181889762289306, -0.051411599457755364
0.0076118856107917805, 0.00883914368184209, -0.05445159594535176
0.00525100022574769, 0.006085354899064168, -0.036194604896414344
0.005236530891874676, 0.007145721868173659, -0.04583321694725099
0.006238730402954367, 0.007572057863370011, -0.04863952168196047
0.0020675351505095776, 0.006951512386922052, -0.044761191590903936
0.007837220413179571, 0.009617809932582268, -0.05741396198724071
0.0063659460044408755, 0.01067883343294175, -0.05995064652155488
0.002824879263334337, 0.011890443156342346, -0.06273322243451396
-0.003569723038674933, 0.008219716763684347, -0.05250771165568103
0.0011180084975112756, 0.00737811341256235, -0.04770721548978056
-0.005653943974459983, 0.00699211039766874, -0.04472998633581749
-0.00023998043250507, 0.006354430671829889, -0.03952340636197727
-0.007762335047510123, 0.010496849596678886, -0.05940546360657497
-0.0006135984237925782, 0.006991556732676705, -0.045091432845544815
-0.004669124834808406, 0.008739517434787791, -0.05441727368525309
-0.004403880554313573, 0.007175239264873429, -0.04613421312487683
-0.0033123093104002977, 0.006478778733768838, -0.040754697517096795
-0.010172673192651457, 0.007292281617921018, -0.046029309325300444
-0.012042916726377959, 0.0066627500118085796, -0.04111531259027319
-0.012449426112413156, 0.009492706934483725, -0.056109482402135105
-0.015866852529409094, 0.008884007477095257, -0.05281590012828052
-0.013997727044463396, 0.00946948457103621, -0.05566182848733771
-0.015787778074876416, 0.007909003096403244, -0.048881118082065925
-0.017740778911903513, 0.008317173347240768, -0.04992439475667237
-0.0164973659020829, 0.007068152351357694, -0.04252061656823143
-0.020120365723072412, 0.0073115234593595976, -0.042765338091310265
-0.02292816976742685, 0.009807141485891213, -0.053820388329702165
-0.018175572739134283, 0.008757086377372129, -0.05155145746541259
-0.016364168385031862, 0.0077632974234317035, -0.04761787406787404
-0.023694794874453872, 0.009611198670622883, -0.05284606649934267
-0.0191882939127493, 0.0071999792916363995, -0.04235817333950048
-0.016662200405287077, 0.006308918446239805, -0.035268656822601434
-0.026726652615336334, 0.0071455193507832665, -0.03762156432797381
-0.017941457684187735, 0.006215889827866978, -0.03349157836068279
-0.025600660198241518, 0.008576073128417206, -0.04751534642803305
-0.021535617588492262, 0.007196129254992662, -0.041205638160612366
-0.039505494846721986, 0.011552257832809911, -0.04792564504933289
-0.03342642537613621, 0.008544514612338676, -0.04221418832338328
-0.02769568122529497, 0.0076765042243110366, -0.0413248066970376
-0.021347194459017328, 0.006369958055488777, -0.033449343405636586
-0.025132479217432842, 0.006536557337264767, -0.03302349267854632
-0.033997805250805604, 0.009048835341702447, -0.044211869307280605
-0.030440372713571126, 0.007902800146246145, -0.04131275900574436
-0.0355241253860139, 0.00836918739708741, -0.03957853393011075
-0.036369039838609424, 0.008752779311616297, -0.04078881430056982
-0.04039561025402009, 0.008813449148391233, -0.03713520121047001
-0.027143795471766628, 0.006504181595959536, -0.03093193745718722
-0.028164064125084345, 0.006247358832740025, -0.02600219297818515
-0.03467263016021801, 0.006885408320019864, -0.027667031814025966
-0.0374079678930499, 0.008233246029533266, -0.03710904266880794
-0.041941751411829944, 0.008028897307312096, -0.03059730681002837
-0.045636109774556954, 0.009576853208364156, -0.03544240028550083
-0.035404670814302264, 0.007148205371745942, -0.029630337866866148
-0.02666188330065499, 0.005918650826349017, -0.02229130443589692
-0.039854267498244444, 0.0073622064492538455, -0.026042198390435357
-0.03413270273462868, 0.006595883326246929, -0.024770136756521174
-0.04946380862167899, 0.009688323269049176, -0.03073981459997933
-0.0454947075242761, 0.00822373796408959, -0.026459751424808435
-0.050032031515257785, 0.009636696726730488, -0.02938118821628278
-0.04704528310762292, 0.00796669605147652, -0.021303851077502788
-0.04415185647038092, 0.007904953743256744, -0.026157739900741214
-0.0298344562818608, 0.0059334654634433485, -0.01815297793279541
-0.04079461015926479, 0.006780761974849927, -0.015519005204430354
-0.04950087183703893, 0.00874090974708781, -0.02302687378439489
-0.04550918300569345, 0.007861193872699412, -0.023113634047746523
-0.052954625618604825, 0.009053343261504577, -0.01763522406465414
-0.057785171360290974, 0.010398547707444812, -0.015054724542414088
-0.04535373560256789, 0.007537645898162928, -0.018059268780599297
-0.046880743180620355, 0.00747880054190676, -0.01208215378595324
-0.03748256193435986, 0.006303670367362326, -0.010581009805682629
-0.04473949796056191, 0.007031659581176027, -0.007556274553711738
-0.05917622424948221, 0.010647539901847362, -0.011170988255166471
-0.047346329949639124, 0.0076367062332490495, -0.01439511413439842
-0.05426029371400478, 0.008938850483283248, -0.010923922270018874
-0.04659182901165394, 0.007358520776119793, -0.009658115969792685
-0.05560707515792627, 0.009047669550473699, -0.004610742431653233
-0.035339412697319564, 0.0060622811471560435, -0.008448198485738238
-0.03951475851538545, 0.006392060420720632, -0.005724491416148159
-0.05664494512198893, 0.009417309476001603, -0.007831831085381062
-0.04915034276090846, 0.007647287311884576, -0.006283356685370507
-0.052341477564857415, 0.008168238444902614, -0.0028035143264022967
-0.055363485359219373, 0.00897016842714231, -0.0037531563832923793
-0.03369457137380038, 0.005823829111155766, 0.0008501057564666032
-0.03835939684982867, 0.00625447917992056, -0.0020325932099468642
-0.04892732059027057, 0.007572630653874739, -0.003815886782792267
-0.03336545987326136, 0.005801752420218201, 0.0027766359807421415
-0.05801689715081407, 0.009640747997820519, 0.0013354204187369131
-0.05145409702860036, 0.00806045074372255, 0.007682675473220421
-0.06003378326758552, 0.010888884756401703, 0.009370798820554376
-0.04800224269133809, 0.0074628383592866615, 0.005291779946920166
-0.057432296849286725, 0.009558819257114225, 0.005768015682322916
-0.05012213156483791, 0.007902275524128432, 0.010898942523321598
-0.031787280818351304, 0.005746603367662187, 0.008340230656846989
-0.04747093865595148, 0.007552869908500345, 0.011848472560598134
-0.0592159513639647, 0.010812047947840403, 0.012719357068335551
-0.06032007653221112, 0.012082038536457286, 0.018927976623485575
-0.0486972408166316, 0.007836874973226741, 0.014629197761017428
-0.04295685098987949, 0.007009976432739454, 0.014170206277013559
-0.045347733869227295, 0.007541589864167114, 0.01815315532946951
-0.032318520855459, 0.005946461905264985, 0.013597221969964806
-0.05366750752888112, 0.009523348235146143, 0.020878922821415402
-0.04750650800388711, 0.008106496316387046, 0.021576328842356524
-0.055132487965254856, 0.011263056605895811, 0.027293626635729266
-0.04190271512967361, 0.007267682198321449, 0.021278303854394734
-0.04960089890041314, 0.008874319882774477, 0.024024785389689773
-0.03863412890706251, 0.006926978094008712, 0.0223743170760301
-0.03192157089161532, 0.006172708382791981, 0.019752450882494714
-0.037506179634492036, 0.007014892638014494, 0.02529734106326503
-0.05368709473176739, 0.011144017930962383, 0.029483464534471728
-0.043296786533363905, 0.008754024211541502, 0.03334328475039291
-0.04294874711956618, 0.007863210581589737, 0.027554746408732518
-0.047574013637549775, 0.00937357998076353, 0.031408648711699974
-0.03490367436702088, 0.006795812520307552, 0.026388101905104194
-0.03831499121861455, 0.007710642499717033, 0.03212807757407204
-0.045008403308406456, 0.00942581525858865, 0.03530859921153256
-0.04082574594458574, 0.008671842483818427, 0.03587452812216081
-0.039318991280992796, 0.009116994737400807, 0.03995287662656562
-0.02319047567821763, 0.005751028456794936, 0.023374570506176244
-0.03601923330876042, 0.007672989321487397, 0.034286322685601486
-0.04023653800437911, 0.009194661259603745, 0.039448285639467534
-0.021917045423444755, 0.005929242182159657, 0.027104404152462
-0.037764101560117384, 0.009644156809644209, 0.04412651053046546
-0.04020145377123983, 0.010761260585609413, 0.04516469191721445
-0.032603325062503616, 0.009140534170630654, 0.0457074526186458
-0.03141228026279494, 0.007838616876674422, 0.03998962512505495
-0.017685602485525222, 0.005654618001318818, 0.026491162454207268
-0.034674316254427726, 0.009574894638041016, 0.04623219416035206
-0.02446856471789763, 0.007203126382735932, 0.03960217394037635
-0.031683398449538235, 0.009232153261722357, 0.04674207690112963
-0.034104568558277495, 0.011449815121085921, 0.051636990745332005
-0.03018383376108207, 0.011409066844640077, 0.05392475446523477
-0.024447175606374473, 0.009091888095410033, 0.05031945175722115
-0.01483598902222343, 0.005802995846519611, 0.030020628143354038
-0.02030854323746823, 0.007306772182790872, 0.04264295896350788
-0.01939772089142036, 0.007576756121073378, 0.04508816756447406
-0.01519500472768617, 0.00675249830104264, 0.04070891377444394
-0.024137565510664413, 0.010414576064098489, 0.05464989276395667
-0.0187046490617473, 0.008583637925702688, 0.0506514727655978
-0.015391469891018422, 0.008831486680366806, 0.05274193007935925
-0.009071911618415373, 0.005878759511222824, 0.03308198870001087
-0.012435183088783035, 0.0069617894699501685, 0.043121496859434255
-0.01163141295436446, 0.0074413498884389195, 0.04674274248538519
-0.015356912294345899, 0.009231755664097702, 0.054337017650256655
-0.00953083636929589, 0.006996186188905349, 0.0441001967848616
-0.009859820917565225, 0.008451203522162479, 0.05257664720845987
-0.007922888092891716, 0.008712245539985548, 0.05392768721627272
-0.005689270940317695, 0.006349508399606189, 0.03905052135504193
-0.010720554652531676, 0.009399970925198918, 0.056093039339012246
-0.002465099661783544, 0.0058380994006241305, 0.03378714000457177
-0.004718784932007761, 0.009567203814921085, 0.057588600320349424
-0.00234190961136517, 0.007371909516632577, 0.047616760341974276
-0.0029081894855080117, 0.008189777712858119, 0.05241953241902139
0.004441988081751271, 0.011185975125497058, 0.06120766924920714
0.003388921582134119, 0.008282664384941553, 0.052754979828049504
-0.0007150806230651011, 0.007779254305519414, 0.05045814872801488
0.007135979274957601, 0.007329324482398124, 0.04686810968154059
0.0013737849512407156, 0.006621715175074267, 0.04240291323127693
0.008083457332158322, 0.01056221650907382, 0.05950396982288933
0.008517823546769459, 0.00878848030393194, 0.05414994264984242
0.0082973198270321, 0.00968376074308145, 0.05761269039350572
0.011895950492141196, 0.008339456285244982, 0.051737161048258457
0.009004734134141962, 0.007045633610938984, 0.044548357208907784
0.004785911990053171, 0.00627392300911493, 0.03832534409582503
0.01301366660504432, 0.007143005284102936, 0.04424113653254573
0.009604355352913464, 0.00919344200104378, 0.05551239773486427
0.009330015966027885, 0.007851654004646465, 0.05008266297055532
0.021904956656954733, 0.010402229128587653, 0.055562279371042064
0.018189560644238528, 0.007969515818817309, 0.04834616656929376
0.01111403119026055, 0.007356029269964053, 0.04628466893900726
0.018316453301159222, 0.007517726842934574, 0.04511418170090627
0.01967240768757462, 0.007116165372850116, 0.04150626474026934
0.02511376852433493, 0.010255539338084542, 0.05383679513124135
0.026219520770536145, 0.009631738976409971, 0.05176855338387947
0.015404227396760926, 0.007323720630666929, 0.044779903087199854
0.024524566821875055, 0.009504698165329777, 0.052016557122384316
0.020787352488685386, 0.00777655204774295, 0.045946476236235975
0.022137759585314266, 0.006689247172418649, 0.036910219637560034
0.02364799987917845, 0.0067179035332955855, 0.03617469751715629
0.01668159581834067, 0.005941284613392416, 0.030756556175407453
0.03505999145001139, 0.010691592516960594, 0.049107816959973
0.02606800463219199, 0.007922057832857994, 0.04433568190891029
0.03728646133091817, 0.010675552133527232, 0.04736017392138774
0.02506079192002299, 0.007229340272620595, 0.0394212974129101
0.02574205150107411, 0.006697720328032533, 0.03456200679819578
0.024024475009222904, 0.006532011499992744, 0.03379116730617577
0.024836051996940653, 0.006432918039564979, 0.031814474072251644
0.040636689263125615, 0.00993302191355375, 0.04242371698153341
0.029350823825294213, 0.007693521687019697, 0.040356134551774156
0.03665232260211867, 0.008549683844230027, 0.03947272003206488
0.035825461124837546, 0.008822902671065724, 0.041655237551004615
0.032737706937195535, 0.007534775534755586, 0.03616831613830596
0.02284462565332198, 0.00591276191008248, 0.026101773197161646
0.027114863037356607, 0.006201203038545653, 0.026393992362721105
0.0338952826664944, 0.0068016599392320505, 0.027731410304513777
0.0431253460914022, 0.009647615075133594, 0.03886669350538997
0.041381401840251034, 0.008229067725634526, 0.032540451761281744
0.046189690079027734, 0.009581657337663, 0.03476984323567789
0.045238780458456807, 0.008467528193288169, 0.028686536068263352
0.029315081539489477, 0.006217397836313564, 0.024200865254639995
0.04022732729255238, 0.0074078485646930795, 0.026043552122895552
0.035367095187689074, 0.006585118563889751, 0.02271065825688713
0.04249068341728997, 0.008112269521036383, 0.030362060570316842
0.03883975913695659, 0.007338065146178248, 0.02726464290767895
0.04833158156203178, 0.009124614533824012, 0.02842243010583143
0.0426473346889412, 0.0075377979874451245, 0.023725101609829557
0.04802263656254348, 0.008217159733057831, 0.02146432862928264
0.03648409856455964, 0.006607835751571013, 0.021366515867848105
0.03317600885882115, 0.006126381001040562, 0.016435371240419244
0.0559307633869932, 0.009948149212079682, 0.01818629993317033
0.05079665161315729, 0.008476314073703823, 0.017129283710961906
0.04279370556858387, 0.007394391982244808, 0.021407538335931522
0.05970076902883151, 0.011264557469871404, 0.014878007754847192
0.044762141192204216, 0.007367365830678629, 0.016311287018174917
0.041407677977457764, 0.006742787268252586, 0.01301528184596392
0.03685959802927157, 0.006238766457792555, 0.010175891031988247
0.047634843430293485, 0.007478675265399535, 0.008610847801826119
0.05515453696013255, 0.009439638165935606, 0.015377570061100479
0.04843044243630759, 0.007734691547672967, 0.013010042704138206
0.0587811399370737, 0.010037699450320799, 0.004935244017239987
0.052954707444677715, 0.008425135114872737, 0.006831071308690686
0.04697751716217151, 0.007287283698565809, 0.0037729010072270657
0.0399440411471953, 0.006452933432764465, 0.0071893892231025686
0.03839032035877181, 0.0062824877526873645, 0.005033542662204803
0.057606925013930686, 0.009688097210426311, 0.008486639471752598
0.05269898349628681, 0.008250309395208147, 0.0016746627416125818
0.04804941944128304, 0.00748355140326751, 0.006094015134188586
0.054810062624662724, 0.008799443153651616, -0.00126496022112185
0.039579325933689666, 0.006366547071130746, 0.0021873235249303706
0.05109544702490136, 0.007871070363930737, 0.0004280144654708264
0.050932577909905935, 0.007853296557661905, -0.0014873435719946703
0.04422294244161036, 0.0069400704954545684, -0.006922251504402844
0.03756040532596515, 0.006226401300227492, -0.0064795109647921
0.05700990387916279, 0.009391321085639167, -0.0027435973992794003
0.06251996391945726, 0.011867571056192803, -0.005629192910515594
0.05307069019051094, 0.008442367906353486, -0.006409986848889729
0.045914019542272665, 0.007244715273281599, -0.009091542690397749
0.06796056606165175, 0.017423388381034015, -0.014235799120189206
0.06229177316860805, 0.012899437924490621, -0.016161053502957035
0.06755288006025728, 0.01856023145799619, -0.0193104094440921
0.06645966187869785, 0.017371024106445063, -0.01995996788306828
0.06242648621287064, 0.015116009896047345, -0.025058377962460444
0.06378291151123797, 0.016270597627115694, -0.02454908925584973
0.06672686695178529, 0.018848598627215767, -0.02262592384777075
0.06385699875452226, 0.017538626918224463, -0.027588173538706903
0.06014562377083184, 0.015426628012542442, -0.0308203807400989
0.05469617393135864, 0.013760987846430102, -0.03601742709001832
0.06010979789639802, 0.02007089076275494, -0.03815487722598165
0.056989700019752884, 0.017565307792552998, -0.03992595676621364
0.05339531788162318, 0.016018685840040518, -0.04226505857313198
0.05795944878744422, 0.01973931295828503, -0.0410104019805447
0.04883800039726768, 0.015572809740526213, -0.046865271434038916
0.056475304913107066, 0.019080963415012694, -0.04235887472751664
0.050132288598747396, 0.017476549314737265, -0.048127994649245595
0.04794563355660122, 0.018723050832626428, -0.0514920459292923
0.04716592003798721, 0.017467659349169436, -0.051010018633936456
0.04329199532634264, 0.016333616389397978, -0.05296642256208367
0.045351420380676424, 0.020643082506838512, -0.05532610201255826
0.037245700111471616, 0.01325043998951407, -0.0530570149821091
0.036821209477639574, 0.016135692344926643, -0.057431488475846136
0.04068676008111346, 0.02135368060680084, -0.059356836559026044
0.03370853182382346, 0.019381439788470088, -0.06222055293366244
0.028274110352891114, 0.01397105740493357, -0.05938634764625158
0.030352814386602315, 0.015368522161647875, -0.06031386218792194
0.030154141088990716, 0.017251535730953227, -0.062374090799728915
0.0259424035485558, 0.015843131507679784, -0.06283615804855047
0.01916738514169322, 0.01809158965806, -0.06729695430900542
0.02452461682160754, 0.01717108957067618, -0.06470326884917701
0.011840866934809282, 0.012911373774806414, -0.06326135137475226
0.02183586945425241, 0.020742204453295866, -0.06822001238207945
0.013712813400908838, 0.020321219402372925, -0.06999936771456196
0.008569533121211509, 0.01882793360129579, -0.06989835684389684
0.007373893234342749, 0.01670490133201194, -0.06835689980289698
0.009515855056010169, 0.01965169784777972, -0.07029107029096895
0.001670139057467092, 0.017977998683050684, -0.06989238059008418
-0.0001947144278879265, 0.020669491281630255, -0.07158916082466092
-0.00039894117613114644, 0.01624033271395851, -0.06834590611671104
-0.005037223191110687, 0.021195069004767267, -0.07171859857719935
-0.006733428678754877, 0.01845922418347932, -0.06988968020433174
-0.008184228189467218, 0.014492800051174079, -0.06595928875414335
-0.014197203608429434, 0.01526692876505553, -0.06588058223467302
-0.013547431990336884, 0.014329316585641464, -0.06484912866760685
-0.015724612209792994, 0.019244321812406213, -0.06893104777637149
-0.02314182267022397, 0.018263843239177898, -0.06615727819562939
-0.02635168794482274, 0.016846440437125167, -0.06370053104549689
-0.027958397213692168, 0.015141168197490876, -0.06117981483949055
-0.021772695195300312, 0.0170031611729869, -0.06554873495839617
-0.02868294864664931, 0.01893957070357334, -0.06439572713388597
-0.02729183557907823, 0.016769272817233352, -0.06318921362699695
-0.024905426334409543, 0.012976538995961635, -0.059479186919008206
-0.03766014845074742, 0.016196172648394815, -0.056940050617050764
-0.03408957326161384, 0.017817498661126155, -0.06091641170749031
-0.04211750899384768, 0.017902218871610913, -0.05575236528655929
-0.037208274827019515, 0.016961420248004174, -0.05811576737260378
-0.04178063362836823, 0.014460335636153442, -0.0516409997792634
-0.04548754204774835, 0.020238049531058268, -0.05490496118660905
-0.045651124873591645, 0.01843930971100149, -0.05337771370172481
-0.048520858575933745, 0.02109444278121562, -0.05292492328806951
-0.04960759693669309, 0.01581642548982967, -0.0463733853474216
-0.053554572171102516, 0.01585387293630815, -0.04181029617370559
-0.05314980008237833, 0.02136523439385809, -0.048520279617474085
-0.05765938363961087, 0.01802094133758681, -0.03957761486178146
-0.051566737841048815, 0.014153345075665406, -0.041213815540090626
-0.05316243011257451, 0.013188280226961077, -0.036938742019101606
-0.059810945861468984, 0.021096287475130246, -0.039725140848913154
-0.060517701108196195, 0.01959193140587761, -0.03701079748082994
-0.06279222023148015, 0.01952974241750842, -0.032872497601223495
-0.05636497395085282, 0.014006700159910021, -0.03405018980884661
-0.06402860240480653, 0.015471155292659645, -0.021690479977310356
-0.062005460234873744, 0.016511093143199214, -0.02927440436104798
-0.05975108839649474, 0.012975643052276904, -0.024221234323281562
-0.06836794592247634, 0.01901520220809866, -0.017439596596153316
-0.06576011346063984, 0.015486200013064198, -0.01584648859774737
-0.06632939947629893, 0.015869025657908202, -0.014870996552501991
-0.06740809222407954, 0.016191500491950783, -0.01101870578895819
-0.07031945234690012, 0.020872232208010467, -0.013821883796320808
-0.06807651137075449, 0.016580732313983194, -0.008740511389918115
-0.06876813419693747, 0.01745877439087276, -0.009990491631200804
-0.07091013610940966, 0.02049076351591354, -0.008627949300438826
-0.06448491635301784, 0.013087821314678828, -0.003966452998614473
-0.0676065910231448, 0.015570771630479267, 0.0030185940484391627
-0.06479870161331061, 0.013517197343276015, 0.006924051907382889
-0.06713263121810256, 0.015628803159927755, 0.009025779767984361
-0.07174667919133546, 0.021107537907721012, 0.0029693932436898446
-0.06764447829668783, 0.015921757620650068, 0.007066682852198653
-0.07060657388291941, 0.02048790531597807, 0.011179217976388324
-0.06654949528853563, 0.015978431223395612, 0.01429713372064574
-0.0678362050799606, 0.018114068249795584, 0.01730529455312793
-0.062008982734533376, 0.013583880555480784, 0.02044443218112732
-0.06317855486114264, 0.015623498807104216, 0.024412034059960064
-0.06261912257883773, 0.01554676442951155, 0.025717695038106933
-0.062436290508848684, 0.016374958208841495, 0.028030930450210552
-0.06811154385334987, 0.020729531904580708, 0.022178877485356345
-0.05510676814691737, 0.01249129691060025, 0.0321624795196018
-0.06369290245206195, 0.02036620568201431, 0.032281156825779256
-0.052971656766734806, 0.012427747083281577, 0.035399180059648566
-0.06119013360945597, 0.019270158557106225, 0.035409656670527284
-0.05800751475313273, 0.017506227820493072, 0.03830147963061245
-0.054183474027908365, 0.015967611016145713, 0.04118706124558174
-0.05427148393001972, 0.017083148544905807, 0.042786155666835926
-0.05234762000595147, 0.017088679298708574, 0.04518857652344335
-0.0570900911912843, 0.01902673161830069, 0.04152580493421291
-0.050458117368576146, 0.01953689191130173, 0.049793701649333014
-0.04773736561651002, 0.016026035022324255, 0.04861790952512926
-0.04169052201204394, 0.013176248988303618, 0.04953212952208026
-0.04399072358985433, 0.01819294489637384, 0.05450069915934262
-0.0405882430598908, 0.01644706577848872, 0.055235312380975565
-0.03735247846635664, 0.019604708453331718, 0.06030476384751913
-0.036415592657871886, 0.01651507766265941, 0.05813568202497265
-0.03380362950863504, 0.016283804527457875, 0.05940749973924476
-0.03590147121599255, 0.019077376356855177, 0.060780234987385634
-0.029394927043945165, 0.01350009213599539, 0.05817836819755125
-0.030684938785758273, 0.016370480410121464, 0.06120828993201359
-0.029741547617564958, 0.020950346191073953, 0.06525481372474441
-0.02312387329039489, 0.01608028055585247, 0.0641161717999676
-0.016792437311433595, 0.018540254829923282, 0.0682502149013832
-0.016151838979930156, 0.015378449991952795, 0.06556772136986337
-0.014525685486575412, 0.014118450663198124, 0.06436785779831125
-0.02090187134392614, 0.01682210343845461, 0.06565255553358908
-0.016396185982205977, 0.019896211188920654, 0.06920180423363906
-0.008971369015146472, 0.012238877653350612, 0.06284047481239893
-0.002942207079245393, 0.015758795421125776, 0.06778825861461538
-0.005942124795328899, 0.02130664028420638, 0.07172768780902479
-0.0025203233249219783, 0.019708870415405637, 0.07091277245625864
0.0018936874045630847, 0.016256946524376183, 0.06830286849962472
0.0017784371235540777, 0.01376620893139385, 0.06547609640900107
0.0042818796740890985, 0.02011237475688107, 0.07108912412792859
0.006618648361405613, 0.019096976104478657, 0.07029396334890609
0.010037462660205864, 0.014929865961072599, 0.06632678860606507
0.009516128578761838, 0.019754412701164032, 0.07035396367376627
0.015426059252599652, 0.016820930765671357, 0.0671404827639104
0.01659313455259191, 0.016346602816324166, 0.0663983696452557
0.02156767499133464, 0.020428502953600495, 0.06809734711708271
0.025518597655683296, 0.015845942390937416, 0.06299537634432265
0.021677627270152947, 0.01323233747700875, 0.06105441590499623
0.02145786819753684, 0.01533155178851524, 0.06397314424517833
0.032398736945665876, 0.019463656577781423, 0.0630114984515729
0.02898256369518199, 0.0172425891751717, 0.06290475125531314
0.024727891877378182, 0.012397956510080648, 0.0587117064143373
0.038971082387298364, 0.015545264232169075, 0.05532097730223352
0.03791045523699478, 0.017974077745674874, 0.05873890722827954
0.03655404610993475, 0.016877071998782602, 0.058456536686951055
0.03604657554333351, 0.013741340702907891, 0.05464518117911797
0.03831421866265896, 0.012947370557809385, 0.05180557225671871
0.04505159340050466, 0.018869292665189795, 0.05418825695567809
0.047575826737352465, 0.01715545371714043, 0.05022746360345617
0.051411212757563114, 0.017923284801698552, 0.0473162066104431
0.04876430068004522, 0.015386575064612835, 0.04668446309557616
0.048086858273057725, 0.015375782416508228, 0.047402307198351264
0.05281769942810632, 0.020420170195151844, 0.048032491864152156
0.05671710816226554, 0.018435007626626605, 0.041417414470499674
0.05051848001881348, 0.013853283795729988, 0.041897264252921784
0.05412643086806408, 0.014539710313467485, 0.03873893740803563
0.06102311021732766, 0.019370328145828897, 0.035832536795224315
0.06352766801497353, 0.020994294862375362, 0.03338275155566089
0.06447959898659848, 0.01848061277710837, 0.02783393465611795
0.06087139986724525, 0.015019587232996453, 0.028351697180225434
0.060945706730532255, 0.01585080249350823, 0.030075848128721293
0.06299314204082775, 0.01895801088744839, 0.03175265819659942
0.060949208024403706, 0.013718175613445741, 0.02383367195002231
0.06399127783227143, 0.017136797437781272, 0.02636007077387277
0.06577303482757589, 0.015994855043884863, 0.01758021171206855
0.06623784257180951, 0.015234057241804707, 0.012241649600118261
0.07059987105907399, 0.020258837757505224, 0.010049491547782907
0.06771371384671801, 0.016905660221421773, 0.012957296936474513
0.06899725181445515, 0.01718021496979835, 0.005802185684390275
0.06452945842608712, 0.013425882196160789, 0.008163607377792422
0.0679568092257591, 0.015993491709471494, 0.0043256864597759105
0.06491436025521992, 0.013371229591649228, -0.002661823594937379
0.07088974647762869, 0.019852885882669508, -0.005333527443469294
0.06409271199814982, 0.013275729828868637, -0.010151648195139132
0.06849632918780997, 0.017219771922846197, -0.010356603239476759
0.06826028891314329, 0.018249852163675286, -0.015995517158876704
0.06920248100000637, 0.017787081268092902, -0.008972370443265059
0.07158767045173386, 0.020741122836590294, -0.0013405535059895165
0.01507463273957952, 0.09981750448636476, 0.07837620958079446
0.020247297108894474, 0.07856143110857507, 0.07707799655503654
0.019631286381691496, 0.07843529147356049, 0.07725052558306164
0.026442066561016307, 0.09961911057029099, 0.07531330347422448
0.026899695465647678, 0.0967289950217259, 0.07513112269267215
