-0.22267595826243833, 0.0608620513230989, -0.0364489833368703
-0.2225684434680107, 0.06602134033314783, -0.05045595185460934
-0.22337070865292707, 0.06702140170440399, -0.05957394893281025
-0.2251506259050705, 0.06236624908845402, -0.07517159876713526
-0.2258621406197489, 0.06263190167351634, -0.08795324062587595
-0.2270066792751698, 0.06804742422278125, -0.10010188568298607
-0.2273861163074187, 0.06932598772486487, -0.10577401301707232
-0.22601197239606122, 0.07069898395386615, -0.11974496564386702
-0.23050343492150602, 0.06513840280008724, -0.1352222387268731
-0.231440405673211, 0.06769946338778837, -0.1435659923867694
-0.23178145600159855, 0.07520204829271805, -0.15568120031022822
-0.23363960040446863, 0.06867469341481355, -0.17118144978206568
-0.23296193858905886, 0.07180330634900367, -0.17822647031475142
-0.23251313083594877, 0.06981122203334608, -0.1887090059845396
-0.2303260765031761, 0.07077212689980791, -0.20179276334553828
-0.2303744907427755, 0.06844866162750608, -0.20273822837732375
-0.2274463222040134, 0.0688274418054546, -0.2177299434444816
-0.2262438569105708, 0.06768250390001178, -0.22328797014550927
-0.21894567988202518, 0.07193238841288391, -0.2381751039715449
0.21634013862646206, 0.11522797256320066, 0.233749397131295
-0.22189183368470694, 0.1105174336442355, 0.22621565579289118
-0.21113389934179982, 0.11139574620590949, -0.23387700658720334
0.2163756195606594, 0.08070548892199977, 0.23825074024298226
-0.21824874104500336, 0.0937263198277031, 0.23161012530822886
-0.20967537429058006, 0.06710812434580127, 0.23678906992777898
-0.18843248633704016, 0.06522350053236459, 0.2420428896928682
-0.16792574850836786, 0.0649096987110906, 0.24445414026745912
-0.14623613465756335, 0.0649529907912792, 0.2429100520657444
-0.13042114870272734, 0.060868050227779295, 0.24198412865515956
-0.09321824246031658, 0.06092880865741507, 0.24002403431386826
-0.07750692456450699, 0.05985801983604622, 0.2388863249210339
-0.048753117750230716, 0.0611887420735218, 0.23735220425840048
-0.02283596530700566, 0.06106915802013024, 0.23619450933968686
0.006049230099846802, 0.059777435760510075, 0.23637982233627047
0.033586632460328066, 0.05802226067467213, 0.23723645799934634
0.0603645878089909, 0.061881561557704426, 0.2373375093717893
0.0835687810625044, 0.0629992150616579, 0.2390469951500622
0.1075526261309534, 0.06262923814439285, 0.24170914817820865
0.13431419594614777, 0.059831126696176413, 0.24331064839018207
0.15769059599214166, 0.06291875616206062, 0.24325561085882735
0.17721535737449381, 0.06049700016635014, 0.24337962818806985
0.20528370393165446, 0.0648064243227398, 0.24212696683764764
-0.21913845236900426, 0.05650592850601535, 0.23158456406785594
-0.21973685358926898, 0.046138441966881855, 0.2299323390208244
-0.21715867365261582, 0.0649732490550404, -0.24031468251181876
-0.1977937307422647, 0.06299099439616185, -0.2423766083400707
-0.1687210849013472, 0.06327475649763634, -0.24234457185084796
-0.14442771971904367, 0.06133646171318635, -0.2429390759843108
-0.11872028720645603, 0.06187291206833265, -0.2437039371328878
-0.09399441744789216, 0.061223280996259774, -0.24317080715966397
-0.06894279156799665, 0.05853987689103448, -0.2428476859379138
-0.04549536189335478, 0.060512740650329556, -0.2431185249973134
-0.015068592925165124, 0.058047196946452856, -0.2418778563006896
0.007774545065588006, 0.060293969899808314, -0.2429911473585076
0.03773430757718679, 0.05796953426599229, -0.24376308467367055
0.06567446025342152, 0.06081296974852921, -0.2422531800163764
0.0909944383664798, 0.0629282853563523, -0.24200676087332867
0.1110965792098248, 0.06140933317510514, -0.24311837306887066
0.1403755821643204, 0.06517131247909261, -0.24401105480882407
0.1664126924505625, 0.06273352680385737, -0.24527285261869963
0.18896761754442618, 0.06502933488204503, -0.2458474186882806
0.2057653519235253, 0.06526085933585579, -0.2446409364310305
0.21536470640353184, 0.04468250864176695, -0.2401320474955283
-0.21795865744789572, 0.07938105932976797, 0.23241514877478114
0.21623238158015434, 0.03615908545139427, 0.2364075886192959
-0.2139955527010681, 0.09597817786583107, -0.23767945374617555
0.21752018551699254, 0.08705578364715753, -0.23966698165973155
-0.21697060044361743, 0.049566111321184166, -0.23968884254576556
-0.18857243653583963, 0.06411643577118625, 0.2418395019243313
-0.09443431424350279, 0.06125675764783087, 0.23997519392622568
0.025653627766235105, 0.059539654070905904, 0.2370235001967752
0.11968724211182892, 0.061287538318000004, 0.24257143458445254
0.21612866359283353, 0.10700947207835752, -0.23829334326367063
-0.10934484497847402, 0.0605579935309886, -0.24353497875737756
-0.004457452550051237, 0.05936493857637356, -0.24204109733293444
0.1012705512891752, 0.06174774600483738, -0.24232755266194295
0.19895921393688304, 0.06638152413748034, -0.24522051233698117
-0.21932400356032164, 0.06868594864312483, 0.23165455904283735
-0.21843045200416605, 0.036421327103382944, 0.22929461387362088
0.21669885447581233, 0.07394646737849853, -0.24119634534780895
0.21631643774311546, 0.1188672119285083, -0.23374336674123047
0.21276598894554155, 0.11774999159324968, 0.23372156081338274
-0.21903236855779395, 0.11937928808442202, 0.22573683446027723
-0.2129425180126302, 0.018301657542640702, -0.22867658197840215
0.21199368525170076, 0.07129554885513925, 0.24050198265208383
0.20652478714406472, 0.06531861297492385, 0.24197193523660318
0.20099514612734898, 0.0728890194876827, 0.24218899162170018
0.21045848560718494, 0.07202098410407709, 0.2408289290956377
0.19024588414673652, 0.06252964623277651, 0.2432328235947282
0.1846857485202255, 0.0658823359130344, 0.24328138392512189
0.18467056500320603, 0.06720981352671712, 0.2432008483603035
0.18411314293030234, 0.07614479369166903, 0.24238610472092675
0.18035994038359035, 0.07809859409593531, 0.2421537630549936
0.17295267891071547, 0.07687107658536399, 0.24226149006414954
0.17075244389168817, 0.07743438215929023, 0.24217221425061497
0.16244833969759737, 0.07386906691538114, 0.2425013301879519
0.15603439031282587, 0.068048207507116, 0.24306354497254004
0.15395912831401487, 0.07497438296176481, 0.24238010921721595
0.1407863059400049, 0.06732311099370292, 0.24324605494410917
0.14050676154666536, 0.07106730479091762, 0.24296218036280717
0.1358278302120083, 0.07345770845631056, 0.24265998152925655
0.12331046754773585, 0.06737176164644798, 0.24290774998376036
0.1194145993544636, 0.06631614144311891, 0.2427250525444826
0.10984285527061091, 0.06258625124117209, 0.2419364515445182
0.10939577216329205, 0.06460016790220627, 0.2419281746087773
0.10914703927461125, 0.07486977201187581, 0.24106277429217843
0.09989117433514097, 0.0676224194127077, 0.24080499192927746
0.08596672355065452, 0.06509849927009725, 0.23927781927492833
0.09191192732112416, 0.07435474347039356, 0.23934837958983787
0.0701908926801933, 0.06352694422808478, 0.23780821315734854
0.08074721226788602, 0.07586652211963003, 0.23790209548475932
0.06342114269275635, 0.06757430961151027, 0.23727328837872183
0.06876613927803818, 0.0726279713736297, 0.2370814119951586
0.06268202455277974, 0.07322793022938084, 0.23671373027381784
0.04971973705073722, 0.0681812503868763, 0.23696702946348389
0.04802023297918947, 0.06499529967908067, 0.2371262242376894
0.04016091574559888, 0.06453308498102352, 0.23713596032351725
0.028793812072166115, 0.06768144797330108, 0.2368786317985362
0.030878829417332006, 0.06405676496904497, 0.23711980411276073
0.0222256260739813, 0.06378284632500705, 0.2369978206809224
0.021184167262513924, 0.06524156589004186, 0.23687996063283345
0.014539214120641073, 0.06414956745413501, 0.23672249011921492
0.01087366587162912, 0.07258416506666453, 0.2356429321554817
-0.007791832924291195, 0.061718897617584235, 0.23607313198493837
-0.01198943344873689, 0.0700330987964875, 0.2352316166297025
0.005476341867848691, 0.06570709988215642, 0.2362284753647664
-0.026588780788489655, 0.06181623848195013, 0.23629872647172198
-0.016562958552195195, 0.06259239083083921, 0.23597823752896321
-0.03865380945575953, 0.06410383843989206, 0.23665190104025796
-0.037261353213363435, 0.0655153608045984, 0.2364786912571891
-0.03862968983829835, 0.07009164072463422, 0.23595432608695727
-0.06394697035056796, 0.06461334467649513, 0.2379219750812343
-0.04324487126863639, 0.06420921664452249, 0.2368694014682805
-0.06901638358127808, 0.06327834460056196, 0.23831628847026115
-0.07801728087801091, 0.07085233110078018, 0.23823538245621817
-0.06696660339988925, 0.06935264936906077, 0.23764152549402245
-0.08595207435394794, 0.06906635354638678, 0.23912017300386806
-0.07647954527727421, 0.06722229925706823, 0.23855178514507985
-0.10180958806970372, 0.07301814871865969, 0.24005752863178725
-0.08600806369505806, 0.06606269588109419, 0.23934189912673384
-0.10762154384359923, 0.06830135895989144, 0.24090780150770116
-0.10804775633348274, 0.07439570117647558, 0.24039061583338045
-0.11765704996356163, 0.06982147563748292, 0.24135914837039124
-0.12423727558258663, 0.06448187230747834, 0.2417636641212017
-0.1271779378653475, 0.06790463664061877, 0.24175768440017598
-0.14070125340077302, 0.07097043795811134, 0.2422394889963984
-0.1348094277205835, 0.07127239084674605, 0.24187819499996266
-0.14478240445100082, 0.07185752378798627, 0.24253220220865349
-0.15498782494804728, 0.0751637528110586, 0.2432739516573139
-0.15769546386571515, 0.06770016578826195, 0.24402796453858866
-0.16833170078956272, 0.07389676561821765, 0.24413644604136608
-0.1680888315098239, 0.07120268951753686, 0.24429601868617237
-0.17924428060938544, 0.07114551104755765, 0.24330887393621256
-0.17263454736154887, 0.0748737202596185, 0.2438084998770265
-0.18911219400568147, 0.06796756169074133, 0.241880235542958
-0.18456139918471717, 0.0803081072174715, 0.24165212151489576
-0.19928658159648233, 0.07066664723335077, 0.23953076428836093
-0.19852041163107237, 0.07519606332621134, 0.23944103764253463
-0.18567284072164675, 0.07280387519901674, 0.24227319706761455
-0.19929026269658273, 0.07431193725888621, 0.23932141139154936
-0.20307499871993248, 0.0727377748710401, 0.23850845716545338
-0.21154049267762573, 0.06881954247577303, 0.23604227394597965
-0.21339699846335808, 0.07360052798102067, 0.2350176585945998
-0.21344100608951727, 0.11443852461860186, 0.23207340228160778
0.2192435872296075, 0.06620098169059008, 0.2368523529508745
0.21898138704887032, 0.08185635939050213, 0.23611154862794656
0.218664478789524, 0.08770674264176273, 0.2358907202193009
0.21670867570411806, 0.11500773557606939, 0.2337023309384968
0.212030380938865, 0.08354117742802028, 0.23978801426842022
0.21322973717042829, 0.091026938188283, 0.23879294216274932
0.2147643021456383, 0.09609934350290329, 0.23797543763980922
-0.21791019396544786, 0.09458429954170815, 0.2318074705076626
-0.2181632162746689, 0.09864170228311611, 0.23152698390124368
-0.21909711717238767, 0.11743641947748318, 0.22793444580938385
-0.22055242193837826, 0.08186625857851804, 0.23001134031034087
-0.22060514169946865, 0.10699394507012278, 0.2293233522972857
0.21028227488061085, 0.05911470269592491, 0.24119257338386535
0.21413987755675146, 0.039791093109982585, 0.2383207930042411
0.21067274886462595, 0.04518399040415671, 0.23998703475792946
0.1974039504454976, 0.055557279382016, 0.24270380660370675
0.1988027203059811, 0.058510528368392455, 0.2427734730613456
0.1904820508448872, 0.05595441551714064, 0.24306333773215907
0.19463130801118775, 0.04430161992434195, 0.2417460395464362
0.18175075693227402, 0.05460469013644441, 0.24314937510716628
0.18255701385476086, 0.05240562629663043, 0.2430139611750841
0.1682313589318311, 0.05858050952523268, 0.24330987576622334
0.1635177972614132, 0.05493339801319262, 0.2430625352817028
0.16036610904816154, 0.05635943012222251, 0.24312808265665975
0.16155425640998847, 0.04815721446706237, 0.24235045286891743
0.15504641407015585, 0.0525474849016046, 0.24290610467831297
0.14057556206452781, 0.06006582759956616, 0.24331738510813505
0.1416917027541504, 0.052063543340136256, 0.2429805312249489
0.13241002821183306, 0.05511154545034956, 0.24317710252500302
0.12913133812904506, 0.05738449451308447, 0.2431982851020646
0.12438282350791297, 0.052936266390096104, 0.24284689561658118
0.10997117386969538, 0.05949097621270227, 0.24199185566543588
0.10719706517456445, 0.05605664360341514, 0.24165412726443303
0.10171450564373141, 0.056758164872636574, 0.2410824926713311
0.1025052060604145, 0.05322395950990118, 0.24105848125760132
0.09066163858362479, 0.05499752921227301, 0.23975246786048943
0.08986248782696718, 0.05188505900719509, 0.2394808634668305
0.07991683225998779, 0.055035711605186916, 0.2385622496870566
0.08027048541502868, 0.049570484493923594, 0.2382061169764773
0.07432863345208554, 0.05749190350855224, 0.23810563419195974
0.07144832462132075, 0.050204280764011455, 0.23745541490338204
0.05743173744694943, 0.05239435852111877, 0.23706570274984257
0.05074548494758824, 0.05354909492357338, 0.23704772037500654
0.05606847441977458, 0.048707128596107756, 0.23666958628952595
0.05048659363168055, 0.04856824083477142, 0.23659071542741691
0.03243980108126299, 0.05664798126889902, 0.23720092140306442
0.04310332667496677, 0.0500845137976129, 0.2367396195714637
0.03460489664780163, 0.049536200822692195, 0.23667099035115824
0.017168626821272123, 0.05351037918344288, 0.23680678856855292
0.026417661658365895, 0.050766575022627984, 0.2367764469306418
0.0059290801173159805, 0.05178893360435526, 0.2362768768095821
6.924512925700365e-05, 0.056009000474092185, 0.2362608467128267
0.004510447633675608, 0.05075893727051507, 0.23609647231030112
-0.021440823079357626, 0.057283735070310024, 0.23623883817248115
-0.009366332604536929, 0.04939612517398255, 0.23556952122418606
-0.030902921764635743, 0.05256729723146687, 0.2364752972841369
-0.03643781264512791, 0.057204943383240794, 0.2368530371534884
-0.026015175378087264, 0.04900437065468238, 0.23587521971477204
-0.034785352707200255, 0.04702348864589525, 0.23614833568842467
-0.06383573577679803, 0.057973304113575715, 0.23816730218023668
-0.053302245483913546, 0.05182548569699744, 0.2375674138484766
-0.07138786786131547, 0.058260485784807234, 0.23857584503211826
-0.05752426558563537, 0.05086450634127319, 0.23766078594025175
-0.07293250497475745, 0.05532262820119196, 0.2385337134666594
-0.07490194300335448, 0.051783079259409295, 0.23815359592994936
-0.08730742629861842, 0.05436185733220967, 0.23944814798685604
-0.10133221710500533, 0.04788416636619459, 0.24016788847976292
-0.09192806348996867, 0.05327504646847121, 0.23988713192098393
-0.10443632593075852, 0.05450022329344773, 0.2408928653455429
-0.10615204973199391, 0.04862498256140339, 0.24057310119077377
-0.11582927927634672, 0.05791518071364214, 0.24154267207101326
-0.11714666061498627, 0.04807492338876674, 0.2410095822581005
-0.13272856216122642, 0.04975855360109249, 0.241350772492477
-0.12924710585577026, 0.04765382001828349, 0.24109646082078884
-0.14283464972579107, 0.047269136885549776, 0.24153728111749415
-0.15100382446449426, 0.061557083020955465, 0.2433943564061875
-0.1544284634896049, 0.0498720034144673, 0.242871945734657
-0.15945123025938326, 0.06279341994474275, 0.24414372683066088
-0.16472426672282936, 0.04840270102840524, 0.24332251769566324
-0.15849482629483463, 0.052571669945154754, 0.24353672226867082
-0.17343577745790256, 0.056804331614241525, 0.24393123676222522
-0.16972871228227757, 0.04646351071017606, 0.24303644313477024
-0.18418031224735665, 0.05429633600356788, 0.24239738038097253
-0.1803276719303922, 0.05275990926373997, 0.24281167199970022
-0.1991183274602259, 0.05556324730458717, 0.23941316748569286
-0.1979747752746548, 0.04517420077103003, 0.23853590660498875
-0.18601166508615832, 0.060638503644813664, 0.2424872185539169
-0.20436889939745567, 0.057715134938380874, 0.23824239411727277
-0.20383017723565738, 0.047386071341285425, 0.23745339550308278
-0.21503659186629767, 0.060422900906615645, 0.23438000470244139
-0.2108693646955273, 0.050607596650970775, 0.2357242388007913
-0.21517362204156465, 0.04549987299116988, 0.23306051697201818
-0.21371321202146448, 0.0137346671531716, 0.22457062239349826
0.22067629439697084, 0.06118260035110382, 0.23548103702740356
0.2191414014925805, 0.055175453930340096, 0.2367033666524308
0.22033359593725915, 0.04626414334865333, 0.2343101354999692
0.2210369789441095, 0.038682278685857996, 0.2320135711777795
0.2158891935156979, 0.020919503727845176, 0.23153457608777406
0.21492526307430165, 0.0353640786189722, 0.23706807936385324
0.21110862273599118, 0.03829325358087945, 0.23896457650323968
0.20664691407294816, 0.036347106236036805, 0.2394695086197488
-0.21313575474584712, 0.045978347306532004, 0.2341173100061515
-0.21573509266164267, 0.03726605586262614, 0.23149350238189045
-0.21624562117896845, 0.018881287325559874, 0.22603072901206206
-0.22110865248829406, 0.044652183553966905, 0.2279078381196244
-0.22017323501673153, 0.021759726366046936, 0.22116194469768918
-0.221148205124847, 0.02997635440250022, 0.22377062304670844
0.21108697707408328, 0.08620696133580492, -0.24233478149076676
0.20063098960829132, 0.06839132192636382, -0.24523071676438662
0.20620361058311532, 0.08035721723409957, -0.24369833664042873
0.1960337311815511, 0.07383172287097929, -0.2451796241583616
0.19259243337087312, 0.07402846578506639, -0.24528921270745524
0.19556332818503883, 0.07751874448177093, -0.24483866756221764
0.1870670266580708, 0.0758435787586085, -0.24519440353080368
0.17524403104438235, 0.07354415677381264, -0.24514693467195803
0.1690527379148535, 0.06897981242165427, -0.24521553601111343
0.162443424632764, 0.06958753499070174, -0.24473868345493907
0.1614936798479068, 0.06967131436269494, -0.24467236508315554
0.15310515363051797, 0.06988661888257246, -0.24417856857368703
0.1506361294295221, 0.06992660428259467, -0.2440589419802957
0.1511759229115827, 0.07801021022316891, -0.24299177808174846
0.14511593526030764, 0.07609685632785154, -0.2430516827535692
0.12650352550464816, 0.06523595009590905, -0.24368766955913942
0.13125229895742982, 0.07368686401844991, -0.24303134358032935
0.12447346187838641, 0.07227715287539023, -0.24309735726648846
0.11636135666558794, 0.06589356444488392, -0.24329462113705894
0.1125412694167483, 0.07056514802490635, -0.24277925268603023
0.10300116811643649, 0.06535360248321587, -0.24253709524040915
0.09460150158987699, 0.06890777564942434, -0.24188327102599688
0.09710443833822613, 0.06998210865907253, -0.24190104505881602
0.08922130633589745, 0.0708166423590165, -0.24147534517903446
0.07616366401305984, 0.06759166895369241, -0.24171856258538832
0.08053995087344082, 0.0709538772955849, -0.24132440966303478
0.06316500421674218, 0.06488908656641089, -0.24230170337260595
0.05687814748113089, 0.06568920155301461, -0.24259978502454643
0.05515575249844598, 0.0636795293985675, -0.24279961205395312
0.0542626409499889, 0.06727413668009109, -0.24266352640213634
0.05005464903501844, 0.07223068603573947, -0.2423073666656523
0.031416593422992, 0.06412388651022542, -0.2437404140233998
0.0399760348043142, 0.06856270655944864, -0.24318554957839378
0.02522176279558773, 0.06662062139512087, -0.24357566798691058
0.002872498512552824, 0.060332486392668444, -0.24263050903383454
0.011480081510137043, 0.0675254508660815, -0.24284287906996765
0.0057028938437192565, 0.06304733894946836, -0.24277716435497007
0.007767467960610033, 0.06749431083520885, -0.24258909823179742
-0.006862206347861209, 0.06750822457310122, -0.24164988345573243
-0.022855149591378965, 0.06626098628713785, -0.24175533538269003
-0.024852015795884363, 0.06557669941013601, -0.2418617387828839
-0.018876112345604924, 0.06892987984003254, -0.24129427528312491
-0.0417140073454306, 0.060197181001388586, -0.24299063644143953
-0.04270544904793412, 0.06813771238752346, -0.24256341297840717
-0.03457119046630564, 0.0725888847577447, -0.24155490395633572
-0.0532948699556866, 0.06406892279037915, -0.24309465322853263
-0.06350323875137952, 0.07224934039566137, -0.2420714646085757
-0.07453025637259487, 0.06733568763673688, -0.24247665384390432
-0.07344594248998412, 0.07346821983613117, -0.24141736557926496
-0.06790495583116295, 0.07067692031299004, -0.24208760703072557
-0.08916910947905013, 0.06750854468005792, -0.24289730134453097
-0.07984906760394204, 0.06253823118745454, -0.2427881301363842
-0.10366946640008544, 0.06233066492169216, -0.24362367088566456
-0.09491772096967482, 0.07129862573993115, -0.24290983923780496
-0.11056371879244287, 0.06416912534827357, -0.24381552315663896
-0.10742069539044324, 0.07319480506040558, -0.24335780722574796
-0.11279068702037853, 0.06579850550000313, -0.2438111558803201
-0.12185645739050024, 0.06641090900413416, -0.24368863858371487
-0.1292184859462653, 0.06646707313716547, -0.24345825371973412
-0.12763746693452796, 0.06748563104152344, -0.24349288701817845
-0.14383868162617516, 0.07453654807125012, -0.24252348634702753
-0.15635067010473883, 0.07040023312684439, -0.24264482829105982
-0.15593958287291587, 0.07559696520923008, -0.242150754896097
-0.16253377869301272, 0.06399822232411825, -0.24263348719564543
-0.15841888009876057, 0.07700256249301315, -0.24194854944097197
-0.17010931079752878, 0.07135392876948717, -0.24215725536766775
-0.1695394434230004, 0.07909943885140902, -0.2413445409265627
-0.17970221414899765, 0.06836831413570289, -0.24208070407855953
-0.17549699113387424, 0.06715978282251275, -0.24221860847823296
-0.19759867345254448, 0.07153876946756164, -0.24211355928500639
-0.2021276495395926, 0.06571060870759562, -0.2425200629577295
-0.20041625443629907, 0.071062176391442, -0.24223943806917542
-0.19933897560417196, 0.0761422732072092, -0.24175939459690948
-0.2095600461349674, 0.08200609146519523, -0.24100865325347165
-0.21174703622324928, 0.08363266747317905, -0.24051508305174196
0.2149622496396767, 0.11378326930031162, -0.23801022844762942
0.21729386473244902, 0.09980383455579678, -0.23835956361604257
0.21768022731538772, 0.10619164663409986, -0.23740535550362776
0.21672774731560956, 0.11324427505699719, -0.23694025149259496
0.21312427339835133, 0.09587995268839634, -0.24076623555406734
0.21221986639837692, 0.09946994933565807, -0.24070531831511977
-0.21370438011113208, 0.07714211498677939, -0.24078842697525174
-0.21127029743117237, 0.10393929605319555, -0.23649426660754164
-0.21210744745678098, 0.09621459271111694, -0.23817695800532102
-0.2159715241084008, 0.10329392294687886, -0.23410141004670185
-0.2160966622214061, 0.0967269956239738, -0.23608700475261
0.21402917886857947, 0.057404477767373015, -0.24235910654874768
0.20365147565719915, 0.05717803683246372, -0.24452428848997834
0.19878973839326192, 0.05514147002996364, -0.24471190793190703
0.20442997776772429, 0.05070018657329282, -0.24359674907034967
0.19575773333762786, 0.06506395611381774, -0.24559951309063066
0.19259635464085662, 0.05121557187147195, -0.24442418874165905
0.18023517402334946, 0.0580495220861499, -0.2455182322919804
0.18479792394098163, 0.05446103909818118, -0.24509497209741665
0.1744789161412763, 0.05667964984248515, -0.24532071393963634
0.17241461756539686, 0.058325785769376304, -0.24535357620188222
0.15908212879217842, 0.06356943265179145, -0.24482265154516747
0.16351764835910623, 0.053184819341984726, -0.24443452034731825
0.15134147422610955, 0.06157805477742077, -0.24450015156607813
0.14981495850688592, 0.05400125626931536, -0.24409156041335883
0.14210241467076995, 0.06310584720229287, -0.24414442057947502
0.1445813155123767, 0.05820287149156689, -0.24424096621018943
0.13048433976535082, 0.0582335535787981, -0.24397291078883243
0.11956553946426672, 0.05961264161773707, -0.2436438120713342
0.12001890654227218, 0.05223469116421494, -0.24309504830728418
0.10556788400410191, 0.05823999832563635, -0.2428525095689323
0.11684730600197908, 0.05554293189498744, -0.24352134300768524
0.0970697494133628, 0.05352297723404892, -0.24224857056412658
0.08832078642682112, 0.05789413261080622, -0.2420033823219832
0.09301948251500508, 0.05552775667662853, -0.24209126559274893
0.09763807813311792, 0.056401519383620376, -0.2423391577920193
0.06891856007943725, 0.05165711711768765, -0.24195793889909084
0.07467336935333639, 0.04622222448660925, -0.2412587570540381
0.05332268523189901, 0.05526942632340322, -0.24295935453573436
0.0663151896593714, 0.05304819072142485, -0.24213214812374673
0.05828323974747364, 0.05749701218267815, -0.24272336508996636
0.03546737062298379, 0.04792408051985892, -0.24326045640764732
0.04482220655951844, 0.05091543266063746, -0.24322844315385517
0.02840141892022556, 0.056737410648277684, -0.24392686274827574
0.01878788416232645, 0.04599218462590312, -0.24281865668840374
0.029490716258799763, 0.05138913375765784, -0.24367196349028403
0.016169363496632234, 0.05811672789806102, -0.2435779343809894
0.0011422120317205128, 0.04681954947682488, -0.2415164565929479
0.00960668551177092, 0.051798053595638806, -0.24286942137313675
-0.008377255639704068, 0.05534131364732721, -0.24189063353264648
0.004368181797622899, 0.05302057383989456, -0.24252127557498604
-0.003199376607743853, 0.05692721211859163, -0.24226631420565178
-0.0168286803628385, 0.05864024890378092, -0.24184782563096335
-0.0223126060437731, 0.04933761907657967, -0.24136244590145373
-0.03309619086115507, 0.05579495757547272, -0.24250693459057066
-0.04517268477330602, 0.049168389241878205, -0.24260914406278325
-0.038036116083671065, 0.05609370932195923, -0.2427968189728445
-0.04702672737938174, 0.05269310326497781, -0.2430200490532315
-0.0649938056364148, 0.05169514546001684, -0.2426782726958763
-0.05194018955519068, 0.05445361840640332, -0.2431792979307708
-0.07446452091238158, 0.057021975711824734, -0.2427514082369657
-0.07841505318811474, 0.051655549987967966, -0.242348042800458
-0.09233614354067982, 0.0552851548634265, -0.24294704129867312
-0.08328008172539354, 0.05072849257673759, -0.242266935278513
-0.09780340955863709, 0.055580282061667534, -0.24319186187886022
-0.09422021656300264, 0.0544891676514114, -0.24297544285927858
-0.10634219135310628, 0.058283499716469914, -0.2436538977937604
-0.1005866820765296, 0.055058196527049935, -0.24327412027480988
-0.1261154003794065, 0.05766995434231534, -0.24348651539369642
-0.1215141833657239, 0.05135983760606093, -0.24316558937305513
-0.1312221134209033, 0.05519581245229498, -0.24321343938261283
-0.13504480523679796, 0.05946276075383123, -0.2432696768105822
-0.14736860533463164, 0.049218252384164746, -0.2422285584301794
-0.15537923175096274, 0.058409781488661855, -0.24280394962209376
-0.15221060649379978, 0.05079569182645807, -0.2423063808213234
-0.16658935912110112, 0.05899542666717904, -0.24251436346215016
-0.1625541500377736, 0.05428960737430803, -0.24243250472535705
-0.16843405776654322, 0.058447823722012765, -0.2424391210222891
-0.18156810283855307, 0.05788159811807595, -0.24210278250732825
-0.17781599367519868, 0.05604903160795671, -0.24209628338542183
-0.1935779488511007, 0.06165763158269136, -0.2422892191498954
-0.19593282426355932, 0.05999271933190717, -0.24230583301973424
-0.1992400149167567, 0.05424506941044468, -0.24211482003305218
-0.20302770067794024, 0.052327127584084684, -0.24205791615930625
-0.2049968800969308, 0.04609629743871319, -0.24134821745190202
-0.21571295117187944, 0.04915844160519209, -0.24033643072009225
-0.208510553929836, 0.026360529509677752, -0.23645692467006682
0.208887600122826, 0.0238015962786561, -0.23496384855663055
0.21770641004505767, 0.06486767021693347, -0.24108489189911006
0.21935542628308743, 0.07143928653185866, -0.23937951998662876
0.22058847842520216, 0.04238427113319118, -0.2343937686852468
0.21592341890129663, 0.02702371993578885, -0.23325233541526255
0.21483950227625032, 0.052523602316781964, -0.24154598710845998
0.21032136457266676, 0.03589988411807796, -0.23954261069940133
-0.21267163063126088, 0.04713940558859605, -0.2409011442300929
-0.20828531665168118, 0.041851540769344754, -0.24070597736991073
-0.2157747171996362, 0.024593345177820462, -0.23284115767475105
-0.21708896660942467, 0.03638608376111272, -0.23697787697625186
-0.21260544633922024, 0.1175416887202446, 0.23104975260931973
-0.20594563792220355, 0.11207627588883838, 0.23319629407704578
-0.1984599201015413, 0.11162628758719106, 0.23304211517426598
-0.1832487251600784, 0.10154578406506258, 0.23689460759231645
-0.1728717132225451, 0.10069147043605592, 0.23826656779009647
-0.17059255694527506, 0.1042492094994101, 0.23712720814971894
-0.16630261942979793, 0.10408492329507421, 0.23727781941383358
-0.15531770223862706, 0.10168043217464777, 0.23732482724745071
-0.14845193876800689, 0.10396284649718662, 0.2351504562703864
-0.13792599649084678, 0.09801557111267915, 0.2364184934368596
-0.12729090329455087, 0.0961599278910397, 0.2366390606494907
-0.12153580966426183, 0.09532664805581231, 0.2368205639424443
-0.1096567407892832, 0.09436826898724976, 0.23648044709701904
-0.09945467665886869, 0.09309006201025248, 0.23560534433693456
-0.09153409029400014, 0.09418365927615814, 0.23395223711344015
-0.07900243252134476, 0.09047704420324336, 0.23099209782597677
-0.0760596612710559, 0.0915646084745001, 0.23031571111436377
-0.06917812411454205, 0.09256718178128123, 0.2314327835913741
-0.05729579668458767, 0.09213317022506276, 0.23060293743467375
-0.045651138636653606, 0.09447851226553595, 0.22853704993403637
-0.04423159564695901, 0.0876494362174848, 0.23168721138015635
-0.02718050103786105, 0.09736066994096834, 0.2261457450315008
-0.01910185287783036, 0.09722620281465148, 0.2261404688070353
-0.017399916615668184, 0.0905767365203784, 0.229507313835957
-0.0059399084241107385, 0.09850888011348358, 0.22577173263277367
0.003166859233187195, 0.09755734072305292, 0.22683130002142327
0.011763194579611865, 0.09824549807253663, 0.22706183181520193
0.02671061906912709, 0.08847208531627906, 0.2324306330902057
0.01653287025470581, 0.09086332726285365, 0.23098811290574955
0.028746111444147314, 0.08728977871089953, 0.23295624988744296
0.04314755420304564, 0.08839911150913923, 0.23301372384275285
0.0519960151501139, 0.09785262256735827, 0.229122016042758
0.06718465785165566, 0.09450762031412298, 0.23196021826560306
0.06969975748282603, 0.08940106104811898, 0.2339846558156332
0.07779455905192495, 0.0911789323822997, 0.2342838100494442
0.10003470343897586, 0.09964807713027768, 0.23228934336051027
0.10482649383561926, 0.09033173395251026, 0.23472358873433732
0.11342834601119656, 0.09155387524949274, 0.23807652644449162
0.12911994358194612, 0.09988698026878329, 0.2355394585449515
0.13202042245592308, 0.09384363051085433, 0.23793842389849715
0.14126026273240805, 0.10164061227635868, 0.23411387553586188
0.15450746520427477, 0.09604938023087448, 0.23669369901447251
0.16474818032339986, 0.10257574726612761, 0.23360018970025237
0.16807794591193706, 0.0950667627664985, 0.23747734047252123
0.17425989726322105, 0.10733089743390815, 0.2317837386681837
0.17890284438504123, 0.09890121201411825, 0.23675658606751285
0.20271381940973077, 0.11544773475430971, 0.23484870947584693
0.21217924642550862, 0.10860285587209678, 0.23758648841083507
0.2037967347701505, 0.11527392550584023, 0.23507766868451938
0.22375538688512875, 0.0758907928480855, 0.23084163331438604
0.22676379898144347, 0.07920895865716492, 0.2242345241141372
0.22521756555114678, 0.07456206705098457, 0.22852275531613248
0.22923389894422258, 0.07317408490426554, 0.2198395656602286
0.23034889238788114, 0.0794119673226509, 0.2120809045793547
0.23107362138635645, 0.08089785219620399, 0.20268217199255684
0.23193787913830907, 0.07904463596720024, 0.19958593361311266
0.2334846655407916, 0.06741178577380202, 0.19606918864232742
0.2315588202546746, 0.07834305064764503, 0.17751209950984045
0.23297693605984526, 0.0708163553641344, 0.17844040432083166
0.23286167248474757, 0.07033103284036561, 0.1825982232647238
0.2310343605995432, 0.07707212036059798, 0.1641784852403184
0.23287223389720893, 0.06798906641629407, 0.16935074244936787
0.23281137730439277, 0.06557239392668812, 0.15149147141217922
0.23245134981708898, 0.06721389959821261, 0.15782723444479985
0.23253469112116273, 0.06900754631098621, 0.14772891356184922
0.2318983008705025, 0.06802047872727822, 0.13851299642189543
0.23087527785870418, 0.06277628965037504, 0.1275153536093271
0.22862899206007004, 0.06669121142682272, 0.12076583974303295
0.2303609470551281, 0.0645373099266503, 0.11483081782897434
0.22766901937815087, 0.07389830817765262, 0.1023709299087989
0.22660479788263166, 0.07609354700146687, 0.09166927047701189
0.2263901752713207, 0.07304781125907853, 0.08778376742295771
0.22676533934196727, 0.06478937827952247, 0.08523900857016437
0.22475622808665302, 0.07245960695355144, 0.07382197761130446
0.22624097063213044, 0.060205805157562804, 0.07693023954797722
0.22503184059425596, 0.06521951342136814, 0.06861824668378466
0.2252087454703736, 0.0591993610883841, 0.06697307071524641
0.22283568632419126, 0.06629732813705261, 0.04033550577805853
0.2240094374714252, 0.060759014627466634, 0.05556177918177909
0.22170561189547972, 0.07155901347814028, 0.04616947723522684
0.22156719417767046, 0.07003646763682643, 0.032571216108216894
0.22255331049446242, 0.06444924967245902, 0.02701109481601254
0.2218522081338511, 0.06799489880892798, 0.019354238339861198
0.22245415291020676, 0.06199404422069715, 0.010363737602015262
-0.19735180369937727, 0.10923375068677184, 0.1262540860877396
-0.20253239568088927, 0.10893536677558836, 0.13278055095370098
-0.20420243363440646, 0.10618676252302725, 0.12207640147638639
-0.20404041881988585, 0.10705165574827294, 0.12616423001177704
-0.21494069725831733, 0.10055422763095775, 0.12471764092042617
-0.1984891916615096, 0.11306154992846656, 0.14285433020979282
-0.19727022305222666, 0.11616279363682602, 0.15261739112949455
-0.21321953063678303, 0.10782558523418614, 0.15541477780472945
-0.20199612156787716, 0.11254841063045735, 0.1456648955855484
-0.2071436133564532, 0.1113073868490357, 0.15132077117689335
-0.2106000114858539, 0.10766086979528015, 0.14571025379930472
-0.21414165932171697, 0.10531768365278824, 0.14771596060394154
-0.2169090913567849, 0.10462763613721174, 0.15654384248256453
-0.21840253368339338, 0.1028150079359299, 0.155482757576743
-0.22135918113748154, 0.09977421532161618, 0.1574871720555163
-0.2265168013422012, 0.09142003758016652, 0.15999331194882344
-0.23135611176734652, 0.07720714259884452, 0.1688668231588975
-0.22689239315545923, 0.0903706796491534, 0.15735199519976492
-0.2282300944758079, 0.0874659259701642, 0.16192091178240486
-0.22919579927129682, 0.08377460627236637, 0.15763547150074145
-0.22847754691030653, 0.081656418496561, 0.15027551584162407
-0.2216657763441418, 0.09423390945559793, 0.13402969770273224
-0.2125728895481391, 0.10484589067367359, 0.14101537741944936
-0.2217847961897847, 0.09680935998556144, 0.14809254425454194
-0.21755625120727573, 0.09929633147466646, 0.13295914409482132
-0.226455409452573, 0.08942092309532128, 0.15202392793997196
-0.2282286740305212, 0.08422130933355282, 0.15233838011720457
-0.22842999317711943, 0.08232479290884678, 0.14641436687960566
-0.23011971959561506, 0.07376608103409314, 0.14997627194039673
-0.22136982601002833, 0.09457700716189256, 0.1308073022982921
-0.22426629691353522, 0.09040048761476105, 0.13435057300433811
-0.22922776295652977, 0.07749356124304742, 0.14064709170089648
-0.22694054684745854, 0.08471501011346555, 0.1348308011454249
-0.22817656135288178, 0.07953655403905527, 0.12829703567963568
-0.16824890601982512, 0.10991945988561336, 0.11656224280814621
-0.17488933591290207, 0.10991953173858753, 0.11822192127852135
-0.16487980742554828, 0.1099320180365623, 0.1157027079864453
-0.17722390124993198, 0.10772222891818214, 0.10838599835079352
-0.16533101923159024, 0.11272152014166267, 0.1281052763388376
-0.15902401440016573, 0.11725356285560545, 0.14322003059511704
-0.17578952970581724, 0.11563988693675531, 0.14026529834358575
-0.16892246586043969, 0.1130116422258273, 0.12995893124205884
-0.17170425012419976, 0.11459831467981944, 0.13612848184488152
-0.17411794220826232, 0.1115985319252808, 0.12543238449394584
-0.17272761946764137, 0.11347628090279771, 0.13230421031845188
-0.17924779782919745, 0.11450435758393676, 0.13696529990731618
-0.18666601828542193, 0.11478286534837016, 0.13984843517780884
-0.18174470089533756, 0.11793724401716454, 0.14880698452409186
-0.19519243657543153, 0.11496599131747882, 0.1459948443279284
-0.18857338380563912, 0.11506318661451304, 0.14178250483328161
-0.20133496621740993, 0.11264548453775922, 0.1450426312386493
-0.19309613761352962, 0.11361280342259944, 0.13954040005242505
-0.1833850351884934, 0.10783204376090054, 0.11017680956495012
-0.18121208874426675, 0.10998314084877918, 0.12014201223567786
-0.17777849420869185, 0.11313888329224554, 0.1318925019266491
-0.17991408092870018, 0.11102617546241574, 0.12425535583221681
-0.19203528258141178, 0.1111633719987602, 0.1296475217631472
-0.19466678217437064, 0.11081063776521742, 0.1307806744092395
-0.18778654190189487, 0.11076100513404341, 0.1256555361413584
-0.18520303490492016, 0.1094305549867809, 0.11901790674993981
-0.19148703735543074, 0.10889030867445357, 0.11983780190193337
-0.1965051742074748, 0.10722896181032665, 0.11574794651227027
-0.12377382917805181, 0.11129488318748158, 0.1241924952235573
-0.12394332958761559, 0.10900027973912438, 0.11506578740311929
-0.1345690575072464, 0.11188893252193255, 0.12229171730546862
-0.11851387243308067, 0.10438793436361617, 0.10214700384468725
-0.12834157805505408, 0.10778466851578244, 0.10819938325102013
-0.11774904250638474, 0.11399681571261257, 0.13634492891617073
-0.11453791011398054, 0.10867269531142891, 0.11953855805133107
-0.11719675469972812, 0.11578357515603574, 0.1431646571276931
-0.12193004398573534, 0.11802188753350971, 0.1485717220328459
-0.12484026588880646, 0.11174526023291956, 0.12528508442304967
-0.12281823121537, 0.11459738804110291, 0.1357671620284635
-0.12910468483746534, 0.11588359419446723, 0.1383200420688245
-0.13148728226944767, 0.11436544150971066, 0.13271417255528276
-0.1364269216106203, 0.11389354480396172, 0.12990558590694923
-0.1419201453035791, 0.11373768440526538, 0.12804708151147198
-0.13390028815532926, 0.11885692412190957, 0.14712856595350962
-0.13969396024397357, 0.11834906664464566, 0.14455955641200818
-0.14957500756453926, 0.11696151244931502, 0.14021617576048456
-0.1514326847556268, 0.11875307079279664, 0.14692525935895667
-0.14610629802174954, 0.11338772415072712, 0.12628559913492976
-0.15151575108387583, 0.11426363577115049, 0.13078866834988695
-0.1578038135972039, 0.1136983348155699, 0.1301531471450367
-0.1554636320230114, 0.11360844293499968, 0.1292137033414712
-0.14667207649211544, 0.110525852397564, 0.110663356692546
-0.14006058155692439, 0.11075016345303841, 0.11356161242092018
-0.13596445928936046, 0.11000941819477637, 0.11197970918781681
-0.14381828927674276, 0.11137026366993741, 0.11517300394338764
-0.1451324817380049, 0.1114865919131095, 0.11579909445748639
-0.14439907925876377, 0.11169201665774972, 0.11698953261392138
-0.14852395967391746, 0.1133485235067936, 0.12620297580046902
-0.15138482555791347, 0.11179628917427907, 0.11907252359545611
-0.14729545524491885, 0.10964469931650848, 0.10795094074951457
-0.15305546246657026, 0.11040307746984528, 0.11171620421035276
-0.15945860851728974, 0.10779771769304367, 0.10504881862484443
-0.07951876672395905, 0.10509477751532992, 0.1440023677422535
-0.0792732887917294, 0.10347613659348898, 0.13298875926850448
-0.07056788279222613, 0.10705564270878107, 0.14140874296144387
-0.07284362242400949, 0.10472590640479199, 0.13224175814573175
-0.0895473076417969, 0.1055340787792754, 0.14383149171981915
-0.1107764696398441, 0.11462383539207321, 0.1492601139985656
-0.09626553958081702, 0.10657332550739668, 0.13818995617711433
-0.10639660606794621, 0.11228662726762001, 0.1476365721927329
-0.1073532249059666, 0.11023608172046657, 0.13288102996003726
-0.11127673132129975, 0.11162854843399933, 0.13328055957672968
-0.08359465378436214, 0.10547976538831873, 0.1396976043104412
-0.09664325980758756, 0.10621873622834412, 0.13351580594491674
-0.09853857466910804, 0.10620361389203026, 0.12927320021407912
-0.09599372260699515, 0.10633550005217796, 0.13664320422401371
-0.09256742318532296, 0.10217555790554, 0.11945127634708538
-0.10103340216298616, 0.10747366713103566, 0.1314214205840767
-0.10660369781940607, 0.10683878440323054, 0.12044642327534638
-0.09743841590845459, 0.10296926217617708, 0.11729910906327488
-0.10591135382894097, 0.1072437448032022, 0.12286223073449032
-0.11344236212741589, 0.10775542173201971, 0.11684728937836816
-0.11475257861176398, 0.10661694210371737, 0.11170952435302733
-0.09914658700252492, 0.10032011467090447, 0.10662871996230264
-0.09743182788196704, 0.10195020497404739, 0.11389240333690794
-0.0910891189524616, 0.09813917067978964, 0.10928248794504915
-0.06636070150384893, 0.10380426422670483, 0.11869748586267675
-0.07762319246160707, 0.10190706375170436, 0.12930094848494764
-0.08830672754710894, 0.10383032865643557, 0.12977414550166677
-0.0727454783211337, 0.10285017382741374, 0.12369342439007738
-0.08375601137505724, 0.10178695611785626, 0.12132186364874624
-0.07905065968999199, 0.0985808075025541, 0.11189867962560576
-0.07674557936803315, 0.09977960517841823, 0.12286540121671324
-0.07307690568494746, 0.10068382352361879, 0.1181153442212272
-0.06930782933265256, 0.10716564293956701, 0.1388381096166048
-0.05093621309002129, 0.1102922048324461, 0.1455676650775759
-0.06230006012407884, 0.10684837655576848, 0.12789452873384816
-0.058311531222201105, 0.10838970709853017, 0.13481413110607127
-0.04437973353122123, 0.1110688571661955, 0.13305464708317444
-0.051405750161202426, 0.11004721785540911, 0.13890674261903038
-0.04307849551791105, 0.11217146076050605, 0.140287938561793
-0.07094064512276262, 0.10454246535013242, 0.12445569177351286
-0.05639020025819004, 0.10614473452015698, 0.1199342299840207
-0.06679941482670118, 0.10433887046737428, 0.1207876808126521
-0.05685633392978783, 0.10277330294750524, 0.1109086648706002
-0.04410754515696082, 0.10542574036124343, 0.11064715260023962
-0.037284916310679, 0.108506805910816, 0.11604350916375125
-0.05191032339983641, 0.10746458079127161, 0.12165612778286924
-0.04314504052260339, 0.10918296063934085, 0.12207117196260685
-0.046465650145642835, 0.11052989031776908, 0.13108571650562484
-0.03940190149464939, 0.11082489345277961, 0.12656745950286766
-0.028548801147915158, 0.11068170131975483, 0.11912619822543997
-0.027055599618145736, 0.11029033815435597, 0.11693226823558041
-0.03329897833919395, 0.10874145617852819, 0.11445551831409284
-0.02503906840090228, 0.10870375597613195, 0.11058350535616586
-0.025856255203578343, 0.11167999929491675, 0.12171144831992815
-0.013009597245737064, 0.11203139875890383, 0.11819631751901488
-0.006317086011214964, 0.11373350972785037, 0.12314780393866874
-0.038454760822711376, 0.11341289255121205, 0.14520281743276328
-0.04180387754457576, 0.11218282480675118, 0.13643279186875398
-0.0324659612372898, 0.11207241564219558, 0.12754314479331536
-0.02673965646766136, 0.1148138729535233, 0.138202500556825
-0.031669801470349965, 0.11297348886588605, 0.13163293845638632
-0.009145971869987512, 0.11586510983488749, 0.13344771780407105
-0.009146958187608687, 0.1144796522005783, 0.12680266213198146
-0.0015328675743329274, 0.11642758798735195, 0.1346308163735502
-0.02308714897698263, 0.11575969192238583, 0.1410705473665459
-0.003807520772939242, 0.11686898644079541, 0.1374521641129607
-0.0016611613980249552, 0.11802673665984274, 0.14374619546287848
0.05806853822749122, 0.11403441901006367, 0.14345809867914666
0.05469320761375466, 0.11388646762703591, 0.1376550993273235
0.03944478534699302, 0.11696491122270862, 0.14492566720760283
0.042714625379878794, 0.11610190751566743, 0.14113160376566494
0.04629693208633233, 0.11246864670837799, 0.12702133070317506
0.05127888504918064, 0.11394970704018714, 0.1351205152867772
0.052149633854404256, 0.11150278830456263, 0.12606855851090681
0.05233772404502929, 0.11392764753828909, 0.13563602002777447
0.027415538060538137, 0.11672700358763236, 0.14061142182370512
0.03926301857033643, 0.11548264732795416, 0.13730730425269744
-0.006024271458006795, 0.11695766116713668, 0.13847134955141044
0.010247850947637385, 0.11745289943677861, 0.14080622684100974
-0.007547048950432806, 0.1162817426757411, 0.13512011003021251
-0.008099534265611517, 0.11463416221442807, 0.12720692974419087
0.016198976509917577, 0.11542848330660763, 0.13151078320675325
0.03525330488978834, 0.11545095376206674, 0.13576595709502376
0.023699208084549388, 0.1160606706614273, 0.1361131178155406
0.011392645022454063, 0.1150966216552303, 0.1290823043606438
0.031022336745642753, 0.11481416471641745, 0.13160308659535347
0.020170985482738733, 0.11372018769755421, 0.12481737677936211
0.03262435465521408, 0.11274622198682152, 0.12338884024973472
-0.007389983425695993, 0.11420876750978394, 0.12529309844921457
0.004308649612107054, 0.11451845904738574, 0.1257570618428867
0.016113172339425483, 0.11314846282388986, 0.12193749246638957
0.012240484040877726, 0.11278041688553636, 0.11998839776898956
0.003366708938674733, 0.11216394915733907, 0.11687808230479668
-0.006849771305710722, 0.11030075492061665, 0.1112424380525141
0.011373258761500976, 0.1112772216691194, 0.11483148170829321
0.03488901905003974, 0.11187765956456287, 0.12078221700236967
0.027617564971775012, 0.10974511295844411, 0.11312709492871334
0.0595006988433324, 0.10894148025936032, 0.12198883605298756
0.04973741263474564, 0.11294305059136721, 0.13033472612604835
0.029907178657957854, 0.1132117286416974, 0.12455279482713158
0.028994701393399647, 0.11213438691588071, 0.12049636966829078
0.04982565736052958, 0.11090027875307168, 0.1232520020635552
0.041224150952729355, 0.1098827430479628, 0.11686777922574249
0.02924812364213708, 0.10898577558498454, 0.11150649009915292
0.03701109645404156, 0.1078676860411366, 0.11073559852742482
0.043613113056153466, 0.10872601323427492, 0.11475379169659682
0.05397741232337644, 0.10560596476932824, 0.11141038650299491
0.10835068879278478, 0.09878532015189323, 0.11333503825251315
0.10526509113383203, 0.10100930818691183, 0.1240023440696836
0.09331286579719059, 0.10022746030611819, 0.12720923165904116
0.10329255410110266, 0.09954239390082201, 0.12274653971585456
0.09524655894643844, 0.09647970155906055, 0.11848987715908291
0.10730902173876397, 0.10325191165835526, 0.12976639651790797
0.10003509240432942, 0.10069456113055372, 0.14013768412317007
0.1007806004766078, 0.10491686559761532, 0.15472129842965088
0.09620360652910254, 0.10157541277121916, 0.1537950229304335
0.10203906658579648, 0.10027548464212316, 0.1301772442591803
0.09678939081511556, 0.10038175055360471, 0.14531531748236093
0.09345812773604364, 0.1023386878818171, 0.13786161827205923
0.09644546988417743, 0.09752251847187168, 0.12462424969521929
0.09087397206786724, 0.10137091746155102, 0.12959362624294246
0.08947659702759186, 0.10296334079675168, 0.13564149155094696
0.0805875007748487, 0.10842536601853811, 0.15246209579555967
0.08245054093501065, 0.10594319823328907, 0.14059111934872287
0.070797326250276, 0.11083546803634495, 0.1469849597558456
0.0653240389737251, 0.11150669491768966, 0.1390631643430869
0.08116578219502547, 0.10411712788433525, 0.12850403898023188
0.07400934935499255, 0.10799171547229766, 0.1352745315056261
0.0728825028778444, 0.10760388373094935, 0.13078289101092086
0.09183123495677016, 0.09724624020803302, 0.11610462642721561
0.08528385625168064, 0.10082267935784989, 0.12114714289930317
0.08828932040379317, 0.10085823210990474, 0.12488659611160088
0.08295863090293137, 0.10329577597523207, 0.12769666288720102
0.0732887574806109, 0.10775308448593604, 0.13224331981261597
0.07190860713130796, 0.10636112777329171, 0.12365677547069542
0.07391652628475086, 0.104593708334318, 0.1199659061477186
0.06669316499465694, 0.10629642814501909, 0.11903004264703379
0.07814140184924366, 0.09948842748031145, 0.11062724052265271
0.06635373261354044, 0.10453077643357322, 0.1145919462299121
0.06342374747396909, 0.10552570182180793, 0.11539995454887407
0.1426313531999168, 0.10478780703836907, 0.1070911467092646
0.14752359045462243, 0.11047658039668239, 0.1228459081988636
0.13881396929426953, 0.11013423775730574, 0.12568110459196366
0.13622879312477676, 0.1065922843993639, 0.11533584909884173
