-0.3213363548175536, 0.20358714806756345, -0.4813944996998296
-0.29745026236344224, 0.2809077316436716, -0.48287788400365345
-0.393225099017392, 0.07930216137005387, -0.47848332170240615
-0.3340194932483477, 0.13281099774985183, -0.47971245927179357
-0.33985613182987745, 0.11501117574931033, -0.4792895922624921
-0.31447921126602313, 0.15425355169732302, -0.48022079634717063
-0.35600513728604866, 0.2915339545178889, -0.4830394088560186
-0.3623168145743463, 0.2881181331669702, -0.4829874886281612
-0.37146578811803865, 0.30500713643664323, -0.4832442759299112
-0.426101871779273, 0.1861157202733708, -0.48097930882303247
-0.4362930417304765, 0.1609275819428016, -0.48038075974400696
-0.42887120357177283, 0.16266445326129514, -0.48042204576930275
-0.3637048639023574, 0.1763631652312392, -0.48074750308418435
-0.35024377069206236, 0.1197182238438296, -0.4794015100410297
-0.37452559605247576, 0.13687966730903064, -0.4798092611239095
-0.4234258619463526, 0.07219454170881491, -0.4783611276537083
-0.31691282349284733, 0.29553739545854296, -0.4831002393492897
-0.31752616436598247, 0.29157870830725724, -0.48304005902597574
-0.30937592162455463, 0.25557211518475725, -0.4824927146778587
-0.3893640277653784, 0.21306259238450254, -0.48161964347746833
-0.3662731200122778, 0.21771562824908358, -0.4817301727405293
-0.3772174525503328, 0.15042443778523745, -0.48013111659312674
-0.3454475574633109, 0.3875763966560069, -0.4844995522990593
-0.32312220029851124, 0.39042024941089426, -0.4845426884290696
-0.30562664061083167, 0.40354239861779323, -0.48467232701777685
-0.3268063840927957, 0.4726001353059466, -0.48413100330129466
-0.3777823315551993, 0.38839963071020267, -0.4845119924392527
-0.3658608212666017, 0.397293700102417, -0.48464724193605363
-0.3672438028197765, 0.3505260273389853, -0.48393628683209355
-0.39276381922742426, 0.33841919775869345, -0.48375214740775657
-0.3185608254575382, 0.4284655020851288, -0.4844770083791714
-0.4005180381793054, 0.4690734971484051, -0.4841586901218358
-0.37703552012767483, 0.4825074743500166, -0.4839765892918271
-0.3514268154532983, 0.4137369949951007, -0.48459252649274576
-0.4380998983767856, 0.3962115825813835, -0.48463082906781063
-0.4221904355843674, 0.35823332732344204, -0.48405337186484276
-0.43791323428882045, 0.3634635853502786, -0.4841329478321758
-0.37298178221515393, 0.4705084140389979, -0.48414738949202757
-0.37682642289776336, 0.4675521693241457, -0.48417056774383205
-0.33854940951990475, 0.5034339358249842, -0.4836173676260149
-0.3282521076121871, 0.5209237185436928, -0.4832412965153238
-0.3170128933125562, 0.5049316668232101, -0.48358506780335175
-0.3835220712908871, 0.5383740553585031, -0.48285975250642743
-0.3564578012522111, 0.5260177821081945, -0.48313753535598736
-0.3617866535203208, 0.5330742224047461, -0.48298598327821946
-0.34623081938229394, 0.5458767907794311, -0.4826747448487422
-0.335025985199903, 0.5838217106970803, -0.4817084877916496
-0.31952997322329724, 0.5759173907281797, -0.4819092040515321
-0.3639221820344839, 0.6058837971215375, -0.48113783406536137
-0.3808135081129242, 0.5716530611691792, -0.4820312994603838
-0.4288179636092085, 0.5609830316456628, -0.48230463266124746
-0.3669513076816606, 0.594131214912251, -0.4814445339089132
-0.3360313936900045, 0.6384075215703887, -0.4803036379974892
-0.3922367448329117, 0.6092840766414109, -0.4810490441239774
-0.42428114795679567, 0.6320782373870399, -0.4804662424848439
-0.3901344655319433, 0.6371467530147809, -0.48033988091684726
-0.4169875745375877, 0.6638723602705466, -0.48114862765731226
-0.38281725274071204, 0.6681025954194095, -0.4836099458795324
-0.31286126062882236, 0.6698387929570879, -0.46434510895042613
-0.39963748782354186, 0.6714695243907769, -0.4755918377430421
-0.33926461791089757, 0.671405335186424, -0.4316947964735044
-0.3515985674041518, 0.6744776466789971, -0.37477270115067723
-0.3966429142888872, 0.6753286897317511, -0.3671350645256957
-0.32637829969603127, 0.6698189057788346, -0.45655055561359453
-0.31806938581960925, 0.6728711872525273, -0.396809575965944
-0.39512229641967034, 0.670711111864577, -0.44688887484345524
-0.39820301480218817, 0.6700719578695176, -0.45596476515102524
-0.36566617864197526, 0.6696951471162835, -0.46077800659195445
-0.3406806909292174, 0.6744114370719596, -0.3725049579193225
-0.2892778678608722, 0.6701302060924337, -0.2814408696363513
-0.3159227316771201, 0.6724175728407109, -0.32020882330429745
-0.41097439705871835, 0.6713252716451771, -0.2821385030810002
-0.3937521183885867, 0.6741170557812679, -0.39002516565657
-0.31631712771782217, 0.6738250130295589, -0.3571828974215866
-0.32174884433193174, 0.6717306278424884, -0.3027083386233804
-0.3860334449264978, 0.6733775603792245, -0.3193807028524222
-0.40376883466071534, 0.6736606438858085, -0.32585458512475896
-0.36732241362260126, 0.6746416670199956, -0.35589200044747404
-0.31770682293152946, 0.6702230916584322, -0.27466111833251894
-0.3813840894694299, 0.6709392363121771, -0.27547026565095034
-0.34992238782485063, 0.6717507704607639, -0.2631415140823521
-0.4300853668168195, 0.6754128362041074, -0.2543527408730222
-0.43996308111780325, 0.5056658003054366, -0.1657554973711781
-0.39019132415712526, 0.5140207520611676, -0.16712244927354192
-0.3428397519652835, 0.5124855655942114, -0.16816282987525105
-0.32030580063857955, 0.5580631541190614, -0.18369159266865218
-0.3196609377460865, 0.5138473172326066, -0.17020363121287868
-0.4309729850368399, 0.5654763468055635, -0.18401842428279938
-0.3557834201338774, 0.5425916686092296, -0.1765100338599469
-0.35090910173911577, 0.5122375116724771, -0.16763190146089454
-0.28656128212446386, 0.06308461782793842, -0.16462384698065358
-0.3346019060088418, 0.1758008747840944, -0.15989713446339282
-0.316714841035729, 0.08804188525995287, -0.16244596934030422
-0.34234983286759935, 0.07420143651790906, -0.1616363900510769
-0.38100464741354056, 0.09678290184285718, -0.1602068005923753
-0.36219808562868117, 0.10747908476758096, -0.16036270879534067
-0.39076425161510175, 0.14100421818536796, -0.15909090026859773
-0.32517197687967797, 0.07289810186408108, -0.16242414600713817
-0.43062762926428644, 0.06899735728692466, -0.16128580587185543
-0.42015745557228346, 0.11298466578216869, -0.16007627113911566
-0.43750461457581147, 0.08410004655259734, -0.1610047807754798
-0.384458843164455, 0.07932310496778744, -0.16052393001332046
-0.3851508935613921, 0.04631042669311042, -0.16144888543624994
-0.38298725502682024, 0.031080708600815205, -0.1845192109038201
-0.4207269873246923, 0.031068726284859974, -0.18575298756609165
-0.31550824811207434, 0.030826202162366388, -0.22648379412270303
-0.3109716088185491, 0.03078479653758052, -0.2571031351333577
-0.3271374824990261, 0.031279189367117974, -0.16923034907639858
-0.37536266878532043, 0.03071199911921743, -0.3097052048503362
-0.3519503020367313, 0.030721095123377486, -0.30319083888457254
-0.3195359130354736, 0.03110898124676726, -0.1838708731650323
-0.3776025625612221, 0.03277125492250429, -0.16240224697318462
-0.6022211344725541, 0.6730910392966684, -0.32179061658355157
-0.6091262406404597, 0.6706998700363345, -0.27878896212197585
-0.5781816693287649, 0.6722770691402309, -0.31279795486928325
-0.642774288479931, 0.673499835741671, -0.3279883249585834
-0.22631192834402553, 0.6729374866870852, -0.3362621585819717
-0.17932428592488672, 0.6742546748681212, -0.3448447923249539
-0.19216864559899696, 0.6725143851341195, -0.2997711788321236
-0.09094736505410264, 0.6739595979912617, -0.3410716092410676
-0.06845420836104203, 0.6721575378657179, -0.3067596984864589
-0.1314962848009147, 0.673808469462564, -0.3154197961763197
-0.1570035511122622, 0.673098273556264, -0.2982990261938365
-0.0964559259638329, 0.6727930722384852, -0.3029004526727487
-0.5726769966290213, 0.1160816332338225, -0.16180338462357374
-0.6015338371720191, 0.1411993137874341, -0.16002323209675562
-0.5908353542535345, 0.0601308955806105, -0.16225564275298418
-0.6282858120647101, 0.13063785590994256, -0.15963632836487174
-0.6420539537620393, 0.09671573627620803, -0.16006319243610417
-0.6481540633891105, 0.14818018146140527, -0.15886960240335318
-0.5690584797919627, 0.057386524063104155, -0.16326397881704746
-0.6689476982171206, 0.04989700780510496, -0.1615230179298332
-0.6867685483407396, 0.14999072716442, -0.15960164929407628
-0.6841172571168506, 0.13434176724370767, -0.15986135397526088
-0.6784857440730145, 0.08921701802489167, -0.16065128941340767
-0.6170158604899918, 0.08069866737814944, -0.16091658241375828
-0.6903571295402604, 0.5250954940056404, -0.1711425516393451
-0.6278933407182145, 0.5145468163463417, -0.16768763389196564
-0.6031374988054593, 0.48430310567857454, -0.1612213584767212
-0.5848675169420897, 0.5071825090189075, -0.16753625193568109
-0.6788870978407262, 0.5615947438588865, -0.18248309791544026
-0.6413355485930183, 0.5582929160458832, -0.18075973453063818
-0.6028487421336781, 0.54788556479963, -0.17839209611488296
-0.6466571621666246, 0.5506865170749005, -0.17815914483377276
-0.6109736164516074, 0.6715506126542915, -0.24957829969675321
-0.6307662429404648, 0.6749177248108622, -0.2537764118667543
-0.5818339331329838, 0.6716502742487271, -0.26170459409086144
-0.6455022886604228, 0.6711267396156977, -0.2922576136150674
-0.6273504032483411, 0.6701554216949395, -0.26875730969024686
-0.6856462183005357, 0.6725428456193469, -0.3216074349886112
-0.6087700397696153, 0.6747244233821308, -0.36156689030870176
-0.6346764960377318, 0.6750552890344977, -0.3693803180803511
-0.5760940372747645, 0.673653587592741, -0.34951348500245866
-0.5874287971790014, 0.6741840912238628, -0.37413549969960813
-0.5792377193065309, 0.6710489232259562, -0.4345174198527648
-0.6134368762077926, 0.6725032039765168, -0.41644484762839307
-0.6532817107165854, 0.6728657806410232, -0.41376255190502204
-0.5954075383962815, 0.6721463177717579, -0.42041528698010383
-0.6227476770583039, 0.6718559992746811, -0.4278811572652867
-0.6670682240174991, 0.6719721943769328, -0.4271461706417057
-0.6206170742168047, 0.6710076264375542, -0.4402022003572316
-0.5605914697186081, 0.6706372837540474, -0.46994081304438523
-0.574429489696929, 0.669544839841233, -0.462145542433682
-0.6896417911500896, 0.6721398701643072, -0.4787531719244341
-0.556631284463124, 0.6694518107667669, -0.48378970062197907
-0.6747392564171331, 0.657574415855092, -0.4802960559520284
-0.5495247116080495, 0.6628424687821303, -0.4809363560355839
-0.6262544278293501, 0.6233620178616557, -0.4806834484509045
-0.6772102676435747, 0.6130645082089403, -0.48095016513007993
-0.6322770575949028, 0.6406989344236745, -0.4802513429345882
-0.5493889232611187, 0.6232590311666784, -0.4806546241888627
-0.5691394727677835, 0.5986656229433602, -0.48131315802072366
-0.6116265195168611, 0.6124013790884993, -0.48096774117901103
-0.666992468135384, 0.5923418194713286, -0.4814911027555826
-0.6224536005921428, 0.5852648875080986, -0.4816760370864962
-0.6170552066378737, 0.561325355529638, -0.48229625073233895
-0.5594586760925369, 0.5471814180111101, -0.482628559882615
-0.6160594450227466, 0.5467563562944887, -0.48265394765361685
-0.6470912646209267, 0.5091144358337508, -0.483500558575771
-0.6012748028969104, 0.516215506107432, -0.48334793268927334
-0.6126581922038611, 0.517539445137712, -0.4833196596993477
-0.549319874843398, 0.4808584076104533, -0.48400323006733664
-0.5413726364822053, 0.5157196600930338, -0.48333798318467497
-0.6644827943823095, 0.46863758026229635, -0.4841620888834448
-0.6185528865275003, 0.49189957836404474, -0.4838161205663753
-0.5933904557383782, 0.4109326675608543, -0.4846144870910398
-0.5715364887408694, 0.47915921298123465, -0.48403267913728376
-0.6254480751857506, 0.4518354816864185, -0.4842937448774083
-0.6745145138525004, 0.3702311737949683, -0.4842357754731022
-0.6677402064448313, 0.3772910730023938, -0.48434308442582774
-0.6657177090961207, 0.37926489662408264, -0.4843730856385734
-0.6065457192179615, 0.42214165985906904, -0.48452661601094765
-0.6120245721450102, 0.44184925737456016, -0.4843720551873265
-0.6487822208794387, 0.3449014121008717, -0.4838506801344879
-0.6352672080632387, 0.3491826851263933, -0.48391581328845734
-0.620862115981862, 0.3984720381761001, -0.48466515086819323
-0.566614368525106, 0.43749943653859924, -0.4844061489118684
-0.5517030972222092, 0.4019353441924458, -0.4846849932835169
-0.5612064029103303, 0.25894593617102646, -0.48254399579353413
-0.5947536560820801, 0.36787667901857823, -0.48420002834991127
-0.5973734350831201, 0.33599026453095815, -0.48371525847004904
-0.5992889080432334, 0.28314315969387027, -0.48291181183497306
-0.6945912661932384, 0.21782872828955568, -0.48173285691398027
-0.6904977011221011, 0.21774125839862934, -0.4817307861452007
-0.6908803590080479, 0.1255584447107066, -0.47954030247411905
-0.6198600987501606, 0.33445437770620245, -0.4836919634244288
-0.6165894084293695, 0.30180177802812, -0.4831955269840319
-0.6088417068314541, 0.37537075420508115, -0.48431401034046584
-0.5736689815667586, 0.346144472050716, -0.4838695490109579
-0.590538446649486, 0.24033128142427657, -0.48226096604916413
-0.5947439119308564, 0.11514505993042198, -0.47929216687947523
-0.5984050834351687, 0.11843224129874871, -0.47937060036531565
-0.5999788023691361, 0.17339038834289947, -0.4806766749495138
-0.6400063693759419, 0.1919841458583884, -0.4811187390136652
-0.6484623176216611, 0.21623977162638927, -0.481695154425178
-0.6446957200641779, 0.1366703558730379, -0.479804296576719
-0.6935233493887174, 0.04456155488246524, -0.4778859567029666
-0.6201993482282739, 0.12249955530639246, -0.4794675710752653
-0.6044815842573614, 0.20546488722377673, -0.48143905400531706
-0.6253873598702504, 0.14235151587702954, -0.47993929100406707
-0.618202813398102, 0.05149974984680075, -0.47800527860030273
-0.6477511732963394, 0.050648812817452225, -0.4779906195434864
-0.5913223943720044, 0.0342911373132667, -0.4777092883527311
-0.5488090505573013, 0.13925429599860228, -0.4798635080630086
-0.5562107245699084, 0.11809033453859968, -0.4793601095104491
-0.5808970248143406, 0.20031469655616882, -0.48131582130374395
-0.5720726244387674, 0.22571479709337947, -0.4819199937497795
-0.6017953126753597, 0.05134942151888326, -0.4780026367081639
-0.5605717568090444, 0.03113395156981718, -0.4596715710897241
-0.5801433609600157, 0.030933009719140557, -0.44271969664707067
-0.6648360310457085, 0.031140313187129114, -0.46006750713597755
-0.6827001619749644, 0.030807849177728934, -0.4012252676492505
-0.6756930797497259, 0.030814323087558118, -0.4060049261568388
-0.6319877002736419, 0.030702783564417233, -0.3231337336292455
-0.627100407595574, 0.0307667655349815, -0.3707303454505781
-0.6028188149878142, 0.031103612279361547, -0.45701240060253134
-0.5630274361237348, 0.030760984387151163, -0.36709585464145683
-0.5745160677038282, 0.03127649916495556, -0.47163312114981315
-0.5951905547220846, 0.03075377045213889, -0.3613373123469019
-0.5982651334738838, 0.030726021616451632, -0.34071447902449903
-0.55681800497303, 0.030850009919375303, -0.20932858735839638
-0.5976237511259878, 0.030837985117523496, -0.42367750372766716
-0.6064722939659533, 0.030726621088879715, -0.3410641903170186
-0.6118148229481333, 0.030751644006525188, -0.3595919149910015
-0.6097171094036921, 0.030733961820700685, -0.3464954089261542
-0.5781704056145179, 0.03082041753329348, -0.23047878735498328
-0.5906333815782461, 0.03075518625111682, -0.2783795010076279
-0.688991075937734, 0.030783285356817278, -0.2570593128829227
-0.6855202381515222, 0.030766264304698514, -0.2696395566022448
-0.6463035516447291, 0.03076194167497707, -0.27241188756485685
-0.6322571504011177, 0.030786453227236815, -0.254431468351262
-0.6955513199858148, 0.031195624923509392, -0.17540513228833549
-0.6272232676636502, 0.031108194811049886, -0.18237938958320243
-0.5738098061002268, 0.030749778691511916, -0.2827451838791164
-0.5640048671463295, 0.03071597476049259, -0.30786699222117114
-0.6061924525865767, 0.030749849461214878, -0.281879094557831
-0.608017775132633, 0.030745156107098347, -0.2853395682153939
-0.6248731379492523, 0.03071275049894446, -0.30919125305497397
-0.6080279483752283, 0.030989345177030673, -0.192748433732103
-0.23227922737433027, 0.03374089523731869, -0.1643060521327248
-0.20261786530321513, 0.0712418251927888, -0.16207945153451075
-0.20137910997482644, 0.18216012432070078, -0.15971359237689722
-0.22776100023814017, 0.14429177648863525, -0.16181399949979358
-0.21904447957804998, 0.062478178733722724, -0.16302334294407758
-0.1611361759709636, 0.08054647166809464, -0.16065913746340238
-0.18546964216188394, 0.09468964975052796, -0.16083854734912603
-0.16846060417501244, 0.18991908478411085, -0.1585492035259034
-0.16846880363375602, 0.22652098240479263, -0.1578155041752279
-0.03534845756327434, 0.21185592354578953, -0.16249912116564377
-0.05870417522111335, 0.07597391842442679, -0.1628636856241159
-0.07513789828236275, 0.21150495137203723, -0.15957409463301875
-0.09089024937473404, 0.10999931259902881, -0.1607447460951063
-0.07892124027538118, 0.1901187425895271, -0.15979524584992583
-0.18743302283524915, 0.08007567410806117, -0.16120001943553255
-0.12154819060374687, 0.07687670060997642, -0.1607532363457065
-0.13644573300937485, 0.1791232722580477, -0.15829826148756998
-0.1397459813578124, 0.09370858881892194, -0.1600008602581173
-0.07985049238734294, 0.08126746897937132, -0.16178916980304509
-0.13116972304408026, 0.03884798115456867, -0.16164525391185425
-0.07220424342764521, 0.5091782263021714, -0.168344056116153
-0.06501876753817917, 0.5579151323070195, -0.18364908659846063
-0.12436891483969337, 0.558461755012237, -0.18103203869179602
-0.10036496012622015, 0.5345413379992702, -0.17393303033803362
-0.13033627800516528, 0.5137234124698373, -0.16716713103326852
-0.2446598533524394, 0.5055282013046246, -0.17117276523756703
-0.21944634082726924, 0.5258362746798331, -0.1737030551613841
-0.1898472162652369, 0.5025602319373521, -0.16516102642713937
-0.16906165354709202, 0.5152702039659701, -0.16803938262798532
-0.10078973781938197, 0.5443176480252785, -0.17706531865348693
-0.1429956539290651, 0.5178677281760731, -0.16809994505976977
-0.19214282433515104, 0.5485404747429943, -0.1788435653789148
-0.17294619294948138, 0.5324171147927331, -0.1730189902360516
-0.0960075142780977, 0.6750198695849072, -0.24873166982268854
-0.12463004929237406, 0.6781314058442462, -0.2514563929855333
-0.08719046687432747, 0.6722167982722455, -0.29448737660641944
-0.13151845512993532, 0.6728335155811751, -0.28727843661560154
-0.22212909986441148, 0.6717837971643246, -0.30360117950796983
-0.19738109619779137, 0.6746268879903827, -0.25581098017907417
-0.17334004088240312, 0.6729639848374581, -0.3019467112978737
-0.1174218409406574, 0.6724774620801626, -0.2686977894402417
-0.09334757878997768, 0.6741703648600944, -0.3806352459436376
-0.032327431157127356, 0.6730061278273094, -0.3845322911465496
-0.05463380974516906, 0.6718252936909961, -0.4186792501169883
-0.09431091162449007, 0.672205457068775, -0.4209787396919828
-0.06314204800691971, 0.6732687516054794, -0.34105810759937616
-0.11487258298592945, 0.6741598632689171, -0.38429373802992833
-0.2098012536323097, 0.6719660177429501, -0.42056554042847005
-0.10196822615636282, 0.6748570698298711, -0.363847396153645
-0.14358391220818595, 0.6742974892127362, -0.32882746305062405
-0.145815443536502, 0.6741308316588892, -0.3241052819662865
-0.1658915519040326, 0.6726434402582021, -0.41521236786368076
-0.15348706407630197, 0.6742593191999544, -0.38524793420670944
-0.14176362831858982, 0.6735512058781538, -0.40122382239327486
-0.09961986033730602, 0.6737978706259801, -0.38916246178015895
-0.19681377262502225, 0.6731190996245993, -0.3989905942807811
-0.24702428771242657, 0.6736151868242031, -0.3704704507099546
-0.03954446802846198, 0.669743855234464, -0.45595564331177063
-0.05662862416543654, 0.6702646274067457, -0.44757854997557855
-0.10152165212261036, 0.671068064382742, -0.47255328384321305
-0.11125554576170985, 0.6708691935242438, -0.4423627668908807
-0.14405372184443005, 0.6711049682135235, -0.4410327844178841
-0.19320329247213613, 0.6696887838027558, -0.46259261735872487
-0.1551190226305623, 0.6704242467466168, -0.46773230962236056
-0.1505063639340915, 0.6723626772592879, -0.47953208522169294
-0.0420113709086068, 0.6694404400986396, -0.48381008290755995
-0.21262207254292675, 0.666271220551635, -0.4815771333082124
-0.07060787930316817, 0.6370139182801968, -0.48033486274419046
-0.10436604999463098, 0.6560613448036423, -0.48028389784372394
-0.2483308655297532, 0.6437259866898453, -0.4801406369364301
-0.22116713665208354, 0.6333216616215882, -0.48042290103940244
-0.1668761339335142, 0.636803496398743, -0.4803484437087327
-0.03357550772134136, 0.6037150902359103, -0.48115853292650634
-0.07529550033859936, 0.6048993994902332, -0.4811564427612407
-0.1409734036639935, 0.6208035335125124, -0.48074832245869525
-0.1894769190624057, 0.6147196519025645, -0.4809070108100771
-0.20565096506443925, 0.6139702154489112, -0.48092025666046234
-0.18400515031641512, 0.6067103113387587, -0.48111622003385235
-0.1255874666183832, 0.5693414598600532, -0.48209169516473765
-0.17159049515539868, 0.600196292370775, -0.4812862055718193
-0.08365578767843329, 0.5618876057044543, -0.4822789695670959
-0.10192331181304636, 0.5916482559080284, -0.4815093470725589
-0.08169275901576069, 0.5673677208007374, -0.4821389758505928
-0.07654721117272067, 0.539559780967394, -0.4828256468122189
-0.21258938120346013, 0.5092626900386111, -0.48349271200971666
-0.21716287170621731, 0.5523858970709666, -0.48250585835490767
-0.1465306754254075, 0.5809517804394244, -0.4817885857064308
-0.17973513602938956, 0.5425463196142783, -0.48275729417630076
-0.13247546879183342, 0.5136787768776104, -0.48340256965518447
-0.15567062158703107, 0.5320028253521872, -0.4830090330236835
-0.03535832771594031, 0.5207321399727056, -0.4832308133896807
-0.09245205090883217, 0.4073286321871356, -0.48464279221201584
-0.04340324480872661, 0.4877417874378865, -0.4838789533275056
-0.1355374453109337, 0.4719073198578499, -0.4841364577218048
-0.08767076076920803, 0.4745241664877082, -0.484112854012439
-0.1336557424328994, 0.49502636213118484, -0.4837626225698198
-0.19858577664262883, 0.47730499398503246, -0.4840654309389083
-0.21103205165810632, 0.5253279308012002, -0.4831461237552059
-0.17187219770848688, 0.47694894283937717, -0.48407152347006854
-0.22049845492078243, 0.4870363684431638, -0.4838976800671131
-0.1919210598391397, 0.4700004666599389, -0.4841513312089334
-0.1741200546291137, 0.4343533595771265, -0.4844308996476373
-0.17785081271488168, 0.4487796501991155, -0.4843177667514075
-0.03465991735127975, 0.4438532914881379, -0.48435634632310925
-0.07719229090441004, 0.3708103892495377, -0.48424459310048446
-0.06799095296791528, 0.3460187719857206, -0.4838676353901532
-0.08182270378085063, 0.3299674814721333, -0.48362366301913995
-0.0414781959434873, 0.2632528271829606, -0.4826094672312961
-0.08670043690497298, 0.14449888457254426, -0.47999037594209315
-0.07562253219186581, 0.1713769892766315, -0.48062908854753233
-0.08957572928887778, 0.13336714427272886, -0.47972585286815117
-0.11658404801820887, 0.18973047451278263, -0.4810651562697033
-0.11375266594754939, 0.1814802331938015, -0.48086909605389705
-0.11792332942184956, 0.17495398023165193, -0.4807140169903338
-0.07754622341852237, 0.26035883264181503, -0.4825654283112797
-0.06342948856717019, 0.24417605363199535, -0.48231945380381624
-0.05660172604447551, 0.41179804732304803, -0.4846076167164633
-0.13216123580873942, 0.2776667591494525, -0.4828286259226302
-0.13240345834963507, 0.3610779866233489, -0.48409662078258076
-0.13509696850434827, 0.34710103438080747, -0.48388413685234644
-0.10664573866544348, 0.37172717834550933, -0.484258602103135
-0.2386769839696537, 0.35917300272462455, -0.4840676411890665
-0.19134846670342381, 0.46361769885584525, -0.4842013800842666
-0.19607183485568128, 0.33121157694097725, -0.48364264532702367
-0.2095775785724267, 0.2746100282711997, -0.48278214046460605
-0.20548045176730922, 0.24636400781540324, -0.48235269597207825
-0.25001594211339856, 0.23412258070763717, -0.48211991766827644
-0.17477849896727748, 0.4213173479067129, -0.48453311841512414
-0.14921869483688033, 0.4581786599418991, -0.4842441036335947
-0.20892199663174285, 0.34140010493594797, -0.483797537191747
-0.2131394464257222, 0.3213129719214695, -0.483492158922157
-0.11314863344260097, 0.4162736911869222, -0.4845725717050132
-0.10476377785168996, 0.41527145641908103, -0.4845804624294882
-0.18768573490396248, 0.36726469919688004, -0.4841907542493874
-0.16135928756814674, 0.3329397065439062, -0.48366880064560686
-0.1722052485570275, 0.35108021657406685, -0.4839446379984427
-0.21498719058127716, 0.17358866396776562, -0.4806801798698955
-0.22706867401382813, 0.21425460625858547, -0.4816474403923596
-0.1733522430987383, 0.268497746480252, -0.48268914769635746
-0.15671187399730657, 0.3143635573658366, -0.48338641882147537
-0.17485627981370902, 0.26101436236172393, -0.4825753844369204
-0.14670552170104356, 0.252207361937505, -0.48244155517830384
-0.12162246915025204, 0.2759912634395268, -0.48280314573521316
-0.10482814744242536, 0.27185360617599086, -0.48274020791543526
-0.09453838166751267, 0.27468476712560097, -0.482783231929407
-0.18868719018312402, 0.22784693294067432, -0.48197090949707233
-0.17106166220732588, 0.20854065682909492, -0.48151217920506884
-0.15946622597783675, 0.19446035893035227, -0.4811776193808446
-0.07617056499550286, 0.07759919671074944, -0.47845260707339743
-0.04470537471832629, 0.09652329086700827, -0.47884716112756165
-0.039374073595595804, 0.10431626075885167, -0.47903253201334894
-0.13952101500853964, 0.04131455828021075, -0.4778301141373009
-0.057538037117834825, 0.10874205282812449, -0.4791380947171676
-0.08689634858286727, 0.09934646280017126, -0.47891718060927646
-0.06677189817740979, 0.10405559902145367, -0.4790274318446557
-0.20472428641206794, 0.14451857011754932, -0.4799894777621123
-0.21188548008405578, 0.12937771302849477, -0.4796290826436643
-0.1964720051276499, 0.09385571275650015, -0.4787863133793061
-0.21882641706943418, 0.04472064294899601, -0.4778886988238522
-0.12061509648971125, 0.045880815409720915, -0.4779086501212866
-0.1590395253590523, 0.1484996441265465, -0.48008544536772446
-0.16762857441203619, 0.08930517080156303, -0.4786787913747624
-0.16886330782941836, 0.08932908183116925, -0.47867936190304206
-0.22023125460547133, 0.06010333430550312, -0.47815220817772675
-0.14421578064551582, 0.039523816424074855, -0.4777993188084524
-0.1127011932664777, 0.12028044597324619, -0.4794148370665309
-0.11887399995538783, 0.0982654944304772, -0.4788916979852029
-0.12092867828129364, 0.10540055318652242, -0.47906124007358186
-0.16860994048710795, 0.061041039434253624, -0.47816932146615965
0.892418848433203, 0.6448306344222973, -0.23689105568486893
0.8413110653037672, 0.6546515398581112, -0.24546179894291667
0.9946088103340616, 0.6500455052662051, -0.24218966205059553
0.8248860189582681, 0.6565035195335795, -0.2473615409426224
0.8826433431830443, 0.6661578549908633, -0.25452865464784197
0.9104290872780424, 0.670643540953451, -0.2530658826530974
0.780540358349526, 0.212405709587959, -0.165427963501524
0.7846903578095241, 0.4950414968751212, -0.17453550558237502
0.776432124735382, 0.672104220740131, -0.3302982827910883
0.7905649056402169, 0.5733632550979186, -0.4819847819340697
0.7771311382861078, 0.43813810314744084, -0.4844011060506533
0.7758271175399616, 0.21021127564194897, -0.48155010977843754
0.786492232011045, 0.2570459914412708, -0.48251507691607187
0.7907213422793192, 0.15086021687843162, -0.48014066934391464
0.7858588003574873, 0.030931590989547005, -0.44287136251036574
0.7811295987259519, 0.030811687573039554, -0.40494300552250906
0.7895433120835739, 0.030848005341435406, -0.21233432329101387
0.7836806121997546, 0.2724505334334626, -0.16549632469693087
0.7969929972407617, 0.26444300995156933, -0.16551653515930592
0.8074567566024788, 0.32929639306591496, -0.1656575276100952
0.8209138876986852, 0.3759434009016057, -0.16576187706133177
0.853486024703774, 0.2991894552942125, -0.16588154183054588
0.8527910286201026, 0.32955455020265595, -0.16594288246585828
0.8654579846174935, 0.31015681898384845, -0.16614210066151539
0.8436493631037731, 0.35429580934934085, -0.1658256033761069
0.8114605444618888, 0.11132535454112295, -0.16566523614006462
0.8064085356552743, 0.09442404168920741, -0.1656961960288518
0.8090917624108269, 0.4908823716721478, -0.1737090694098296
0.8495889164694501, 0.49331818735110594, -0.1744785590209019
0.8251671561050364, 0.24712966901634972, -0.16548991753617148
0.8292060434884528, 0.3366588940575733, -0.16568322233719915
0.8810371811117097, 0.43512023741017186, -0.16779519748000665
0.8382332312804676, 0.3899695511169725, -0.16604124336854262
0.8828884536379745, 0.4621827127645775, -0.17001309325369146
0.8337834922576952, 0.3929288259545158, -0.16609021525575368
0.8468930005281258, 0.47097382072706373, -0.17053459027309475
0.8893522319620462, 0.5786291690820612, -0.2008222421178852
0.8451820840834487, 0.5973880686666698, -0.20828835191211528
0.8008075598112985, 0.6390000304263597, -0.2334560335495806
0.7954552656071054, 0.6231725495765053, -0.2224902171870822
0.820496055494938, 0.6711153813097, -0.29961644803570314
0.8132551939745383, 0.6721095066438978, -0.328807597666135
0.8581192675016011, 0.6727965491667682, -0.35177733375590076
0.8734693686160009, 0.1769930466861651, -0.16615202665242043
0.8582784434384925, 0.18160144911727816, -0.16585793053135045
0.8635076275341178, 0.21819649664984148, -0.16589926484947376
0.8546923566053435, 0.13444171531035257, -0.16586419941204203
0.8299900741003216, 0.05139190480828707, -0.16603819767742367
0.852095561776967, 0.0646607396490905, -0.16606685087939876
0.8114639234532351, 0.4829394250161312, -0.17203321324163595
0.8155990160154076, 0.533015667371379, -0.1847058515675858
0.7984053347494363, 0.570756336414435, -0.19731713912589063
0.9012365102788182, 0.6739935565200493, -0.25121753195041235
0.7869319623381484, 0.669527450152433, -0.2756245071025123
0.8579260739725247, 0.6711130253289597, -0.2958107625639632
0.8868431268093925, 0.6741512196819583, -0.25783992527922917
0.8222442272079407, 0.6755928059567414, -0.2554775490057294
0.8170138806166191, 0.6727580116496668, -0.38769891923002187
0.8479362336719183, 0.6722858213013116, -0.3986418286023527
0.8213545320183346, 0.671437946117337, -0.42122317501586276
0.878148722896627, 0.6701940768477401, -0.44057670696813017
0.809740218645993, 0.6701537122430521, -0.46699992281828007
0.891970618268346, 0.6725431880870141, -0.48212731175922785
0.8823469866966664, 0.6600009416335525, -0.48049123761649265
0.7968889134464323, 0.6515907805596725, -0.4802608080617979
0.8184799549443821, 0.6590551690388922, -0.48034097997029357
0.8150340237344043, 0.5887011464935915, -0.4816124712479558
0.8087602680565966, 0.6197453362485232, -0.48079969909419923
0.8160350495272521, 0.6002297966762132, -0.48131346081688164
0.8918861182391234, 0.5807092489745252, -0.48184068364371857
0.8189830139434229, 0.5460553932591636, -0.48268986374624234
0.8122239092549866, 0.5723605377888511, -0.4820342047945668
0.8030355889490042, 0.5146729201368794, -0.483387077353317
0.8982584170490273, 0.5415664530258165, -0.48281527985158595
0.8916720225206929, 0.5091085307688203, -0.48352010797030254
0.8289045995717694, 0.47676663437802785, -0.48407461129956275
0.789431695088209, 0.4689862944998127, -0.4841593519761787
0.8136684365355226, 0.4291906862626568, -0.48447124586492774
0.7985406044717578, 0.4514212884995899, -0.4842970306220355
0.8517429545893451, 0.4052269304590421, -0.4846465502992424
0.9028900007514453, 0.4536776143392784, -0.4842315454454752
0.8388983496992075, 0.40931937788741485, -0.4846271604729179
0.8260638628737486, 0.44339468908465574, -0.48435990668373413
0.8044316587726538, 0.3692724454871951, -0.48422114216790707
0.7974884866360985, 0.3419313725977961, -0.4838055229871171
0.8178477062976549, 0.24045859258982974, -0.48226292275612537
0.7847438939540039, 0.3075520008846354, -0.4832828538489692
0.7871057307753154, 0.16992091022915537, -0.48059297231808007
0.8149103516941387, 0.23247114061447025, -0.48208083655340855
0.8349763747649133, 0.22554404158488797, -0.48191618742180686
0.8046289403120881, 0.1971801351470607, -0.48124221610102585
0.8779901960135655, 0.2922407732663973, -0.4829504057828909
0.8862956779912765, 0.32228035710075437, -0.4833792067597619
0.8980914492993315, 0.25569699003124213, -0.4823506320116292
0.8783789822454002, 0.2767253962612548, -0.48271682951134864
0.865284190776303, 0.25011263840266407, -0.48235178361328157
0.841997393301566, 0.2886090532019259, -0.48299492078573536
0.8364770886344768, 0.3683793879552268, -0.4842076807613336
0.8215864082392222, 0.32117330142784295, -0.4834899335529763
0.9083365126602054, 0.20145566334644432, -0.48111529820535104
0.8870909059991776, 0.15108955852924222, -0.479976636165353
0.8815746110608906, 0.15550663628390674, -0.480124973455505
0.8841817400258105, 0.13342636041287248, -0.47954747736402487
0.8328579868664665, 0.06064166421634885, -0.4781649890286212
0.8879631868649057, 0.03669910163416737, -0.47756391642747675
0.8085524939044947, 0.11183329704642278, -0.4792149902755265
0.8392100852590179, 0.17884856430924803, -0.48080914611714176
0.8415780360558229, 0.08603946221986339, -0.4786093428346133
0.7832708586400303, 0.08412973626382976, -0.47856417230432063
0.8152769059305631, 0.042306010361882376, -0.47784715930667876
0.8299452475358603, 0.03120890516713161, -0.46601786093967307
0.90188668811892, 0.031156103693902502, -0.461443525169446
0.8006089270553018, 0.030873863196224628, -0.438053994095653
0.8307296644113086, 0.030704126620766166, -0.32620068685027453
0.8181649802199903, 0.03074324576595141, -0.3548395311578227
0.7929054464020904, 0.030730032171016695, -0.3451641508044678
0.7996373838427342, 0.030782039462566996, -0.26064343781710964
0.8289070184125038, 0.03081058805103159, -0.23974136622128783
0.8343639510449246, 0.03079745400574212, -0.3945259817162451
0.8311962930879315, 0.03077944364977652, -0.3813405960672177
0.862746346019031, 0.030801111615253868, -0.24696106654643918
0.8786325421834135, 0.03084266769238011, -0.2167661089185947
0.8470900063592277, 0.03081212329877646, -0.23866683682153966
0.8620602392251462, 0.03080470014529189, -0.24432325536241806
0.861743848170556, 0.030724744354058135, -0.3413500733205215
0.8817171589662687, 0.03071162645757875, -0.3319605053660015
0.9092205320911633, 0.03084387494286267, -0.42853166311006596
0.825548665742083, 0.030725071468301567, -0.30236047551448886
0.8363095896893503, 0.03075819263527913, -0.2781082118428149
0.8763943861319664, 0.03113730854368743, -0.18442930261520463
0.8129948670008951, 0.031123254158151956, -0.18502902585733627
0.7932412754751921, 0.03077309470858087, -0.26719196481952334
0.8344777494737183, 0.03105038179398275, -0.19111237348293353
0.8237215480139597, 0.4386690170831502, -0.16699324099056873
0.777505701090387, 0.29325858041534014, -0.16548518322233643
0.7903637739145468, 0.2834599403519127, -0.16553923066059095
0.7876189176484683, 0.4029217112167491, -0.166238941992191
0.8322799686225323, 0.5898719036997874, -0.2049260875423314
0.7777971242133812, 0.620116122102895, -0.22039319764496926
0.8309394261541239, 0.5308735145743975, -0.18402861354519218
0.8179760170917381, 0.5569636128498853, -0.19241013541136504
0.8190965698661798, 0.6734861553853562, -0.3655772594248471
0.8160482872288455, 0.6731138638621804, -0.35512142817473924
0.7917868662580614, 0.6718593460442452, -0.4105760059820489
0.8208241632054214, 0.6696191394648795, -0.4576520800692071
0.8319097432261836, 0.671585422695939, -0.4175345677673563
0.8053527582587103, 0.16350293240018812, -0.16556370312325544
0.8126069120950178, 0.1683559733672286, -0.16555667221526363
0.8108120970102294, 0.14513090171683304, -0.1656009385394512
0.7787948428093221, 0.2150849711974545, -0.16541878382037695
0.789555379404886, 0.07565255983274213, -0.16577987029962915
0.7996184006748314, 0.05041832636794396, -0.16604396852953351
0.8535288920213258, 0.0937273583925472, -0.1659023634873984
0.8946713570478708, 0.1769513562191102, -0.16654436387135682
0.8519635175125834, 0.09412782175522473, -0.16587325323299673
0.8862131163601312, 0.10183146923550489, -0.16648855035417948
0.9278652982596409, 0.3192645714012294, -0.16841920422355341
0.9051733711324219, 0.29136980102210347, -0.1670291200924159
0.9364980126195808, 0.37373619700253347, -0.1691162596955454
0.9128445227029558, 0.3184865517075357, -0.16756688478966214
0.9734029440122064, 0.2590315804903974, -0.17066300805092607
0.9824636674859613, 0.3573564808048234, -0.17150691476945767
0.9688095129862144, 0.2511601163129075, -0.17040089398747738
0.9595981288488301, 0.17709321710820283, -0.16978881245431587
0.9406998319526566, 0.11116258158243908, -0.16873104828041724
0.9288427811336931, 0.1006628828558084, -0.16808961558857524
0.8954696985836796, 0.49027663307490127, -0.17472104557323104
0.8864269373731491, 0.4794866967533744, -0.17246531281933003
1.0407592445264708, 0.1763743129403484, -0.16769404245089065
1.0319828055965061, 0.24999488682554602, -0.16891091559906304
1.012911235719065, 0.29351769335596345, -0.17240013287973321
0.9935215444780359, 0.11692187017139131, -0.17143410230090778
1.008933171348115, 0.15931043575320053, -0.17221664261294423
1.0073673280873356, 0.18038044763003053, -0.17217834909677626
1.0319502074677758, 0.17937298235264604, -0.17089873128332933
1.0330917045738313, 0.3301118343744376, -0.17215474513230564
1.0407056632779692, 0.14698440066028035, -0.18212664622373306
1.0469076086388043, 0.08602028817749713, -0.19120397006341158
1.042506228732621, 0.15638154066566365, -0.1731670044207726
1.0122390865794615, 0.4695237075781197, -0.1755559112932956
1.0300779867800856, 0.4052366422959568, -0.1727554886667218
1.0340993252452804, 0.2850483175698103, -0.17316351986836667
1.0299473614862424, 0.3341558150763512, -0.16762036234368957
1.0233751918517555, 0.3079534477767231, -0.17117215583526507
1.0177501342741129, 0.4598460355014197, -0.17390221961830496
0.8940705260833333, 0.23949849659050837, -0.16649592183797493
0.8906613539586545, 0.30095711216398413, -0.16659754492623363
0.8728600671086513, 0.24766902177310093, -0.16611732418007885
0.9042554657609215, 0.38750210462219664, -0.16753649967502982
0.9053682218494221, 0.41332111143784245, -0.1681537222728643
0.904804358347526, 0.47619881622612475, -0.17271100523506017
0.8962446950604914, 0.4192956605019773, -0.1677720061163997
0.8862901885007333, 0.38925695905079727, -0.16696720998721337
0.9588787324213148, 0.4679300599713386, -0.17447742803083954
0.9654130411893935, 0.44372423690887824, -0.17230433446316132
1.0001246306665854, 0.3456597695265213, -0.1723485679529157
0.9906528641933767, 0.3133352046047927, -0.17174464681664595
0.9801494726424994, 0.26530169948838345, -0.17102578617312664
0.9576917009857333, 0.39147253671166976, -0.170647754965791
0.9549579649082622, 0.3781604786260405, -0.1702079309879487
0.9910908257338245, 0.37962817627999773, -0.17207814958343357
1.0053769237960197, 0.45779071880509714, -0.17530284580907768
0.9596433435763063, 0.4181346077163393, -0.1713172925605086
0.9277865080228397, 0.24317305212645002, -0.1681072119161533
0.9464913994658364, 0.3332708450767968, -0.1695232643626276
0.9470712187202195, 0.3245385779154172, -0.16951937653645194
0.9132540448139272, 0.23569081844583478, -0.16726623029812016
0.9482757350896828, 0.5641376956108117, -0.19783102790010917
0.997118111974212, 0.5725497232278232, -0.20175434213789456
1.0231689621905837, 0.5685299541509863, -0.1939142963380648
1.0106147942248387, 0.6607898896379427, -0.25174078357290264
1.0286770988623681, 0.6128276311703595, -0.21173440114700368
0.943804472390199, 0.5910131767936662, -0.2076015233935709
0.8467244480883396, 0.6197433824814751, -0.22010826670402073
0.8383111191596605, 0.6428242111120152, -0.23601991611022655
0.9256365058004676, 0.6389845033530706, -0.23308553817325528
0.9968095794270642, 0.5933645440207305, -0.209466170732857
0.9943252700878578, 0.6109772687214976, -0.21754828419725591
0.9687310258073538, 0.6008637585524162, -0.21224510982623757
0.9619101489829432, 0.6232998573632852, -0.22397849533518252
1.0139903760171813, 0.6247302460749768, -0.22346653865505015
1.0355827436240905, 0.6677611300313833, -0.2683405440488908
0.9260744721276568, 0.6714679083523547, -0.34059647479639066
0.906911890160626, 0.6720605539200619, -0.3344977089245818
0.8786020629763007, 0.6711682031899348, -0.2903727756093717
0.9843952505037585, 0.6696842449137845, -0.3473897164740768
0.9452143114185974, 0.6703917770346153, -0.2894812053686031
1.0180788108744125, 0.6692166962710168, -0.3521643785293907
0.9490380774376935, 0.21184119232500492, -0.16922709151334517
0.924738837651406, 0.1820769394350249, -0.16787899362111444
0.9264407040046201, 0.18099946111201287, -0.16797402413996393
0.942581545790195, 0.19039615786561204, -0.16887151214057655
0.8868307942005764, 0.04287182375949612, -0.16690429572859147
0.9084040431659057, 0.0705433281265196, -0.16708322747445714
0.9729609724950813, 0.05018084699868022, -0.17055001146891735
0.9347672728485298, 0.04314041621310042, -0.16866823971616485
0.9906509607335405, 0.1685943275988697, -0.17136386427062128
0.9718764093152795, 0.19630001314128095, -0.17044014411608396
1.002435270001023, 0.0780751516029991, -0.17181113369580137
1.0002733707302935, 0.06271888074229347, -0.17177397467321276
0.9536311349626416, 0.5035875462932127, -0.18042748077547857
0.8561653803325205, 0.48883903659266065, -0.1736500197403704
0.8892530467243213, 0.5313909415353637, -0.18504561331519587
0.9523092400374453, 0.5359217714980251, -0.18915485530995696
0.938472828213112, 0.5078707474791623, -0.1807676746720474
0.9015212858110597, 0.547926954454355, -0.19071539829417675
0.9386376339202853, 0.5582227571368519, -0.19541663793077352
0.8973798140469301, 0.6765430553436139, -0.25265760034962875
0.9178360985088312, 0.6712675175636377, -0.30875295110917383
1.0204341604559164, 0.669841015025334, -0.31000013308894064
0.9630558997522249, 0.6705266646058832, -0.27078320349461243
1.0085727287118698, 0.671526483942701, -0.2545233841991663
0.9295596131138963, 0.674829216026587, -0.257202180204874
0.9109587741305848, 0.6715551828025298, -0.31606907042632354
0.9313754309292326, 0.6696028477290052, -0.4501663892509944
0.9040697830710132, 0.6716347757028813, -0.40112250358351065
0.8457670548438343, 0.6708236748545647, -0.43313713886971317
0.8522668562002557, 0.669834303398402, -0.45194500333730947
0.9786313753450419, 0.6692961158248082, -0.4145635482182597
0.9596646776442713, 0.6705384898334162, -0.3785451054832154
0.9534668704563352, 0.6705214340416803, -0.39189682870204134
0.9112467458413738, 0.6718729244358121, -0.38965578082819763
0.8772396285671292, 0.6722025606551374, -0.3401875562697198
0.9451610967828596, 0.671553476423423, -0.4763153845408508
0.9446066757926794, 0.6703748260053286, -0.46911305283062543
0.9663170912458945, 0.669416643633926, -0.42403227967500867
0.9035659354387586, 0.6719928839278131, -0.47811132170188936
0.9834669515408931, 0.6607205445309201, -0.4805626121633808
0.9218779468113597, 0.6476543664913978, -0.4802594912715201
0.8691623601499372, 0.6431095085554835, -0.48024137649092824
0.9221380634474021, 0.6563636424057323, -0.4803351255499114
0.9491934771651573, 0.588221770932663, -0.48164620792043406
0.968448045239886, 0.637289890805127, -0.48038664087107064
0.8656188336545364, 0.6122208407946963, -0.481022604781124
0.8758016457906519, 0.585866028205114, -0.48170724037058277
0.9265765560340808, 0.6070724055789595, -0.48115661658225667
0.9297897272307641, 0.5696724027062363, -0.4821262441178499
0.905277978900746, 0.5641570427390401, -0.48226856108512145
0.9969889771463043, 0.568780641463443, -0.48206162168213745
0.9412336360598678, 0.5450387988378942, -0.4827279723008157
0.8643741536655741, 0.531856433561742, -0.4830423448154413
0.9385922168071428, 0.5277332426308952, -0.4831183727275253
0.9039991333071034, 0.5039077263474149, -0.4836276884465108
0.9181707510197288, 0.5084525554858269, -0.48352670803932146
1.0217374569704432, 0.5183087661263343, -0.48265646907911447
0.92415971171552, 0.4098545348327236, -0.48400017657030925
0.9229901700024432, 0.4327989419778502, -0.4839130264373727
0.8752879310469882, 0.44876090905417554, -0.4843121128910624
0.8769476110991408, 0.4389136153058071, -0.4843890273953264
0.964507941241265, 0.4965390312458602, -0.4833591950087396
1.0230411069786305, 0.47534182654077345, -0.48222990603479104
0.9845288849909567, 0.4064842945701611, -0.4824125311211167
0.8542948216937243, 0.29613086366312025, -0.48307647828428657
0.8634236999741938, 0.37330407778751884, -0.4842212796267967
0.8609090986292082, 0.31858287614378156, -0.4833971801996051
0.8941831989576629, 0.3776925818425667, -0.4841919910443819
0.9037842578177975, 0.3898262644400813, -0.4843464967308345
0.9348565547403824, 0.08746902582035387, -0.4757936016812425
0.9180559722004844, 0.1717450079742447, -0.4794717837883735
0.9093779769321063, 0.13267104250526723, -0.47927393297571896
0.9162381219190066, 0.13105705341341126, -0.4786049347894079
0.9519545017533994, 0.29349724857237436, -0.48168409779755683
0.948545843430517, 0.3192917447004251, -0.4821588263726032
0.9616003430647617, 0.24891871610138894, -0.480760719413303
0.9573373972232211, 0.2981907120821501, -0.481605898692517
0.9177263019977204, 0.26025983414407783, -0.48213118742432665
0.8920417756399773, 0.2391953398315659, -0.48211577221388363
0.8462596616173588, 0.12635137232970428, -0.4795590038869678
0.8704244255570599, 0.19114012476802444, -0.48103244420057517
0.8891454465209128, 0.21403362666603018, -0.4815267559202925
0.9219021446361977, 0.3821249059500552, -0.4838368110382953
0.9146381227947427, 0.25887129236546236, -0.48219599699060445
0.9193632643792287, 0.2794552220697023, -0.4823722584885304
0.924131223850956, 0.33865379484261726, -0.4831247351867451
0.9564108011696222, 0.4473790434359799, -0.4832163932111491
0.9723978009856746, 0.4457261303572292, -0.48296568239467064
1.0057887004843258, 0.2476122991607621, -0.4795399186380159
1.0113713023530564, 0.28605141706044823, -0.47995484342165246
0.9986548124201197, 0.3092361580081821, -0.4806403811107612
1.022826451237839, 0.0712546006959622, -0.4679219997922781
1.0281058703779558, 0.061685158189684404, -0.4675279714349915
0.8458399933198575, 0.04454085915865377, -0.47787390962734566
0.9651925062910416, 0.06421822720576771, -0.47279519650176055
0.9560999118409157, 0.03642530843209604, -0.4734773592673125
1.028654005085648, 0.1535723033487518, -0.4724100082885285
0.9981632355545909, 0.14144697915088308, -0.4741381849949773
1.0182200579028902, 0.14199324453264892, -0.4724572765591568
0.9217256737871434, 0.056331353622957214, -0.4765537248823095
0.9659131637686726, 0.15603783307677474, -0.47588766190041804
0.9389450487332565, 0.21642509440001456, -0.4799648519191028
0.9587195953594847, 0.1931215173248839, -0.47813464046079146
0.9784679235938889, 0.11307049200146241, -0.47316849021894347
0.9124316747247132, 0.23628914218134392, -0.4817896954891308
0.8534325769741068, 0.03094262253046208, -0.44375522603703305
0.9766837957880022, 0.03129086471656569, -0.46697739797426385
0.8512441252262176, 0.03073817495728169, -0.35112697975209795
0.8776212644285153, 0.030814674421035554, -0.4071282571070276
0.851575310515393, 0.0307278416737918, -0.34356195838284725
0.9150441284087375, 0.030857152537417214, -0.4363299076723494
0.9600743880857343, 0.030703885865893073, -0.3275424572687511
0.9639546739936612, 0.03074626617641179, -0.35678432609955923
0.9553686025037442, 0.030703817532663658, -0.3273814019678415
0.9115507736050246, 0.03075604460258783, -0.2804557435813708
0.9385067855290099, 0.030832875494530437, -0.22555612920255183
0.9121870322329293, 0.030784804825787656, -0.2595031156267425
0.9612089141682527, 0.030824585541825968, -0.23256863398769215
0.9386844453754911, 0.030781303625699228, -0.38110065861660153
0.9563455733804055, 0.030809128470631157, -0.4002211053578411
0.9425786478562822, 0.030828983460673854, -0.4155838564250864
0.9929711219001163, 0.030954647257069683, -0.43692406991632227
