-0.0555068386988162, 0.008449587686894293, -0.258145138953757
-0.027376070127752783, 0.008464480834873445, -0.26320539972187346
-0.06530583550116528, 0.00854880731468937, -0.29178590828462003
-0.06078610572012459, 0.008464888925374902, -0.2633317183059687
0.01570983193710854, 0.0088055373596774, -0.33885673300891916
0.03611277405866833, 0.008720595639694663, -0.35438769066821574
0.025189422056973318, 0.008786169666288295, -0.34239625221754844
0.046130118056531916, 0.008724530340933435, -0.3536643574460879
-0.01894025055390304, 0.008671240774023162, -0.36342249923451786
-0.009512187762651858, 0.008715189685449912, -0.3553863476882691
-0.008289879851616123, 0.008764758397132382, -0.34631940799277167
-0.005859549417554087, 0.00865786169552256, -0.3658743084355779
-0.005374684958681923, 0.008782753901388609, -0.34302857094392086
-0.09382710455455211, 0.008694219981434463, -0.3591043468028601
-0.06927776736304585, 0.008733031695676583, -0.35209472001911435
-0.09478447346307502, 0.008681063239237036, -0.3615075646271421
-0.06614363062671091, 0.008671355964502405, -0.3168882100118824
-0.040993910598370195, 0.008701798681606938, -0.3217543862452954
-0.062407183901988975, 0.00860181741664919, -0.3057949819722686
-0.043467026560472785, 0.008714901328999474, -0.32384395851731784
-0.06370580183518956, 0.00879508441934767, -0.3366294653915338
-0.031384025135813474, 0.008630288721160837, -0.31034876797433464
0.04865158425395185, 0.0087269873753069, -0.3257694203822462
0.0055466509261861705, 0.008595303539649948, -0.30477594868223723
0.02705846260235311, 0.008633100770167063, -0.31079828505264007
0.05684554847632762, 0.008750534828597847, -0.32952325107981706
0.0174282362289567, 0.008616894518044975, -0.3082162507635802
-0.04191305723945816, 0.0087812873685576, -0.33443598749689607
-0.0028993605611831027, 0.008595354593879077, -0.3047855322961041
-0.0008816820045205422, 0.008714330605434003, -0.32376807274701797
-0.010193521394313346, 0.008663631315167673, -0.31567603126232335
-0.044311048294643454, 0.008783194734502993, -0.33473944241777653
-0.24554941507498268, 0.01237840326570085, -0.28737551634230113
-0.25083969435037806, 0.013626631862548977, -0.2737992859489116
-0.2167969720441569, 0.009001930347223467, -0.3137808624321199
-0.22186279849549598, 0.009119391493942024, -0.31295019268204693
-0.21170108177914243, 0.008846959533308319, -0.3087433194571042
-0.24345840621072318, 0.012277540931679461, -0.3281092379308837
-0.23013071594412515, 0.009600693564551396, -0.339688434667486
-0.21575836191979078, 0.009162347906186136, -0.3425041981228976
-0.25210824176131186, 0.014498089225444691, -0.358028799249287
-0.20448419706378929, 0.008628993174997938, -0.37933916363636033
-0.21027895023043097, 0.008823159940441508, -0.3718565165289931
-0.21035977640495412, 0.008699067070922478, -0.3964164597452309
-0.20871668776773641, 0.008518164290592331, -0.42071187341483995
-0.20601520800268647, 0.008481733701567375, -0.4148789915927057
-0.25157559751642716, 0.014106139852478479, -0.37545110384782227
-0.243764115565255, 0.011586811291383899, -0.40572118914682237
-0.2336613301810319, 0.009004271323273045, -0.4352287898252788
-0.2480293654899392, 0.012581902614162567, -0.4140968482628464
-0.25467630782717365, 0.016636283773524486, -0.37703662356600803
-0.260201075263316, 0.028661713151905518, -0.42510748756169825
-0.23329932702292366, 0.009299054681605134, -0.3805099522327994
-0.2455395880778024, 0.012514889289698398, -0.3798729302851772
-0.2346505164353226, 0.00983203952700793, -0.316151972999165
-0.2391223165392697, 0.0110420613250852, -0.3207776735161812
-0.25718541787110494, 0.01938611085327159, -0.29376633231525595
-0.23940262750947763, 0.01130883418540193, -0.34106940288130394
-0.2566722299594011, 0.01917504925635755, -0.3198193570228832
-0.25953511097880566, 0.02554383104750424, -0.29152457882556865
-0.2603761697175013, 0.031285561745941756, -0.2901377716130775
-0.2603122097919021, 0.031177550740719828, -0.3617416674032571
-0.26051187819606303, 0.03337090885214783, -0.3362834585383053
-0.25780990025521733, 0.020181244060127185, -0.40258986820552545
-0.2593546574993461, 0.025544784756369857, -0.355805558641036
-0.25810587239561256, 0.022108345823579373, -0.3484701071310247
-0.25234370563785474, 0.07033160875042868, -0.42553751279358176
-0.2541034134598372, 0.06957012785345103, -0.3891914053906995
-0.22963345819610997, 0.07520546728573992, -0.4134723570784802
-0.2232667565190771, 0.07503301719738023, -0.43356491163417865
-0.23616227523229444, 0.07505812828606385, -0.3932946045045676
-0.25202735968437917, 0.07088682474242398, -0.40176021225654224
-0.2481981307979561, 0.07176175711923663, -0.40328347581667034
-0.2543205273838402, 0.07041050589549167, -0.3532850259773007
-0.23712111056512872, 0.07603805894393131, -0.35451518818147537
-0.2273794238832509, 0.07608975000237445, -0.3869263063433631
-0.2317409528619353, 0.07616897832706074, -0.38284025392190346
-0.2292891583084358, 0.07606660929132278, -0.38670139275034243
-0.2129624039208245, 0.077377706243619, -0.3259038941030982
-0.23207666712484362, 0.07703679673949017, -0.3256252226690236
-0.23882600268951543, 0.07487454107765659, -0.28726999097191597
-0.23592748220712223, 0.07517539334277236, -0.26336858347133174
-0.24308311528113832, 0.07452892776650663, -0.3574995002401939
-0.24971169067549107, 0.07251789857006671, -0.3045252527356155
-0.24067850688988005, 0.07481025190671822, -0.30803964154960706
-0.2277940343565399, 0.07693404133088586, -0.36149181893339455
-0.2323535387255033, 0.07704666357174825, -0.3513763193953784
-0.24873711529519632, 0.07327856120997255, -0.32778704762941335
-0.25286251730182413, 0.07146200269385417, -0.3025594368946661
0.032859836685105566, 0.07549265774475694, -0.42513713275673476
0.020198357470143292, 0.07542578607306694, -0.4294720807035314
0.013358947195042624, 0.0756226814362048, -0.4166984724554611
0.03818627363477918, 0.07532160815062888, -0.4362338560014849
-0.06616075390777579, 0.07539479285051162, -0.43148593657271017
-0.023805139917279807, 0.07572026566091404, -0.4103595866259253
-0.05200540880277279, 0.07567096356734712, -0.4135520955063697
-0.04327453962941138, 0.07564948747507201, -0.4149501641219474
-0.03912081471228978, 0.075842528804303, -0.4059954956067727
-0.013206448218487432, 0.07660173884606952, -0.385469963072685
-0.025582743720436767, 0.0766644379393734, -0.38376975391722057
-0.008224788289859595, 0.07666635062969697, -0.38372413719546766
-0.05148811481187575, 0.07592476842385117, -0.40376676902291014
-0.041897743618268944, 0.07599575902331358, -0.4018500367245467
-0.1228379703290709, 0.07549959403103221, -0.4246760775057046
-0.11295777795720321, 0.07546852907918228, -0.42675535702487677
-0.11412380592142116, 0.07565486680425818, -0.4144958539792246
-0.12397121310516188, 0.07543406365318303, -0.4289817921558524
-0.07665913129073874, 0.0765419975880607, -0.387031668251264
-0.09462174081912919, 0.07596575716117933, -0.4025516283872711
-0.07366883071263906, 0.07638996246697641, -0.39115478661178615
-0.10677188015083322, 0.07601640413614787, -0.4011372170672793
-0.0782119764854064, 0.07591432914174856, -0.40400278053939864
-0.16480903644950218, 0.07568670161252254, -0.41197331201884035
-0.15399099817942527, 0.07554887233217128, -0.4214930895773774
-0.16186514516349418, 0.07572239460946315, -0.409583399823628
-0.1025980400485565, 0.07730264012289975, -0.36556063858469684
-0.10919837420088391, 0.07734965713831446, -0.36302235382210646
-0.07292154176866616, 0.07774649899297001, -0.3419357864686745
-0.06902534297308999, 0.07774538366936408, -0.34200972136786323
-0.12956879310996164, 0.07712094006944868, -0.3711295227999488
-0.16204733107002106, 0.07650570025327275, -0.3873441610776984
-0.139769824845723, 0.07673714911325001, -0.38137628587587935
-0.16533301473452877, 0.07734875204536074, -0.31723084292368164
-0.1396377258914328, 0.07709296551639666, -0.30616595503758853
-0.15765425288765042, 0.07700547318630788, -0.30202974620700057
-0.15806206246985466, 0.0774096087703415, -0.32003887897395655
-0.09761521894137871, 0.07685527721772999, -0.29391258790251973
-0.06899269727490712, 0.07690499983429744, -0.29692386480745975
-0.09649200157837812, 0.07679072472576504, -0.290143687718608
-0.09534465321323131, 0.07691549421956445, -0.2974405386045287
-0.0937979766899323, 0.07672097912538331, -0.2860770208950509
-0.15098415333061624, 0.07762687703345489, -0.3477942705199397
-0.13731796169044008, 0.07778688922760754, -0.33941746809180445
-0.1453272549049697, 0.07758292276899312, -0.35021877242699645
-0.06799715332308189, 0.0773600871946897, -0.31848013187085145
-0.08846920224568795, 0.07764025185346796, -0.33089353778139396
-0.06934463142996078, 0.0773395523917846, -0.3175598347240345
-0.09710478329468591, 0.07758324694744102, -0.3283208178263131
-0.08598550261243981, 0.07767876004709526, -0.3326191802086699
-0.044359909180566696, 0.07712062677611808, -0.3714244113406521
-0.06007069750003975, 0.07695824979799457, -0.3758107516538685
-0.042010052852493596, 0.0763360425663963, -0.39264620910879094
-0.028102512671845818, 0.07717672143641194, -0.3699129249217998
-0.05246941371034543, 0.07621176474078667, -0.39600391657307066
-0.018170358095407957, 0.07720844886634384, -0.36905828005148705
0.02338974066338235, 0.07595536809152353, -0.40294844209601516
0.020961499211131194, 0.0759842794649472, -0.40216733714680597
0.0011317230348131138, 0.07720593547854784, -0.36913183514882053
0.002198773781017684, 0.07614678724187401, -0.3977786667775389
0.008685656760529839, 0.07705940387285098, -0.37309242025806316
0.042613839710979304, 0.07602606536523357, -0.40102935433450626
-0.006518806668680236, 0.07771134048966317, -0.3438585037917356
-0.005412955315976351, 0.07737240356661226, -0.36198237705598335
-0.001489274406588721, 0.07748253120461498, -0.3560950638696777
-0.02444189884928783, 0.07752065289980002, -0.3540485495878518
-0.10819273352940817, 0.07689925692762381, -0.37725303276715316
-0.0961477083010729, 0.07677921763314426, -0.3805439993915426
-0.08310799400954838, 0.0771604465730914, -0.3702805429592637
-0.11523879268857454, 0.076861924632223, -0.37823692422208116
-0.12209448050798437, 0.07664450348755256, -0.3840924747449905
-0.04467744126522076, 0.076993947094938, -0.3021376788957266
-0.004441186617350924, 0.07690610229108709, -0.29701741020495603
-0.03549698404442145, 0.07683898590222649, -0.2930836039292539
-0.004551433667523179, 0.07696109132067058, -0.30023141778116086
-0.04667168569064668, 0.0768830631717376, -0.29565593758235237
-0.013298075482197847, 0.07647563958608489, -0.2718542365841899
-0.02286019108839897, 0.07656686225460754, -0.27718273282700645
-0.09565819265271297, 0.07706510926094629, -0.3052297788380711
-0.10537015465243514, 0.0774351346719334, -0.3216882803987408
-0.0968658815885344, 0.07701797319099696, -0.3031242229713037
-0.08969149838264023, 0.07707276445070622, -0.3055929120672254
-0.034318760570100464, 0.0775984980358898, -0.3498825790445784
-0.05359437060387175, 0.07756681803512261, -0.3515697862008955
-0.04747706178685017, 0.07753150436764719, -0.3534602043569536
-0.05442473441188672, 0.07756427946056056, -0.3517052358160556
0.011693578026116732, 0.07763253322407322, -0.34807008589030625
0.016707627881429397, 0.07727728020710246, -0.367064198964416
-0.0002484166445462094, 0.07748516598598247, -0.3559543694313487
0.01647570214403746, 0.07763524055455673, -0.34792358740073714
0.0027514126890175817, 0.07766802914266999, -0.34617530517366224
-0.06348615170799375, 0.07757537764714752, -0.3280815188539335
-0.04387441753453838, 0.07710241102783544, -0.30700561654592473
-0.04654011056472698, 0.07713692815359463, -0.3085433024374443
-0.04409384028048541, 0.07735677457716109, -0.3183439651478351
-0.06171823759277868, 0.07708772613214941, -0.3063447476688419
0.012121737659912583, 0.07735047949321916, -0.3180740499381085
0.016728497161936525, 0.07722128823250904, -0.31231360872729336
0.004010461536505631, 0.07713128816567927, -0.3083063946453937
0.009360763553233327, 0.07773602247251644, -0.3352608556396416
0.030374033147196267, 0.07773545313357053, -0.33522788880818816
-0.10302150183271491, 0.07758698812618603, -0.35035460268249635
-0.10222753675043808, 0.07767065140764375, -0.3458839244472823
-0.08580522993189121, 0.07769805820811264, -0.34447870604798786
-0.1130447696169649, 0.07755767212800896, -0.3518853896367409
-0.008816999055022432, 0.07754108995910253, -0.32657232944126446
-0.0410998503046182, 0.0776353297349122, -0.33076179134876416
-0.010659220564838406, 0.07729485735269649, -0.31559571719737367
-0.024151598085378336, 0.07752331429827707, -0.32577458575824303
-0.012553212782526803, 0.07757812504568604, -0.3282218790133253
-0.011873713159047733, 0.07607575304043908, 0.39597553740887564
-0.002829023592392698, 0.0762166270984139, 0.3910641736839703
-0.030806261128243126, 0.07766173089231641, 0.3407251778280689
-0.0034263157981134313, 0.07705293384868986, 0.3619266455845581
-0.012901395876184388, 0.07669485993723649, 0.3744056138077527
-0.0038049681815054896, 0.07706846505144296, 0.3613856563472733
-0.027072956740474486, 0.07764018049882826, 0.34147470390429047
-0.020383906489807584, 0.07662263421115952, 0.37692465473240516
-0.041925187608239614, 0.07696955402885494, 0.36484519377617247
-0.006015044484291524, 0.07727942177785238, 0.35403649534357445
-0.009613358977297681, 0.07759323461925427, 0.3431042149204897
-0.052082868145713807, 0.07741595177638337, 0.34929582928298913
-0.0917537499412388, 0.07758943459409551, 0.3269068205099702
-0.11951533518657181, 0.07697765830469917, 0.30277146867852595
-0.09866588723663995, 0.0766219730690491, 0.28860350055138856
-0.07674821426741571, 0.0775325834954413, 0.3245994434175333
-0.08274502464228224, 0.07768789646696299, 0.33077460465748504
-0.11427664259735695, 0.0768186103551047, 0.2964511177691489
-0.08728099279497009, 0.07749666500375088, 0.3232150820477296
-0.11558007827625068, 0.07763369862400349, 0.32874789347147254
-0.10594391290693848, 0.07739637565557303, 0.31931032318909386
-0.09546368323709996, 0.07686237573782803, 0.2981159716835925
-0.09429560367746974, 0.07731663904493843, 0.3161085920302334
-0.1442349290057889, 0.07692826285888972, 0.3010928620012374
-0.16467749329607656, 0.07751331294882173, 0.32453939093890277
-0.1600943057441299, 0.07638301101795286, 0.2796992051101963
-0.14031534219364156, 0.07746725012689681, 0.32239493816802234
-0.1429063782885971, 0.07682076675144563, 0.2968166773233208
-0.16401194627614135, 0.0769393806112825, 0.30179272740779484
-0.15582495934994478, 0.0771097375905918, 0.30843451102179353
-0.16413045286971953, 0.07593173838578404, 0.261873718296602
-0.14187360153426803, 0.07749522654245877, 0.32352374093010333
-0.08529513213624969, 0.07635320852161669, 0.38639487439520925
-0.07017739299834419, 0.07645038411964913, 0.3829537154496033
-0.10554994479147106, 0.07708916888351941, 0.3608276812811582
-0.08393493890482297, 0.07730253057782807, 0.35331465321633326
-0.10023983857078791, 0.07692430841065537, 0.36655208239344805
-0.07543872744594322, 0.07690751699122793, 0.36704610344517097
-0.10644797432433438, 0.07741969422561969, 0.34931517787155303
-0.06912337220878949, 0.07776211016778846, 0.3372481383688708
-0.11771806391811399, 0.07770385572009846, 0.33945609240678226
-0.07017420518531024, 0.07718945803375621, 0.35720370718826544
-0.016067486728179467, 0.07554469056414326, 0.4292775212412665
-0.01381325587229079, 0.07553700220220255, 0.4337571379911894
-0.01132831653219992, 0.07552600637153985, 0.44016406039154465
-0.033987813681685776, 0.07552961831245994, 0.4380657672491144
-0.018768195247317862, 0.07552371367810963, 0.44150222474885276
-0.021376780725506434, 0.07550466377282265, 0.4526039861267063
-0.04557713564921145, 0.07555508723046213, 0.4232275097138455
-0.02217102837030254, 0.07553731323934813, 0.43357828555834943
-0.015017004516091687, 0.07554600896111247, 0.4285089459787462
-0.12039830519752856, 0.07651750597234366, 0.38079950084378716
-0.1242566228793737, 0.07576065140937907, 0.4071832181288426
-0.11176492527371383, 0.07655320249745738, 0.37952409364639816
-0.0917217180757965, 0.07627736451654354, 0.3890609491679964
-0.12168078989853061, 0.0758336917783509, 0.40462896115433705
-0.09421225258527606, 0.07643436354763554, 0.3836000968372599
-0.10844517725098998, 0.07584985195245567, 0.4040173179531195
-0.11792452505118717, 0.07594781701670067, 0.4006389323701838
-0.08055392426082018, 0.0760705309427987, 0.39622621860281904
-0.11005100922739249, 0.07628994380076122, 0.3886899879856861
-0.08825490196307065, 0.07555089346328228, 0.42575767898149697
-0.10343059309798917, 0.07553665968389651, 0.43410955411644736
-0.12037109416090795, 0.07556552775747875, 0.41734944040231553
-0.06786200378284897, 0.07551350954649903, 0.4474676714249689
-0.10700130755747822, 0.07554978375871332, 0.42647456541145534
-0.0761216014048667, 0.07555687259374215, 0.422227780026593
-0.10724500160469047, 0.07555292810452373, 0.42464303791439273
-0.07322481610559815, 0.07551203184888153, 0.4483489103477464
-0.1575592072970794, 0.07672146942949953, 0.37414302785720144
-0.1404792165045287, 0.07618496523816892, 0.39261137178775335
-0.14782911173759594, 0.07624495947668852, 0.3906174800309818
-0.1470122632464333, 0.07643882259832249, 0.38385241315019814
-0.14757030153845455, 0.07660005878293188, 0.3782421219283962
-0.16280984707909812, 0.07669699900689281, 0.3750644356940337
-0.1435211541080057, 0.07635910685304025, 0.38658400886288324
-0.07629823046802181, 0.07546242119733788, 0.5445992122874219
-0.11209078216338465, 0.07546242274768936, 0.5317934506671985
-0.10427937187334245, 0.07546242102467728, 0.5461426762768826
-0.09465250279250935, 0.07546242207058856, 0.5373796134592365
-0.10748556165924221, 0.07546242127626297, 0.5440550531227853
-0.07225091554113841, 0.07546242080017132, 0.5478985667478845
-0.09328994346999753, 0.07546242319300814, 0.528008443180365
-0.07859274743404067, 0.07546242005574752, 0.5541337753365729
-0.13625145074631084, 0.07546242326498032, 0.5160433292427159
-0.15461011884835796, 0.07546242326498032, 0.5151509634698432
-0.15412692500766167, 0.07546242326498032, 0.5212100059853363
-0.1574294653190202, 0.07546242326498032, 0.5228613661830072
-0.0006773131610712965, 0.07546242326498032, 0.5182768749029526
-0.042094501551336, 0.07546242326498032, 0.4794446118794363
-0.009116329505923882, 0.07546242326498032, 0.5054825432798571
-0.0018756213293557662, 0.07546242326498032, 0.48077576535209227
-0.020254824748149682, 0.07546242326498032, 0.4817351626394589
-0.003935153192500299, 0.07546242326498032, 0.5055016421231479
-0.00829444873614358, 0.07546242326498032, 0.49617551375191626
-0.030693041791483792, 0.07546242326498032, 0.48334646321760033
-0.10954808601022444, 0.0755423727650738, 0.4308029836507882
-0.12030788892050728, 0.07551746591799607, 0.445356460649068
-0.12434660736905132, 0.0755455736906651, 0.42899195712169663
-0.09035352495210229, 0.07546455135480126, 0.47608166972973875
-0.10693662759104143, 0.07546756192483729, 0.4743881124676378
-0.11809975690044622, 0.07547070091855868, 0.47259984700704954
-0.07117704712614387, 0.07546356858925514, 0.4765840513003655
-0.11295987500645799, 0.07553025862120277, 0.43787479708106114
-0.04292439033425545, 0.07546242091980364, 0.5468727753716385
-0.04310296866129615, 0.07546242089313121, 0.5470954097463931
-0.028163530837254567, 0.07546241939046684, 0.5596293401464156
-0.015580258354442192, 0.07546242034980277, 0.5516196119235185
-0.03162322207082808, 0.07546241957805279, 0.5580652202617437
-0.06313853725264446, 0.0754624230772649, 0.5288766597816947
-0.03924396319628916, 0.07546242285840485, 0.5306945679822735
-0.004010564660720507, 0.0754624192878174, 0.560477422555931
-0.020271024158832685, 0.07546241858137871, 0.566378108689418
-0.1155610968566983, 0.07546242326498032, 0.5087349293219519
-0.10526227267272151, 0.07546242326498032, 0.5108557711377987
-0.12125984830082943, 0.07546242326498032, 0.4805975443258056
-0.10035232615422042, 0.07546242326498032, 0.5191359915126582
-0.10276657824264235, 0.07546242326498032, 0.5101265195883857
-0.10986418373945532, 0.07546242326498032, 0.5260899006162119
-0.15283003650867616, 0.07548039593185892, 0.46734588374371
-0.161258229129981, 0.0755457210386761, 0.42938671043645493
-0.15447011241431063, 0.07548577022777148, 0.464235403475865
-0.16482910109148263, 0.07554149972035987, 0.43189363338769055
-0.15415569651638628, 0.07552897500059268, 0.43905267499785416
-0.158257533228024, 0.07552218624750029, 0.4430627975547756
-0.07703895469541525, 0.07546242326498032, 0.5164819060633508
-0.08092057275289992, 0.07546242326498032, 0.494893776636742
-0.07661260174897111, 0.07546242326498032, 0.5135452755569424
-0.1115758725451975, 0.07546242326498032, 0.4868925219380107
-0.10394386225414712, 0.07546242326498032, 0.4831805828240151
-0.08642445564041959, 0.07546242326498032, 0.47892330787183723
-0.14462590660617256, 0.010940391983308918, 0.6556822927422923
-0.11638030041438924, 0.015944730582647657, 0.6637210955487287
-0.10569627245454385, 0.029626028518381566, 0.6688113192530724
-0.1284333846103809, 0.01725837820598207, 0.6649134936089938
-0.11212374125449079, 0.02380921655654329, 0.6678459359661146
-0.05243527936512472, 0.01542769725552453, 0.6630982576723576
-0.07065141779381111, 0.013475035099333453, 0.6611677300962989
-0.058659159269542765, 0.026880582677512282, 0.6683900480013557
-0.08919075269332813, 0.021690988533752592, 0.6670548905201142
-0.08194614388599124, 0.017522937833057764, 0.6649280626731455
-0.03499891616023334, 0.02394711519418351, 0.6677154472988492
-0.1213232784112926, 0.00843791477382183, 0.5390960065058243
-0.10676113331758162, 0.00843791477382183, 0.5845391929156776
-0.11305524797629216, 0.00843791477382183, 0.5500264521614165
-0.09982959088712676, 0.00843791477382183, 0.570787678975959
-0.11647894626543664, 0.00843791477382183, 0.5641603178506511
-0.11830388042334225, 0.00843791477382183, 0.5650237341930205
-0.12021086618649166, 0.00843791477382183, 0.5857482542050279
-0.11563742850110018, 0.00843791477382183, 0.5637788866143459
-0.12692191480470155, 0.008437915056918729, 0.4785412462227668
-0.12730431178942359, 0.008437915099412562, 0.4982287710840262
-0.1324836890420862, 0.00843791567415801, 0.49000009565287034
-0.13033427528032848, 0.00843791543569656, 0.5119648509962047
-0.13364679353021042, 0.008605991109910411, 0.2852246226930929
-0.13383823738107142, 0.00859108655755805, 0.2814721801543558
-0.1330512683075227, 0.00862867257076654, 0.29093103283482696
-0.14707916801764287, 0.00844829680914348, 0.24567216107900514
-0.12634604884957437, 0.008481066184473475, 0.25365626208049386
-0.12538794174872298, 0.008667707006093537, 0.3006647153773352
-0.13247978393269833, 0.008478225256770841, 0.2530208860953077
-0.13719242973337872, 0.008513018075750306, 0.2618480818871392
-0.14914298861786304, 0.008488018644087636, 0.2557064414038405
-0.12034559902728918, 0.00877724692566586, 0.342069966082329
-0.08151545843830116, 0.008446213933386614, 0.4118572461918826
-0.10573986912980643, 0.008511562179516468, 0.3981411981625146
-0.10318007897160836, 0.008599982964577767, 0.37945341101684515
-0.06922124854896801, 0.008440874319201474, 0.4129403295107025
-0.08186440193465026, 0.008463591015291837, 0.40818769975555397
-0.11989917493317259, 0.008444249321856754, 0.41241238971270483
-0.09743772136927756, 0.008598114836832598, 0.379827079614559
-0.08923560209421091, 0.008513640104195598, 0.3976419941886282
-0.07503569340400035, 0.008453228612795932, 0.4103517747805878
-0.13970942909335257, 0.008437916475911017, 0.44802452542142257
-0.1470543428417509, 0.008437917290917972, 0.41519956145974235
-0.13787396092673412, 0.008437916272186933, 0.4324911223691671
-0.14177886923187916, 0.008437916705490385, 0.41783595462544043
-0.13168037662797796, 0.008437915584824289, 0.4142910480542576
-0.12169597392432496, 0.008437914860755246, 0.48888741741622793
-0.11418659444277689, 0.008437915104826907, 0.4966073724866302
-0.11574998743489369, 0.008437915053997358, 0.5132230997612421
-0.12175071819064051, 0.008437914858976247, 0.48847004885560863
-0.10870274676128706, 0.008437915283068465, 0.4973722717376451
-0.08838419439974132, 0.00843791594346685, 0.5183730934161257
-0.07744518655278565, 0.008437916299014619, 0.5232609158897308
-0.13121682944865487, 0.008585086246827741, 0.38276740658403696
-0.13215735993236288, 0.008684168535562779, 0.36184910966384276
-0.13071418076491334, 0.008804330488653053, 0.3364465742371584
-0.14907815349733555, 0.008684454237418145, 0.36201069739923075
-0.13720003668309524, 0.008573828182024422, 0.3852240944073366
-0.13425648798191098, 0.008548024382918868, 0.39063640779417846
-0.132329463490306, 0.008678324851194071, 0.3630858158772213
-0.1026544051810501, 0.008437915479681642, 0.4696998666851989
-0.12057692522881566, 0.008437914897171828, 0.42884574591358404
-0.12030630727457567, 0.008437914905963757, 0.43457165483084026
-0.0813133759828065, 0.008437916173333854, 0.4675793763381903
-0.12420404749146022, 0.008437914779289032, 0.4143931404828008
-0.09219054342986724, 0.008437915819795081, 0.46263222440422647
-0.12011563026368885, 0.008437914912142491, 0.4615377706055742
-0.10934740360145814, 0.008437915262164293, 0.4322584705833793
-0.08002334796333628, 0.008708831694125124, 0.31084933172783835
-0.08967918977128664, 0.008562577155605712, 0.27403826454019997
-0.06958579382252475, 0.008476480100839545, 0.25227347569230124
-0.07897376427556925, 0.008450438857716928, 0.24574733085875664
-0.07872636443991164, 0.008705069636075565, 0.30989676536441274
-0.06952615547518116, 0.008684252806539512, 0.30461842373311265
-0.10809375983747403, 0.008477493684171156, 0.2526705495496818
-0.08528046337594118, 0.008664962193945884, 0.29981642679604326
-0.1021086334830137, 0.008530762214546028, 0.266068717708001
-0.0859213748194072, 0.008681512483478792, 0.3039883787610081
-0.07739522635809241, 0.008458233761106212, 0.2477053286687445
-0.09125070149636338, 0.008541280544057808, 0.2686786912174187
-0.05379538145488587, 0.008485991774647636, 0.4033966147006439
-0.05741808001668, 0.008734920856982456, 0.3508122187980803
-0.020358796309755758, 0.008534822365793811, 0.39306898157991094
-0.055120783506878705, 0.008460856655962624, 0.40870684039655003
-0.038537175293065, 0.008637371460868511, 0.3714123834590067
-0.06290727006326956, 0.008756997992006618, 0.3461504876523896
-0.06393037650613671, 0.008592146167259031, 0.38097545198107646
-0.04766769822838002, 0.008543541478855846, 0.39123711517271653
-0.023121633829911205, 0.008448125702244005, 0.4113844772433056
-0.032694598501813533, 0.008453983768336235, 0.41015048852983305
-0.060909763826876726, 0.008725781465926997, 0.35274417730715457
-0.06744812084686996, 0.008736149104117472, 0.3505576970972367
-0.11042447049493798, 0.008785814014386302, 0.34022379323827934
-0.06872519516615594, 0.00855006905505487, 0.38987138997253046
-0.07293217200559945, 0.008724011568904424, 0.353141848674948
-0.07978622658550266, 0.008719530716585351, 0.35411356979669595
-0.10227770329577078, 0.008776243220756645, 0.3422157082613043
-0.06889037960603693, 0.00878697608996237, 0.3398258989360065
-0.10047711974495638, 0.008673298171651841, 0.3639560193567073
-0.09022401706328899, 0.008594632427373742, 0.3805363636613681
-0.07672074302253937, 0.008805513491709594, 0.3359386463642012
-0.04943665640591917, 0.008437917575005673, 0.44458117645170725
-0.039962501333989084, 0.00843791670293336, 0.4584037080632321
-0.03859931868356181, 0.008437916344190492, 0.46570917616254137
-0.03148370115080975, 0.008437916661663481, 0.45392647244579903
-0.0578300188568686, 0.008437917510843832, 0.45140683569648643
-0.03565926012814117, 0.00843791687759508, 0.4516730621368893
-0.016423462709256355, 0.008437915650837579, 0.4673420496725047
-0.014660863462392877, 0.008437915350107596, 0.4730700552755459
-0.04143364903640707, 0.008437915932025074, 0.47691442740944645
-0.06256571099964663, 0.008437914807177293, 0.5883689855220073
-0.05618922295979372, 0.008437915137147844, 0.5773528291976446
-0.061980219743130074, 0.008437915932014418, 0.5508234084022655
-0.0665360960596276, 0.008437915406176982, 0.568376668563505
-0.012134136234317208, 0.008437914832976245, 0.5874901746682818
-0.055542617925741895, 0.008437915320092915, 0.5712461711539498
-0.03878470581407358, 0.008437915319762911, 0.5712513110154005
-0.023362956446343383, 0.008437914951785815, 0.5835284266014303
-0.05691420585854283, 0.008437915804024384, 0.5550937472352129
-0.10954924343923655, 0.008437915255569318, 0.4807227145877132
-0.0810736318244009, 0.008437916181096475, 0.5031637268456024
-0.11167467945037207, 0.008437915186486126, 0.4805213393024382
-0.09968233816271484, 0.008437915576266589, 0.48999353245995597
-0.08146517632807308, 0.008437916168377111, 0.49522300837483413
-0.07052172689831349, 0.008437916524061166, 0.5093184186385107
-0.09162898629241882, 0.008437915838013446, 0.5039973407189928
-0.03450084352602097, 0.008437915724063898, 0.5110959655042738
-0.05931931698965165, 0.00843791641946548, 0.4944006707704081
-0.035403633110876284, 0.008437915749369765, 0.5237077736881652
-0.02410086599802215, 0.008437915432655357, 0.5099854685172404
-0.05588771046953934, 0.008437916323328697, 0.5164807225508958
-0.06702755041227465, 0.008437916635456965, 0.5029359312633593
-0.04505312203629654, 0.008437916019727315, 0.4957770483321725
-0.10183400694978564, 0.00843791592914823, 0.42909280532590693
-0.08686273898863799, 0.008437916581652296, 0.44189266036208386
-0.10735954422043308, 0.008437915587477064, 0.426667097551272
-0.10966547054864355, 0.008437915688672942, 0.4200987530959969
-0.08278524540668497, 0.008437916165037454, 0.4589240582586527
-0.09577504144340299, 0.008437916443458727, 0.42856981793360516
-0.07291777145366873, 0.008437917796968562, 0.4399685890460244
-0.10405107314485489, 0.008437916033193951, 0.42262374828407545
0.14883386258447961, 0.07546242326498032, 0.48205669601983425
0.14774102688040136, 0.07546242326498032, 0.4803323367091465
0.1401850463699974, 0.07546242326498032, 0.48992788932492926
0.15374297735972264, 0.07546242326498032, 0.4881558652485717
0.14118916828824044, 0.07546242326498033, 0.504192446459277
0.10972517899365186, 0.07546241786599422, 0.5725291234683088
0.0906912544792564, 0.0754624158840199, 0.588996569775712
0.11105226137889299, 0.07546241851759963, 0.5670967030591372
0.08652396522659618, 0.07546241629215514, 0.5855752133492532
0.11090544516120177, 0.07546242105848597, 0.5458934340878601
0.10477695179560494, 0.07546241808196698, 0.5707083609227079
0.09129836166918096, 0.07546241599926531, 0.5880371675082953
0.13024663427590075, 0.07599746033587704, 0.26405017364911654
0.15233639375436567, 0.07608030970830465, 0.2676233145243462
0.14031477971075584, 0.07596806560434806, 0.26301817624355905
0.14459199494395703, 0.07622385278371852, 0.2732082103882245
0.12768225786926624, 0.07596797375187744, 0.26284821817159465
0.15158306016580153, 0.07583282609050938, 0.25780864429730044
0.13587022655108041, 0.07676702597908736, 0.29461269700618753
0.1241990079899222, 0.07727154867314277, 0.314447104213634
0.1455550747495847, 0.07630094489573004, 0.2762751086875796
0.08177375758552197, 0.07600500061167524, 0.3985199908180484
0.11888268733396853, 0.07605772536115257, 0.3968221918371738
0.10953329220796744, 0.07620988776945037, 0.3914856593215546
0.07778049563774991, 0.07590019370981048, 0.40215657585713327
0.12098745482893628, 0.07698207970239665, 0.36462479364301315
0.1152429979515734, 0.07646500927625677, 0.382618422978137
0.12112752989790741, 0.07771188407930515, 0.33919831327770283
0.12152258214306252, 0.07617155179455538, 0.39286628286999353
0.09270226736721655, 0.07643898269204917, 0.38344067284454
0.09863670328296521, 0.07564494119620066, 0.4111280114245163
0.14167066661838146, 0.07555285864083022, 0.4249878293531603
0.13506983752985793, 0.07551026045129644, 0.4497259885168695
0.13505992566017702, 0.0755160218203041, 0.4463682889796132
0.13717021874690066, 0.07555825718528617, 0.4217824519001373
0.1559037478725183, 0.07556167692955504, 0.4200361627984383
0.12429711515919174, 0.07548180151595402, 0.4661692482430076
0.08822405581862727, 0.07546242326498032, 0.5231251103043792
0.11907973965940628, 0.07546242326498032, 0.5107311452267395
0.11093744974641748, 0.07546242326498032, 0.5116555830577711
0.11777423000160166, 0.07546242326498032, 0.4840406815636792
0.12351923230574503, 0.07546242326498032, 0.48438672232966573
0.10614135679656736, 0.07546242326498032, 0.5056290478056079
0.13668184244623027, 0.07740624771668746, 0.3500282924662288
0.14478475504729024, 0.077070890704398, 0.36181909709871796
0.13105735863823625, 0.07773713665997668, 0.33842578998417955
0.13696821698182565, 0.07635267007000178, 0.3867395998716165
0.14572213751042987, 0.07681724502721882, 0.3706686687121652
0.14787479813668197, 0.07734271325092221, 0.3523892528140559
0.13412611245328634, 0.0777743768741328, 0.337168712429054
0.13604437276933007, 0.07640876387439284, 0.3847730809684614
0.1137319571730918, 0.07547197371953646, 0.47185060214731217
0.12182207352653408, 0.07550053328180278, 0.455237213447388
0.0968562383081935, 0.07551097326067928, 0.44905941710754455
0.10041212266628428, 0.07551098901582978, 0.4490635753711126
0.11215964564329245, 0.07548934591567263, 0.46172065852259564
0.10267724371185391, 0.07548094277003373, 0.46658221072364975
0.10234305154639811, 0.07550942131173707, 0.44998443472829935
0.10801617980054437, 0.07552254414739235, 0.4423580845692707
-0.04491283464804702, 0.07648523809876101, 0.28306268644245386
-0.03119609389309959, 0.0775023667441013, 0.3233542169450405
-0.02741445080710376, 0.0776316863907538, 0.3284762425272195
-0.0048522236311499736, 0.07775135451467045, 0.3332093038784543
-0.047262916015099285, 0.07686220394556055, 0.2979980490316018
-0.045569851368197654, 0.07729468651041466, 0.315131439637111
-0.053068250426155324, 0.07764188726252169, 0.3288893834686792
-0.060447651752788004, 0.07594623949649595, 0.26171422933216254
-0.04957769460945367, 0.0762500731443434, 0.2737476182531069
-0.023189423649261444, 0.07730970727268144, 0.31571867208546595
-0.056218211746791306, 0.07724850154529145, 0.31330543331111566
-0.011132805451812413, 0.07762055277688931, 0.32802943839962506
-0.023576503524800094, 0.07707544369551782, 0.3064378127816482
0.04625092625768637, 0.07608065509517026, 0.26703534371296145
0.0009481757398181464, 0.07738595693564641, 0.3187321271593206
0.005786390995825862, 0.07646956821125359, 0.2824286002141186
0.020154577171703002, 0.077024258952477, 0.30440939679803736
0.0011188293755601292, 0.07699964733969285, 0.3034274655882695
0.017795345245874304, 0.07598006262123409, 0.2630398188793517
0.008478047440009294, 0.0772701650090867, 0.3141474288509374
0.00861258019604117, 0.07584137938584583, 0.2575421828708828
0.010233646298008124, 0.07734921583014409, 0.31727987975882643
0.020101215637710657, 0.07553672990522028, 0.24547679973672587
0.01012828622393496, 0.07620637277549641, 0.2720029529370921
0.000984998498859658, 0.07624398069167761, 0.2734895927846149
0.013518278145536267, 0.07567196723828234, 0.25083222356278834
0.015334614054553419, 0.07640316267212444, 0.2798012091059386
0.08465335849924556, 0.07585733398038848, 0.25826521526049107
0.07240460472406907, 0.07621861436222235, 0.27253238839471594
0.09875178604167015, 0.07610398157089705, 0.26808972832329625
0.074884355611611, 0.07665510888984357, 0.2898346282274229
0.08790470959421588, 0.07660845819916405, 0.2880352747568709
0.07471779814830501, 0.07666788471810504, 0.29034015319131135
0.10896155855679547, 0.07567535547785782, 0.25114681988889886
0.0766196455622118, 0.0770408474973111, 0.30512323927733564
0.10172065713593809, 0.075689095111602, 0.25166399102211456
0.06968773122651366, 0.07605054763698907, 0.2658637686756103
0.0835058860519892, 0.07688163879373197, 0.2988415782839213
0.08685339952990637, 0.07645416388770655, 0.28191853524040417
0.01850101620290251, 0.07618942836913364, 0.39201791032072114
0.05235527432468158, 0.07655207604547173, 0.37939508014124146
0.026095956061645307, 0.0762627751053624, 0.38946516775584084
0.05570742499827106, 0.07565389380415598, 0.4106897533277643
0.02487380934929759, 0.07638351789671886, 0.38525794288825344
0.03220420245242723, 0.07591893276309511, 0.40144713211960803
0.037784967388110026, 0.07564195451779458, 0.4110993025119386
0.0428613609091259, 0.07644208913536235, 0.3832237181899569
0.061904377889383404, 0.07590794537468877, 0.4018405917317788
0.06269619116916886, 0.07735227951194211, 0.3515189846908602
0.0470164185674773, 0.07635715843799926, 0.386184269341282
-0.057398047814920104, 0.07565099589449288, 0.41079032931064596
-0.041863483558627554, 0.07626630919765946, 0.38934685080313336
-0.045720346486056246, 0.07622540274074126, 0.39077341232179086
-0.06191215443659416, 0.07725587164995182, 0.3548765975217711
-0.03565549556683443, 0.07599926199657353, 0.3986488504940757
-0.051347706160535425, 0.07701621002677522, 0.3632229410987259
-0.03888796429656491, 0.07673174408770168, 0.373129646599412
-0.04438720674925787, 0.07694095159975331, 0.3658425863583608
-0.023451643672100328, 0.07566791474733847, 0.41018903188785133
-0.03801787926723128, 0.07595727200859953, 0.40011264241373207
-0.050064175389838664, 0.07652300942463883, 0.3804060433399957
0.026898933552803928, 0.07682151425776038, 0.36999846002989023
0.03448968092841652, 0.07736670779100004, 0.35100613022709476
0.023422688110215206, 0.07707710694961191, 0.36109210767839317
0.022229489167642336, 0.07725645823847899, 0.3548429041191987
0.00997305621047805, 0.07725482756919284, 0.3548952922361364
0.06478342063033612, 0.07778280328774405, 0.33651989948815325
0.02990313330527494, 0.07684999648760316, 0.3690071964071782
0.05373714187377482, 0.07764201819316952, 0.34142099961333766
0.012905391883130609, 0.07743726617859552, 0.348540013230332
0.04231947222373713, 0.07727482849084075, 0.35421012152086245
0.018997860977196076, 0.07755712006328486, 0.34436638784312
0.05097156574719726, 0.0773806425345461, 0.3505265821153062
0.0688375339690828, 0.07778366272777411, 0.3365012878009962
0.07560505595796356, 0.0763746703347729, 0.38561723034725115
0.0694059828239478, 0.07601463956730639, 0.39813776404526596
0.07165350248539801, 0.07620595260260297, 0.3914806801573913
0.10611258561375841, 0.07742907843157297, 0.3489951776688405
0.06699273019219107, 0.07582828009939023, 0.40462163939659196
0.08391765340150324, 0.07773173286875379, 0.338367151380195
0.06984325776001159, 0.07679712969790922, 0.37087675123157526
0.06889520641702566, 0.07605389501842623, 0.3967681526982373
0.08872079234429253, 0.07765700116090814, 0.34098889218626904
0.06526693416161738, 0.07550902677484295, 0.4500775374622039
0.017720515700276704, 0.07547635760732956, 0.46909903541101966
0.05733959783111932, 0.0754871029826984, 0.4628512520699012
0.04736182022201546, 0.07546657725316883, 0.4748094730167744
0.052831881263643986, 0.0754794794250076, 0.4672924212147901
0.019886370432335487, 0.07547328139268747, 0.4708925514757614
0.031002524535863583, 0.07549145899843614, 0.4603031638412578
0.031823825027081566, 0.07547455781482494, 0.4701530040310929
0.012446660114826062, 0.075463561341798, 0.47655443888138843
0.07337474326986022, 0.07546242326498032, 0.5100232791177844
0.07700696629662593, 0.07546242326498032, 0.5133335204525628
0.08327213909950293, 0.07546242326498032, 0.5074115943906877
0.09401281789329405, 0.07546242326498032, 0.47840458621973225
0.10527403418072043, 0.07546242326498032, 0.4796776748411796
0.08970566442514552, 0.07546242326498032, 0.49599913482402475
0.05272741471588331, 0.07546242121695533, 0.5443976164974743
0.03972328177157618, 0.07546241768046152, 0.5739036196691512
0.061024948325194936, 0.0754624187293649, 0.5651586268720354
0.045767717295604124, 0.07546241979276667, 0.5562794156852872
0.031843359732770346, 0.0754624162392934, 0.5859267730606257
0.03271420886725922, 0.07546241937030053, 0.5598000113116458
0.05515180839479675, 0.07546241960147178, 0.5578790968616647
0.027826349267219615, 0.07546241807990395, 0.5705661161068398
0.03395510497529143, 0.07546241909353366, 0.5621099759350668
-0.04827444773392147, 0.07547090044620205, 0.4722894970511051
-0.05165362888908396, 0.07548054801382285, 0.4666683463779915
-0.030536700145180753, 0.07546607274574824, 0.47509669985316416
-0.04371127921413546, 0.0755092953306405, 0.44991238906871833
-0.038327018762046416, 0.07549663069157428, 0.45729110081437413
-0.05068248528402126, 0.07546854985085281, 0.47366020897771494
-0.0670473084446202, 0.07554057988033891, 0.43168882294509137
-0.02100132213240852, 0.07548484512089697, 0.4641533073607031
-0.04466722819078397, 0.07552823743670008, 0.43887377892586493
-0.022633385037669575, 0.0754637485023145, 0.47644842108263036
-0.00020400258946478273, 0.07548971306550836, 0.4613104068741564
0.03779932622705836, 0.07557033864017065, 0.4143385013269183
0.021752688539696908, 0.07552522741521057, 0.4406215412463972
0.044055279297172345, 0.07555204783266381, 0.4249990214356329
0.01726355223706603, 0.07551996987231599, 0.44368395196036137
0.009293442415563282, 0.07556117103657123, 0.4196722967662841
0.031191659259618046, 0.07551845663888616, 0.444569902595396
0.023948660605690664, 0.0755079479838705, 0.4506914923006129
0.011593231144015174, 0.07551153262864699, 0.4485989288696202
0.08017276553829746, 0.07553430620361581, 0.4353990466308595
0.08687687054142658, 0.07551456128638315, 0.4469309820691588
0.07282528032864877, 0.07550589044159528, 0.4519314105176377
0.09726881554584177, 0.07553545841774328, 0.4347916864289304
0.08655256902328848, 0.075537704693283, 0.4334424281187266
0.06797387148678465, 0.07547940200778103, 0.46734994228906324
0.08366472768127624, 0.075528275904414, 0.43892643480026067
0.06667494757273612, 0.07550272524147905, 0.4537529349541124
0.03423900312662678, 0.07546242326498032, 0.5052144434433817
0.0609665402085085, 0.07546242326498032, 0.5156057690857747
0.04448062319852676, 0.07546242326498032, 0.49466203218516286
0.05772320779508112, 0.07546242326498032, 0.5226966771751778
0.060660180788196925, 0.07546242326498032, 0.5023388449647584
0.03533608068157297, 0.07546242326498032, 0.5129322286513571
0.04683239660054797, 0.07546242326498032, 0.5223866437503859
-0.05241714279677357, 0.07546242326498032, 0.49415013322046303
-0.04769944308664685, 0.0754624232649803, 0.4934119512213747
-0.045395189889999674, 0.07546242326498032, 0.5009325589646173
-0.06534802151244937, 0.07546242326498032, 0.5177736036287057
-0.04964525308285313, 0.07546242326498032, 0.4944235891868773
-0.06322209734509653, 0.07546242326498032, 0.4905706252747746
-0.04086192034475028, 0.07546242326498032, 0.5147599145544782
-0.03348154417809086, 0.07546242326498032, 0.5266786754753747
-0.00026035845016003623, 0.07546242326498032, 0.525057543768994
0.003009564136193332, 0.07546242326498032, 0.48343834168632493
0.037031234961888586, 0.07546242326498032, 0.48413793141167927
0.025063090557711602, 0.07546242326498032, 0.49479803762741875
0.02550825142944542, 0.07546242326498032, 0.4939930305874136
0.001075872094266005, 0.07546242326498032, 0.4806454335429209
0.01228618980084422, 0.07546242326498033, 0.516218464710962
0.01981091393512146, 0.018446677741033653, 0.6656379647294122
-0.004265095627452529, 0.01063969780025277, 0.654478606844076
0.05065022870313102, 0.012121930235594915, 0.6579742473910476
-0.03191755729556243, 0.019966596153199612, 0.6663858948915297
0.04160186719815771, 0.031118652962569333, 0.6688120082869772
0.01489752761286229, 0.030416419487829534, 0.6687316173838607
-0.02456268277191376, 0.01408121225790087, 0.661950869708888
0.032691028018122056, 0.02300194321663035, 0.6673999764643196
0.1356530205854372, 0.017264082956086606, 0.6650303122080361
0.10411585245310032, 0.013579096884550609, 0.6615426084418679
0.07172825632640281, 0.018545276394631795, 0.6657596429561492
0.11855745186244954, 0.01753998562815176, 0.6650859590931409
0.03210225042635697, 0.020131885020650095, 0.6664418922714349
0.06621903047354268, 0.02962281540807701, 0.6686711452556304
0.12058536869866976, 0.02143319387827565, 0.6670933628746898
0.15537688625467425, 0.032431591061229476, 0.66958757708641
0.045007187320019286, 0.016682916055005576, 0.6641569216426427
0.11459371908608447, 0.025255586261650323, 0.6683465840010554
0.04402634274540838, 0.008437916023103505, 0.5245773904708877
0.06061604618505597, 0.008437916487659895, 0.511327715296063
0.019497330584463183, 0.008437915336245433, 0.5168827210897949
0.04856181978686459, 0.008437916150109324, 0.5206301536148485
0.03230662709754778, 0.008437915694928431, 0.522491410752268
0.020310021549273916, 0.008437915358999215, 0.5212666472295163
0.0560256457202533, 0.008437916359108134, 0.5259642432735709
-0.037056333382145645, 0.008437915795652246, 0.4895308861706742
-0.021651368316902384, 0.008437915364017244, 0.5059378042700696
-0.03780514008426707, 0.008437915816636755, 0.49333357299017633
-0.019144249523222343, 0.008437915293764538, 0.5018274239636228
-0.04401855639097073, 0.008437915990729211, 0.48335832080159497
-0.010201146746898686, 0.008437915043165052, 0.484311168023354
-0.025693650850670827, 0.008437915477271973, 0.492721153292186
-0.01678551800912949, 0.00860986477126396, 0.28585098297281686
-0.012381760624166108, 0.008669194211180016, 0.3007965229072297
-0.0058050847852746685, 0.008569109361317575, 0.2755796057802391
-0.019549367164207347, 0.008570621434634274, 0.2759652353363685
-0.010420201327405437, 0.008720052212443723, 0.3136086612023184
-0.05210293524018079, 0.008438635685807213, 0.2427247779732198
-0.0319447215350425, 0.008571097457309544, 0.27608938943051303
-0.018897305271817367, 0.008489852501475879, 0.2556166555121903
-0.006439357871310113, 0.008597787744797608, 0.28280485253123916
-0.026103801760013347, 0.008444325710950126, 0.24414941412981547
-0.03780652706840859, 0.008459970033544657, 0.2480947268374555
-0.022377011920058438, 0.008540730535231213, 0.2684356967698039
-0.030161929840840523, 0.008478543237350351, 0.2527713215610958
-0.05087821704159262, 0.008444775546529249, 0.24427119355970864
0.04681453546116217, 0.008605500059682629, 0.28476257887371587
0.052623648004644676, 0.008640684263854921, 0.29362880479765346
0.05147966209609718, 0.008672986563786124, 0.3017664676626169
0.020520758654575953, 0.008712374998467557, 0.3116786084081549
0.024817272015693885, 0.008684741835085528, 0.30471840231209146
0.03116762662161314, 0.008662604886314115, 0.2991436260430925
0.06249872745173091, 0.00875896461493884, 0.32343131659327923
0.015526281797500582, 0.008768625889207533, 0.32584836609471474
0.042769382638331514, 0.008655220850976263, 0.2972875195713818
0.03471388438511842, 0.008645752379028909, 0.29489917229142243
0.05574465916619679, 0.008546706428552864, 0.2699536374191311
0.023965742136457892, 0.008692730172164233, 0.30673063553514357
0.0467197370989927, 0.008635244061904197, 0.29225609619586645
0.004905403262741631, 0.0087800690057991, 0.32872745091415895
0.0637411168958728, 0.008700226151950121, 0.3581448030727432
0.0353713369139116, 0.008517699903292087, 0.3966923724221919
0.04969671052757498, 0.00847213968233818, 0.40632227390495057
0.053882999508650234, 0.00865005425770139, 0.3687397873132384
0.04620640877154286, 0.008662621730977508, 0.3660820400288776
0.03863019095554379, 0.00854465272824089, 0.390999876354133
0.04673684477219372, 0.00848690869789083, 0.4032012349912869
0.039906209706020976, 0.008563522109361957, 0.3870142421378292
0.06303984367093143, 0.008560198093933288, 0.3877251602522573
0.052920239128722076, 0.008676709363166897, 0.3631085912425694
0.0499151857556896, 0.008638951214995244, 0.37108378401134445
-0.0019223344581267387, 0.00874592817809295, 0.3484674431578147
-0.023558769728862693, 0.008738598462821857, 0.35002340337363047
-0.003810368311607995, 0.008470255995975845, 0.40670245227811574
-0.0037956929744469513, 0.00863577082315504, 0.37173828172284173
-0.014734545430318923, 0.008587932737592256, 0.381847673904513
-0.0298148576541597, 0.008707359422136313, 0.3566246879366572
-0.014263347184219864, 0.008657581949777619, 0.36713446667159777
-0.004108084378795068, 0.008565574469992114, 0.38656701395765847
