0.060577098266459684, 0.1061729175357564, 0.11952668032928553
0.05001273235517484, 0.11227589564497177, 0.1382638735282879
0.07443987042472955, 0.10578030395698752, 0.1389035511196787
0.09775586466837356, 0.10798108405260745, 0.15302391638805124
0.08677844054296578, 0.10854480105548267, 0.14532000418694324
0.0881037549711917, 0.10855740291927672, 0.1431653257400535
0.09213231408841842, 0.108675415425409, 0.12704359039656338
0.0970075135479562, 0.108303466444656, 0.1376341833719751
0.08515688773989533, 0.10848101238294124, 0.1220931341920374
0.18237699051561124, 0.09838524522822759, 0.16475494524161208
0.17898493098657442, 0.09915885542625198, 0.16088181103876367
0.18725588438743446, 0.09675169802830949, 0.16453076741134673
0.17682093999204485, 0.09912031711604262, 0.15181283295558626
0.17912700068710988, 0.09745978375839708, 0.14024403659990603
0.1874272678808334, 0.093381973124643, 0.13016697758391343
0.1859626889118271, 0.0963936186564111, 0.15526486744069046
0.19568367641535733, 0.09101501121566087, 0.1423843539934167
0.20247387875113593, 0.08809184195705698, 0.14688891073281105
0.21020925924675832, 0.08219458512522593, 0.14416846670783545
0.19548593701299244, 0.09442433311233499, 0.17488997643674176
0.1984069116180255, 0.09009460424385884, 0.14561278860715154
0.2061825008422831, 0.08489006970191773, 0.14252436517783185
0.2190873771518924, 0.07769355849384378, 0.16331759731425877
0.21513982739467596, 0.08514830741140528, 0.17760926232035287
0.22015717039973298, 0.07901453744795281, 0.1692959775515071
0.21362957450339226, 0.08392071904428068, 0.1633960096791256
-0.1303688404839083, 0.10970752909070572, 0.17276690218080729
-0.123387693055274, 0.10846283444383054, 0.14999091523100513
-0.13481477761602442, 0.10947646765066707, 0.1612264391351809
-0.11027775580880453, 0.10771636113752159, 0.14921247532608584
-0.113571499471629, 0.10865795761519989, 0.15969803663296223
-0.11825224010125135, 0.10918757636528076, 0.17193166977017268
-0.13505694467399967, 0.10850445509693385, 0.15079230181216807
-0.12200862856362374, 0.1064685749522629, 0.12527878093744044
-0.13724499910988874, 0.10719590669551876, 0.14026336781886292
-0.11203069370496826, 0.10626479313632231, 0.1230447702088671
-0.11915659934475462, 0.10862169174218475, 0.15398792040460133
-0.09615797441164195, 0.10540044073507727, 0.12366907393032744
-0.09725760646021048, 0.10613321577689866, 0.1415365347683709
-0.08772103591002711, 0.10505967906863821, 0.1309835780084803
-0.08830449599787085, 0.10574701412198945, 0.1435621937358203
-0.10994247307468565, 0.10849914960186904, 0.17255235053805695
-0.10233821873174576, 0.10641470619833522, 0.13959405417199047
-0.09639055914376464, 0.10645380972596533, 0.14729104291906064
-0.09584888841106375, 0.10679376850635469, 0.15352294068794917
-0.08847271988422989, 0.10624877192027896, 0.15175451924049144
-0.08327785974382726, 0.10647034319804481, 0.1701116148029876
-0.09126680264076716, 0.10599394547018318, 0.14542757228806716
-0.08845397813905004, 0.10673512683624398, 0.167325643931224
-0.08305081938534103, 0.10650961237256472, 0.15772886905715858
-0.10171076028952847, 0.10752007117071231, 0.17637030324788988
0.07352043710005582, 0.10545839979859234, -0.1357979395003052
0.07276957722822423, 0.10850897746398482, -0.11565490763065568
0.05789028701153316, 0.10670017996631262, -0.1207972567970735
0.04667368528902945, 0.10774055546536063, -0.1226628568863127
0.07050279522696594, 0.10280864597840259, -0.1413979014343968
0.10335698513995112, 0.11118300751464519, -0.1400226114855691
0.08152986508604278, 0.10603846945347563, -0.14036066896341318
0.1015827662668932, 0.11284178532760746, -0.12873753121480397
0.0910323016103603, 0.11162963530184761, -0.12441736259254835
0.06571216509980565, 0.10601913770105209, -0.12639636639575716
0.09725531186707445, 0.11268219332195889, -0.11289437114998789
0.07452982061620825, 0.10880181636941545, -0.11614209927549066
0.08366709046164231, 0.11071255819199233, -0.10504811229705271
0.08187705599668557, 0.11002002292324534, -0.0974695858863971
0.08644874240119621, 0.11076880451156135, -0.10012163917811558
0.07522800433531311, 0.1091047315949859, -0.09885554444215579
0.056336184362023124, 0.10790607476533357, -0.10942288432864072
0.07997492898983781, 0.1100161730797245, -0.11300920907708925
0.07063221678600043, 0.10845062278955248, -0.11151356914378807
0.07114662431392066, 0.108704468137161, -0.10453837714835065
0.064099777542894, 0.10807289471976353, -0.09465917896535181
0.06273806688247026, 0.10779500179697533, -0.08602241129286797
0.054330850387796406, 0.10825404509129091, -0.10453841080123977
0.06968462987373333, 0.10824822774605049, -0.09005566659742456
0.06001794732506312, 0.10824187932701117, -0.1004382189446979
0.052223940982075084, 0.10876957760173667, -0.10137444528980227
0.1729237944264374, 0.10608650121505683, -0.09853993629831101
0.18175588989384717, 0.10441263352513082, -0.10369792579032068
0.19587310054715754, 0.09798867434556452, -0.09650150179005879
0.19453287819908344, 0.10040553684340243, -0.10702943900522732
0.18608109285198388, 0.10442411124752152, -0.11324312375656456
0.17489855635149051, 0.1083034209511447, -0.13284969098363592
0.17810599065977661, 0.10738381289889047, -0.13589553460475892
0.18333049806174312, 0.10622841232419528, -0.12825848321288325
0.1802770467640271, 0.10680629176750492, -0.12173095363954432
0.18859689352177705, 0.10444893154094866, -0.1249783497374112
0.18920122250842836, 0.10424919481641994, -0.1320738676209869
0.21735440280577298, 0.08981344730968631, -0.1447953830871577
0.21385921420727758, 0.09265015207890283, -0.13579604694707215
0.22103387173087197, 0.08708933053137771, -0.1393211544899714
0.21185551459267654, 0.09360485582579185, -0.1294875569153671
0.1900906933574512, 0.10085909264702506, -0.09934922963968797
0.1876819878669217, 0.10401940533972118, -0.11467111499775381
0.18595068824198552, 0.1053304338318341, -0.12352692385167932
0.20584760592928342, 0.09716114049482308, -0.12655733355246748
0.2116783992160049, 0.09311585241721233, -0.12195238780126945
0.20669238285384917, 0.09543259172776633, -0.11384306382253301
0.20626561297851584, 0.09502278007134513, -0.10954010895468251
0.2141114905214902, 0.09091392700473849, -0.11695692739549118
-0.1172239659276806, 0.10486847814372585, -0.09048866075777823
-0.12752088178227255, 0.10554001281329047, -0.1088846892413003
-0.1158768408717195, 0.10495747798576206, -0.09521490923826764
-0.11473323714713496, 0.1046622931695039, -0.10949334031473784
-0.12392402398941862, 0.10478264835652386, -0.11731934279952702
-0.11979104604517755, 0.1046853237546649, -0.11519111799910074
-0.13146434529504908, 0.10393088855974414, -0.12806740509103556
-0.11405498799751279, 0.10047569035565403, -0.13663816015017463
-0.11127510809054068, 0.09959009771673641, -0.1393065128309224
-0.11643975240952543, 0.1043152390768033, -0.11639957024729564
-0.11796049817294707, 0.10226733985190423, -0.13057446945124496
-0.11118391569638725, 0.10094675851478885, -0.13377446019796269
-0.11145967986546354, 0.09922161436535196, -0.14043617926734436
-0.09943288000374671, 0.09606176205672347, -0.14730857309064652
-0.08660221253073866, 0.09871688031032448, -0.1391616399936449
-0.10042858392243567, 0.10081956349840505, -0.13160783531278153
-0.10598875128224376, 0.10451404676455238, -0.09810254777780616
-0.10969780119461162, 0.10408829260831719, -0.1124612437068465
-0.09454628009954724, 0.10269436236608477, -0.11864907710944167
-0.09093514728713352, 0.10171009215814544, -0.1248626883205393
-0.09464621438136847, 0.10255623836119822, -0.1200050965630886
-0.09095061275776037, 0.10317113946598255, -0.11344882948429114
-0.09406393838340785, 0.10385736194841089, -0.1044132713149395
-0.09066492524229837, 0.10374187415203441, -0.10639566975159315
0.06889882383565912, 0.10221062688768694, 0.10375310195420251
0.07019194968796058, 0.10538434182134145, 0.07658385783223128
0.07518913083686665, 0.10717890823128695, 0.07340793201920523
0.08304752196888066, 0.10970916031876445, 0.0755246407616096
0.08873598206640076, 0.11092018394620422, 0.07830426864602472
0.0864047490560801, 0.10887922053901508, 0.09639906090993738
0.07673243190549536, 0.10638271569080568, 0.09412872490894736
0.08532334795342814, 0.10770211346989, 0.10723731418123392
0.09407644757672097, 0.10858176187368442, 0.11387399083247365
0.08425959702167245, 0.10764856479396204, 0.11554250016560232
0.08000135038239203, 0.10665768244030484, 0.11337009411368437
0.19787753498073124, 0.08897843479501828, 0.13634210795884572
0.21029590332938458, 0.07678418743499602, 0.12694744060058777
0.19929731976616546, 0.08511603698441578, 0.11076377026795982
0.19463896902618177, 0.09039139050878178, 0.1335592221761032
0.18716528435595065, 0.09394401044837122, 0.13500552115426603
0.1780485608045198, 0.09715217154702413, 0.1307826072406685
0.17276797180332204, 0.09859918659620055, 0.11868559540493676
0.18667221932068695, 0.09250693576988757, 0.10869582953556699
0.1772102958218916, 0.0969129444062762, 0.11118637038605221
0.16999425230497356, 0.09978853160892691, 0.11130572735865205
0.171311323592939, 0.100064604074586, 0.10016863740441226
0.1617462341199445, 0.1055496437209206, 0.08473708666050937
0.17082269361067176, 0.10160135203599863, 0.08197032229970405
0.17381118325821077, 0.09953206103643462, 0.09108820863420859
0.20815435686310527, 0.0769878692777693, 0.11081740236965594
0.1989107380796603, 0.0855446717622996, 0.11198839680370032
0.1913750036908105, 0.08975576199482492, 0.10217954609369848
0.17930141639342878, 0.0971775821848986, 0.08109235739989415
0.18721520124118657, 0.09257590346313437, 0.07767754063685967
0.1871578327817867, 0.09216135685618256, 0.09956813433417819
0.20416577809070768, 0.08086484322834087, 0.10720546950093163
0.1937901110395672, 0.08790490186514983, 0.09045268748835339
0.19885776289079554, 0.08438464466837013, 0.09658334248229973
0.2002772832214787, 0.08287389613008217, 0.08800489241364637
-0.12289864055579236, 0.1063860411954534, 0.11814393052583516
-0.12555180963029655, 0.10642584511107321, 0.11631947332085797
-0.1187127708989089, 0.10643241109509474, 0.11732315586494396
-0.12088900801691119, 0.10652882422588933, 0.1274316979439377
-0.12979197247215396, 0.10696985623284361, 0.11000376620113089
-0.12711216795942767, 0.11273781515096816, 0.09131366230675128
-0.110642989958112, 0.11274078722417272, 0.08741428594579423
-0.11167074520133881, 0.1141299174227263, 0.08101609466903935
-0.11204098967985117, 0.10709584806570924, 0.11030227669000348
-0.10326986303061098, 0.11016300407637332, 0.09495820720420159
-0.10306459497781958, 0.11086508732088401, 0.09182565694255634
-0.09068822777266065, 0.10903978381088794, 0.09282742203390348
-0.08448246801778037, 0.10860255167380763, 0.08630568912853118
-0.09107474538061007, 0.10898148087338663, 0.09347565900446649
-0.10690060611253603, 0.10610813248726736, 0.12851427250012037
-0.1041555059954335, 0.109122041585235, 0.09958284178154797
-0.09693721202431847, 0.10738228850440559, 0.10558423757172858
-0.09546548432014644, 0.10793176874380907, 0.10165698479547443
-0.08816184072361033, 0.10484697618849996, 0.12056733513769613
-0.08376877500431865, 0.10462362158720881, 0.10867702040948976
-0.10037614269689396, 0.10711223255947848, 0.10813746592460238
0.10651852212088117, 0.09339770607198188, 0.22418373051038226
0.09238941874453913, 0.08370251532999055, 0.22769312929472219
0.09308055161674393, 0.08914009165024184, 0.22444692029251292
0.07222759403244622, 0.08348904876397475, 0.22923088853803278
0.05228106617975894, 0.08485395906002323, 0.22827008780529054
0.07961256485831991, 0.08859765856380429, 0.21895538944123183
0.0649746713768023, 0.09430405391494225, 0.216244119936672
0.048539094819631236, 0.09356724127883449, 0.21856725638133764
0.07620571470629511, 0.09531228325695779, 0.20745043050564996
0.04601256329486159, 0.10080115225695878, 0.20704294403191784
0.0662640585272815, 0.10174581382726976, 0.201075691249278
0.06250812602278949, 0.10209282814318638, 0.2006069888130543
0.10461741370086886, 0.10126921626842042, 0.21129126837335022
0.10558470857477306, 0.10386403486997613, 0.20450814737606499
0.08834570123909968, 0.1035288665055879, 0.2003320996023293
0.09839898189537932, 0.10523719837969021, 0.19731148745785237
0.08928722859491219, 0.09838613725128874, 0.21208523882994063
-0.1345464396249006, 0.09516526676616324, 0.21821932862795768
-0.1308541984523309, 0.08321130049856577, 0.23155563585005715
-0.12671896791738413, 0.09052759603135918, 0.22387887600902456
-0.1347460429307049, 0.10171058692113141, 0.20568987671571937
-0.1440947939108963, 0.09741322942509606, 0.21442153060954963
-0.1293046911469554, 0.10156581038152288, 0.20576889449156685
-0.1289989695398641, 0.0964590286620318, 0.21592675557067836
-0.12313774383711576, 0.09541765215874148, 0.21686299570607626
-0.11632845084357858, 0.09999260998032232, 0.2079298896475006
-0.1192845478725572, 0.09672463962637556, 0.21430068941760547
-0.09876239877750595, 0.09798024783080397, 0.20838471357984362
-0.09064513198072818, 0.09426844679241748, 0.21263184036986943
-0.09827360551104758, 0.10045657174643227, 0.20314820273936074
-0.1248939276532194, 0.09226054933062539, 0.22150368762872114
-0.11551712639854031, 0.09531088335456993, 0.21609044569311275
-0.10725536106362402, 0.09486775675679339, 0.21535917558006018
-0.10989105250339784, 0.08465439490384141, 0.2274439241423427
-0.1043631827797585, 0.09070300087434255, 0.2202510606221271
-0.09627084066006829, 0.08351140051236855, 0.22619334659790177
0.177985119381289, 0.09004663693586824, 0.22964938313412658
0.1773124484984212, 0.09346258212386988, 0.2204163564479041
0.20619586694564424, 0.08336482760062486, 0.23485074803075762
0.18563658160662266, 0.09210388504523033, 0.21899527423436366
0.1756098688875919, 0.0982455311410619, 0.2021212334363218
0.17794375264023626, 0.09829560442983197, 0.19783654792199018
0.18411749817993817, 0.09558955864069682, 0.20367741472000067
0.1871429887812403, 0.0931756346701113, 0.2129923766905456
0.1902984559180039, 0.09378265815050787, 0.205112614822734
0.20322179563988965, 0.09015464740092198, 0.20713524619161344
0.21467496850220213, 0.08580057726339077, 0.20857568452802103
0.2112473482754269, 0.08753333710933504, 0.2033721652954573
0.20446782142187142, 0.08704566819125185, 0.22403994613745495
0.19694846821090783, 0.09152910122446861, 0.20975912580498068
0.20605702198537462, 0.08888291930636559, 0.21070404116836122
0.21219259478966046, 0.08488370012199638, 0.22430946732424892
0.20664080888082137, 0.08571083776451487, 0.22723089986764433
0.2144644457151046, 0.032279301325298444, -0.09467585996010322
0.19713759395085548, 0.02103157133310903, -0.10060550403538314
0.197597953421847, 0.022651385353143885, -0.08497925077506856
0.19186982663454688, 0.02027436373189488, -0.08404974520078873
0.18983777570664323, 0.020052357475296417, -0.07660823986093585
0.2129930480235379, 0.03216981176921802, -0.08790412569165844
0.20220909765428793, 0.024367071938513916, -0.09129138749673381
0.19690985551698448, 0.0229901316708081, -0.07650979282555462
0.21041261545105147, 0.030893934412404997, -0.07276791972670918
0.2036143371476712, 0.02651511214718129, -0.07048807256672797
0.17145906718367918, 0.012623125861676616, -0.0915527846538701
0.16551132602048374, 0.010848482697871606, -0.09314932278794816
0.15879735913972273, 0.010563337009802463, -0.07536563843581642
0.15115603791970234, 0.008842933465552545, -0.07798338884368639
0.14004040168634, 0.007845966945753643, -0.06731985020730848
0.1744095844930974, 0.014269838560350447, -0.08207356899675149
0.17012354005276617, 0.013893743558962932, -0.07064553897317306
0.15876931034144387, 0.010878507544852069, -0.07081575508525784
0.15181567876786456, 0.00939522422204632, -0.07196991982324884
0.17270613209602584, 0.014209520240436476, -0.07685330468844367
0.13460415041555754, 0.005846959342849418, -0.0912514160737122
0.11623984905331408, 0.005782549386280112, -0.08230126356332002
0.14585446733576557, 0.007384880468554853, -0.08586947339648296
0.11190379466797663, 0.005694924236012132, -0.08641199483812445
0.10784871265585227, 0.00590723135499953, -0.08606560216097853
0.10842815081025975, 0.006236369079636232, -0.07923720061329448
0.10777722615774893, 0.006871382823323864, -0.07059903993817364
0.1299854996938504, 0.0066983007562370425, -0.07213979926922119
0.12311388849356932, 0.00585482382754378, -0.081610871684899
0.11664207755771969, 0.006269397023141108, -0.07356453631802465
0.12563228256041734, 0.006477112314656227, -0.07169406027900443
0.1185445911766514, 0.007075561780998744, -0.0611538253499347
0.14331673163591863, 0.008619089456704393, -0.058229607221997715
0.09656658994717846, 0.00808960331591405, -0.07036898662205508
0.09144318743513756, 0.008695236794154895, -0.07344885789835529
0.08470350455955075, 0.009745817991466236, -0.07686743709950822
0.09079773052850708, 0.007681828928569213, -0.08644929664418839
0.07625450074306905, 0.012026851324416277, -0.07596045077642102
0.09216178420723625, 0.007772594374001076, -0.081180479286797
0.06613254932090103, 0.012373609229275549, -0.08611367255633921
0.07429328635565752, 0.012597147461554733, -0.07512625357133036
0.06697682646759635, 0.01374568723136417, -0.0768447286812732
0.06279170746455395, 0.014043721347595427, -0.07780842139859939
0.025347310881282215, 0.016938906090855254, -0.06921548928423671
0.021846922472850305, 0.012683910804039487, -0.07868971605466096
0.038985299743241164, 0.01449213641517552, -0.07701149879508248
0.06151275709932148, 0.015230878355570666, -0.07365943454465196
0.043361165185034814, 0.01182347764006976, -0.09399256372888262
0.04301090826349813, 0.013047090168000184, -0.08446672630545851
0.03646625945159092, 0.013424467805639648, -0.08002465809114671
0.003743520997299893, 0.009421998920137592, -0.08588080654119809
0.03970835742273742, 0.011905897223540823, -0.09042359560316077
0.029090130793780034, 0.011190887830921556, -0.08747209983100368
-0.007700851976932581, 0.01264905327894661, -0.07630348875242073
-0.012407257854457586, 0.018095451700835628, -0.06608516338458517
-0.005216875266095198, 0.009762997107307072, -0.0843737598235231
0.012049852765049676, 0.011488361733285959, -0.0802958873208664
0.007339474196125553, 0.008969557406287815, -0.08929304304994144
-0.016865464219317405, 0.00782723703310265, -0.09274696095767682
-0.009976923687957714, 0.013967376977758747, -0.07343878751716013
-0.020036593704128126, 0.011591356059395062, -0.07994215872562214
-0.03930340813633471, 0.012937051038980771, -0.0781979858685071
-0.026997098550102922, 0.014576571316626655, -0.07324981294976901
-0.033095303652213526, 0.010607814431319768, -0.08469980488871687
-0.023416863424201816, 0.01795528519301347, -0.06671343177511138
-0.03260072660283805, 0.014954188189349295, -0.07279680398393563
-0.04703033915925768, 0.01439075539761022, -0.07466798150506793
-0.061736379002928665, 0.011830997171104772, -0.0824559839480386
-0.078152222921109, 0.009148337191763714, -0.09073075404361135
-0.06565829455847742, 0.009701998199317928, -0.09180640023239735
-0.08222055803200468, 0.014269734634401348, -0.06582182459636997
-0.049777412714651886, 0.015269316307477125, -0.07201200349064253
-0.07652830802889204, 0.012182645191685132, -0.07689937656119278
-0.05734697169851609, 0.01193423019772385, -0.08236573796578973
-0.05985156652210315, 0.01452037384677664, -0.07277753942782422
-0.05197387039851817, 0.017376701807482374, -0.06652203245131413
-0.08615975723822863, 0.008842098190969141, -0.08823644979208187
-0.10018392565922565, 0.0091761738703464, -0.07640848881355056
-0.11638517936527795, 0.0068334542829651115, -0.07881805407506465
-0.11475897289620723, 0.008770041491598516, -0.06606485747987932
-0.11278520167326272, 0.00958573975352553, -0.058731299415862914
-0.08777003036643605, 0.012221340019656024, -0.07007604587205225
-0.11011239617167089, 0.0068921797704207845, -0.0826935624017181
-0.10535151574845661, 0.01015240061172385, -0.06402962537039082
-0.09666433670531778, 0.009707605601437455, -0.07632318051632064
-0.12802415961946223, 0.005762438707579388, -0.07923534785335971
-0.13119205311506688, 0.006435467998343798, -0.07387940245734952
-0.16904695889717336, 0.008325085047483187, -0.07737093734985445
-0.1550483151072243, 0.005754494696135251, -0.07954673039023917
-0.17066893575863648, 0.009844158230672563, -0.06776515290047035
-0.17093641909556131, 0.010175975018981572, -0.0631486692252439
-0.12463913529595154, 0.00799036946211079, -0.06504874986823142
-0.14435117087388716, 0.005242110632556424, -0.07936588782284971
-0.14674344659638547, 0.0070899686007124055, -0.06732323895244915
-0.15591024954003235, 0.008105371622365621, -0.0627585353121831
-0.13599735483566253, 0.007667780794011934, -0.061075743718377005
-0.1420626775680897, 0.007530129210211787, -0.06275080540171928
-0.18731879538789548, 0.013957928765492605, -0.08507755446497736
-0.17051694645414678, 0.007759383088365122, -0.08330252351276876
-0.21870778820574302, 0.03469837517671392, -0.11659534222795778
-0.2094334840134809, 0.0274380445106197, -0.09582711115512241
-0.19589863651842118, 0.018150591108507245, -0.08974084368883152
-0.20911993264245698, 0.02832404494995853, -0.0827881893794065
-0.212223127791833, 0.03053722303634842, -0.09241634242411675
-0.2024088370232003, 0.022733937828119586, -0.08331350349619734
-0.16193821586677978, 0.0070969736204783435, -0.07600221263718354
-0.18758112683484243, 0.014246601719954503, -0.0832853665230894
-0.19330903766971475, 0.017257490799867957, -0.08077926362554089
-0.18563008853801552, 0.014085553217136327, -0.07520898471938048
-0.17441255989903703, 0.010611347785972076, -0.06981166218704837
-0.17583622214714287, 0.011324473958775085, -0.0672872310148817
0.204128882708848, 0.01694579760589728, 0.17798869692204572
0.20844581216209734, 0.01899589380835187, 0.17897834345125746
0.1889049310995209, 0.011047819513548184, 0.17267992033598026
0.19726476038831145, 0.014239175668784389, 0.18764484818363042
0.22180690088956478, 0.027855477682700178, 0.19325363388904598
0.20426191920968287, 0.016969472554790834, 0.18238224656653104
0.2008881944517077, 0.01563225994642071, 0.18693433941012105
0.20926993903115954, 0.01969583396938977, 0.1919557171766224
0.22367691041207505, 0.029245061484287585, 0.20451195489149582
0.1759191527766318, 0.007429136250798464, 0.17011719286182303
0.16746468633264128, 0.005578425821947839, 0.17049014874032287
0.15535138090406947, 0.004399860288079372, 0.1817865164942473
0.15960958157250998, 0.0059588252569904385, 0.19054953378185802
0.1620357353050007, 0.007962849402031827, 0.19853123079362509
0.16905808210401135, 0.005778494460354729, 0.17817616890611676
0.167146473976148, 0.007004269447331528, 0.19196268790847945
0.18051751178409509, 0.008748183962642556, 0.18467794263024373
0.17038347872871584, 0.006518208781860907, 0.18548736962990192
0.13246298376536844, 0.004180147954475102, 0.17016050071746416
0.12507579905875948, 0.004745805307794964, 0.17006484343344572
0.11568316472951465, 0.005662242173920263, 0.17119070616530008
0.1144174864420108, 0.008025185188081322, 0.18796451670118902
0.1082062048172029, 0.009560772212132659, 0.19105150545496058
0.10272955798744098, 0.009611162101503704, 0.18861049244138517
0.11125352670904178, 0.012539214197336565, 0.2023715758743062
0.14958064026366308, 0.006052113832000017, 0.19233891090104255
0.12649052563253108, 0.005690820879983006, 0.18199352092132437
0.10723393611790276, 0.007470693051299607, 0.1800817753052567
0.12841336148469815, 0.010768676197258943, 0.20348316520892795
0.14831286644046487, 0.007850832100595949, 0.19927373665345144
0.12582993704636897, 0.007041607354728229, 0.1892923713528996
0.07054249204195419, 0.014389578485382226, 0.1755048482462362
0.06712712858372599, 0.015340900490696318, 0.19689474489718212
0.06093086565317949, 0.013650410632605211, 0.19338795981946194
0.10589820369924292, 0.011239370929675443, 0.19625805700137378
0.08688205936750827, 0.011623258142077942, 0.1889499101051269
0.0786385291878634, 0.014423815002334445, 0.18644134658496234
0.08388207399942768, 0.01058819349757641, 0.182236029429965
0.08845827314653254, 0.008994797301335533, 0.17464117140138674
0.01405416942741618, 0.007798138442363316, 0.18747172558346473
0.020028870817469218, 0.011017066535677723, 0.19566195931579938
0.06392616222918542, 0.01226523483168407, 0.1869625014203328
0.0275675782353573, 0.009115871714955865, 0.1877525882848866
0.039467825130570636, 0.010764425797794129, 0.18920437466111614
0.06057677779968234, 0.011241469798405353, 0.18302711051197004
0.037602280415172315, 0.007459630616746563, 0.17470380687703144
0.04360161881814782, 0.0083408493001168, 0.17542372779483784
0.047891103941256084, 0.00847146872082005, 0.1721074003187222
0.025662183559634493, 0.010058733256049961, 0.19161060037919972
0.010488360858331575, 0.005479054368864898, 0.1788871269262675
0.02560016523638909, 0.006711275678153126, 0.17840086975526787
0.034017518859219456, 0.008422657194205357, 0.18251091684400894
0.01652721124352048, 0.005290982031237897, 0.17589903247763392
0.014937829734384428, 0.004351975873624427, 0.1682037104956053
0.0008412388595209941, 0.006206269719134277, 0.18479992532985684
-0.0022586416440707373, 0.011928163806286585, 0.2005742882876556
-0.02499691782673643, 0.009472665623534392, 0.19348349220284952
0.0035540717058186637, 0.0068644956610236915, 0.1864447291931668
-0.0005271689933021702, 0.00418713368721148, 0.17509629458979742
0.007421021353013354, 0.005608154347996797, 0.18044052062326166
-0.00710184064381664, 0.005971213356769293, 0.18370863340334592
-0.011040311795505449, 0.00840147758220951, 0.19166577259851136
-0.021663974817464487, 0.0050584126684831785, 0.17589227139649297
-0.03387053846203311, 0.005385066311499211, 0.166272384477088
-0.03732707630468022, 0.007666431547730326, 0.18389823977993078
-0.019633287238232183, 0.008345702265499558, 0.19046880379223663
-0.028680457629342876, 0.006283173658937526, 0.1801827088363738
-0.044483338512461175, 0.0076029712152788365, 0.17913621122328346
-0.05138729737973327, 0.010163287994577367, 0.1893317793451217
-0.04549695074435285, 0.009463089286909039, 0.18833130160644734
-0.05970181598084456, 0.010173373447221459, 0.18655673947610582
-0.054262312163229826, 0.007784449825212276, 0.1683212022783664
-0.06358397879167138, 0.008791278513217921, 0.1703751528674129
-0.07073599080151409, 0.010412062603463694, 0.18369817797568533
-0.07198835588343029, 0.010475837884029966, 0.18368387662499133
-0.08248830325983705, 0.010090946118570872, 0.180441008721454
-0.08153998415957042, 0.013569436246961693, 0.20006111377458308
-0.06399766318539929, 0.010214124796714578, 0.1812090606085079
-0.0679775142056131, 0.014286082932877548, 0.1997652940557515
-0.10576741443148657, 0.008527640394243426, 0.18358410641288875
-0.09360200319640415, 0.009702496011799504, 0.18296983893468638
-0.10746113468565656, 0.007454805174079029, 0.17255660556661828
-0.1032077147207976, 0.008074916036711163, 0.1761588522883619
-0.12711470830534652, 0.006432539233841015, 0.18722247048401092
-0.1287794068674163, 0.00830190131495211, 0.1984595758016639
-0.09462998805884514, 0.010415728441718279, 0.1887284471580367
-0.11446866830708739, 0.008247419426594368, 0.18913879715249265
-0.11742620466320557, 0.00952803385843931, 0.197681399061161
-0.10732149754686221, 0.010212555866917841, 0.19513952406888557
-0.09286523422058701, 0.011925155999379102, 0.1958192428254429
-0.15164427969366578, 0.00338842969792222, 0.18037658046471303
-0.11649013949269349, 0.0064959819246727096, 0.17313234600293304
-0.1795833868013429, 0.0034955986396151733, 0.176419281973709
-0.1612495146393845, 0.002823754224415472, 0.17751796699794867
-0.1473702123256653, 0.0033795288119995953, 0.1733841507265662
-0.17504469231194747, 0.003501135066076972, 0.18329314201680202
-0.17977289795670257, 0.0060196118056341855, 0.19724353928588428
-0.11844750073126113, 0.006690313390612386, 0.1803458686768635
-0.14644402252790448, 0.003642748378033839, 0.17842325260669506
-0.14112494439527082, 0.004453299014197533, 0.18374293941535494
-0.16327596418147589, 0.004707953386336235, 0.19364036079526303
-0.14029064644136469, 0.0056592994584082875, 0.19146269970862065
-0.12081676904632882, 0.007977454800475011, 0.19212646568468733
-0.19484503741022552, 0.008429701268503046, 0.16668438638352484
-0.1845150358757367, 0.004384383789891068, 0.17484234512963745
-0.21362355996444743, 0.02033200556682152, 0.18137133438933906
-0.2003282414456421, 0.011376992824866827, 0.16601631442811582
-0.206938657252985, 0.014475940811524306, 0.18489442001653608
-0.21669591070189792, 0.02234640128544641, 0.19531486534408496
-0.20373860030347715, 0.013338445695627282, 0.19407469804173333
-0.17427970160298167, 0.0032692359302802024, 0.1816128216070988
-0.1841864706713224, 0.00438720102242584, 0.1785098138460562
-0.19193426973922992, 0.00860120623981166, 0.19628228992487273
-0.18663428496559786, 0.005664392632144212, 0.18718612835395984
-0.18830515236913323, 0.006838392122862, 0.19246355611705124
0.13613444400845431, 0.011410046746129849, 0.2078837457598506
0.13836694373541392, 0.013970491998470093, 0.21541523030895832
0.11580099631113311, 0.010171307411010699, 0.1969053131542685
0.11841237995537655, 0.015049537348662082, 0.21203542051414973
0.11404116698823161, 0.013276957332311894, 0.2055951130969036
0.10785070404074086, 0.017375809933041005, 0.21421791305797525
0.10877821329231324, 0.02189840398567059, 0.22428150175633996
0.1295373885508846, 0.022346319684766865, 0.2302273819383086
0.13364471308555081, 0.014928783766599101, 0.2165199706354216
0.12621588362142983, 0.018192203158632583, 0.22177778004601864
0.12363580840233226, 0.02574336745187593, 0.233811038418265
0.1446593214125914, 0.020957729422531417, 0.2311216310516639
0.12634358143012578, 0.006357292103786842, 0.12491152106413943
0.13139149036400025, 0.005360849465630889, 0.13928380847372793
0.11627724542397341, 0.006670020684429926, 0.12679758156157933
0.10027002398218043, 0.008531335889999273, 0.125245583221949
0.10539435339845465, 0.00691026350973206, 0.1373925590014768
0.09681568178436652, 0.007805991607863385, 0.13826374418341178
0.09564761782334323, 0.008096613717595449, 0.17349927404510318
0.1154692304443175, 0.00638527090640343, 0.17912511795653108
0.09879272871369983, 0.007097893336341542, 0.14664338369459642
0.10820910312534862, 0.006193228465323849, 0.16608852837251362
0.13477847587339958, 0.004461937562779051, 0.1536224948894098
0.11585092123835178, 0.005744818708236948, 0.14418735845992028
0.12155921578352463, 0.005052812681465083, 0.15414602046334502
0.10947899238288841, 0.0059575683009873886, 0.16191834837752425
0.12045675479017193, 0.005017890899351082, 0.1633566004253254
0.11307020950833793, 0.005832665542723003, 0.1478157994719425
0.13898233432866508, 0.004071461701015031, 0.1752410337608801
0.12789240512037708, 0.004468688447152126, 0.1636247280248623
0.12825955784233026, 0.004582586070403309, 0.1553270055851109
0.10094041291958583, 0.010791654857619007, 0.09445613607405959
0.1063904054887303, 0.007369041433843437, 0.1291690592363263
0.09667039806425827, 0.010312820818154909, 0.11538975790851416
0.1062143601229921, 0.008712881283264817, 0.11301916881659684
0.12136159705896288, 0.0061725446622166325, 0.1313396667947681
0.11274046243190566, 0.008051166420682862, 0.10815516105451863
0.1191124634106993, 0.007240042398112998, 0.11459937816891895
0.11543339279814888, 0.007765924494568481, 0.10476190099082591
0.11652980213624212, 0.007593739511323497, 0.10853608698401129
0.10723550890626395, 0.008978849755713714, 0.08706329327937906
0.11938489872325174, 0.006921951028061035, 0.0960967391982462
0.12011072207382198, 0.006556683949001772, 0.09231940724375105
0.11245074763311745, 0.006361840892789593, 0.05386460386392254
0.11459663792466442, 0.005595531917224879, 0.039526697480598116
0.09431105854604258, 0.012736806579483695, 0.05217968159967301
0.10358912608281651, 0.009076332619588994, 0.04915172367629478
0.10461901927659636, 0.00862622108654796, 0.03488341481100594
0.1000570496221119, 0.010801677693494566, 0.07429216214762985
0.0932115698565783, 0.013521052667140885, 0.07663964831009788
0.09524669721511493, 0.012568922657435012, 0.06664655316382127
0.12566977143657646, 0.0035749267616378318, 0.056312752194684595
0.1162702549692939, 0.005359629758864365, 0.05433449352568937
0.10418656942785956, 0.009682926626826474, 0.07933517926819764
0.11398234198826473, 0.0076517583469422265, 0.09150548635687705
0.11703937548434228, 0.006585810635759396, 0.08459656828914516
0.12127192139255157, 0.0061251900018807655, 0.09009213773851589
0.1250463642182024, 0.004474339875936109, 0.07404981580466914
0.12059929819519491, 0.00529213994871711, 0.07621563423252957
0.09789367825112719, 0.011221013818822683, 0.023665083514394725
0.10075426660642325, 0.010048117398060533, 0.02781440734640133
0.09903273750851475, 0.010817932592626481, 0.017120918652843185
0.10786653693532108, 0.007623169742589491, 0.02146317006183133
0.1255153245534502, 0.003309959657297104, 0.042213647936537896
0.11680422575123775, 0.005047468883601952, 0.0266707642519778
0.10672455407033385, 0.00826966835895964, 0.010408160257905077
0.12110543620232173, 0.0041013505055827095, 0.024999722334991425
0.10988239717729667, 0.007403676071298646, 0.005212230326298497
0.12301039645355882, 0.004025002768744471, 0.014621452173232692
0.1145892086188321, 0.006732942364346762, -0.007108749740052905
0.12279631079624431, 0.005239513854626171, -0.010307639191073099
0.11349309891531728, 0.00613125283715474, 0.015881085832449897
0.09929740335709647, 0.0109669971184792, 0.0053869692983984675
0.1059869337382044, 0.00899457546402497, -0.003721872023317375
0.10155121432568304, 0.010440241145949625, -0.0031724357992535925
0.11568035243231568, 0.006602208844083714, -0.010176323183301146
0.10941747883256012, 0.007568554162455188, -0.0605521939526161
0.11262001285413689, 0.007747840275984512, -0.05431677296950389
0.09258651739480331, 0.014076486009451751, -0.012346071187809593
0.09597399874527385, 0.012124967229168879, -0.039674301263642506
0.11097576983563893, 0.008555312692264819, -0.03934591404109137
0.10119661245188262, 0.010843167969216739, -0.03081207606684359
0.11450335687401034, 0.00762341393853693, -0.02385231521925514
0.11020151701073724, 0.008150853964923464, -0.016095996846060466
0.12715493009651052, 0.005619905383451248, -0.022888015318353085
0.1267560459938437, 0.00670055716260648, -0.03438062378747982
0.10774771886988271, 0.007925657991165213, -0.05802949469921606
0.1111221028692861, 0.00833149786203417, -0.04807836013920691
0.11901055569362969, 0.007544369350676061, -0.03905215669408264
0.11518732537002496, 0.007405925373129294, -0.05548673050104916
0.13103860556673466, 0.007454345357732952, -0.04948869382131822
0.12755910086752836, 0.00669207820020435, -0.12916570186624673
0.11004146165966334, 0.008103309156221709, -0.13500994116439066
0.0995158041864805, 0.009110004616283567, -0.1356204811718224
0.10261200358823523, 0.006408977240530009, -0.12206284897959441
0.11053908169180876, 0.005534555676191363, -0.11868232814149673
0.09309897481028245, 0.0071068770135479615, -0.1165967207837465
0.10674059308958339, 0.0054312729581938515, -0.10791675488126207
0.10882312242058936, 0.0054145979579468895, -0.09981046972711137
0.11346856328799587, 0.005440947347361358, -0.11901651876500706
0.12998693050294896, 0.0057007964025484565, -0.11961530962761055
0.11629314207710177, 0.005102344882610935, -0.11081202297973645
0.12388708084567457, 0.005141752980555703, -0.11539095611345357
0.11925971202827537, 0.005173029612234695, -0.09709214305256583
0.1308354647130167, 0.00524338401485348, -0.10781356363075612
0.13092656856451584, 0.005344871464240324, -0.09954841799569711
0.11657888144680167, 0.005262831079036153, -0.09459974512661977
0.13734582004770657, 0.025374962769217333, -0.16701608725826508
0.13001288375962966, 0.03622267808110003, -0.17682466335832148
0.12385843221601399, 0.026328209484616883, -0.16767544314548274
0.11373786433705901, 0.021853467387191537, -0.16204256055432537
0.11285932521149777, 0.022753928213086562, -0.1629653400350928
0.10467052944882066, 0.02008569763232465, -0.15880515737932582
0.11086570253039733, 0.011801443405952225, -0.14591696853771924
0.11086493112544228, 0.017852978811246076, -0.15656485824528593
0.12411745386376355, 0.017886444154281436, -0.15723705227479667
0.10692835109001866, 0.012438583162194823, -0.14688339399486677
0.12260967149572317, 0.011152888746058628, -0.14482154877851794
0.10684705152169176, 0.008181105737566136, -0.13461590667997445
0.12310175737514648, 0.012645597824165276, -0.14822590043336836
0.11793320310667008, 0.007888260803603742, -0.1350207227617719
-0.15640939758899453, 0.00737486797537139, 0.20545630422638947
-0.13964763373009487, 0.00893697469763628, 0.20633563814410932
-0.1528863582451672, 0.005898755207363294, 0.19775263342525579
-0.17923553127967282, 0.0064546742804598815, 0.19945579792182988
-0.17722515902199193, 0.008824048148485635, 0.20988138167683149
-0.14552124642440967, 0.007460362966812989, 0.20259549435459773
-0.17746457387554693, 0.011140513638983312, 0.21739089515749893
-0.16320013214161336, 0.01228805797813685, 0.22203830904155666
-0.16802190998695204, 0.017023036001229966, 0.2323329493728571
-0.1680299053591637, 0.01257879366234843, 0.22277331970322617
-0.1420542369504403, 0.011939575571118844, 0.2179133589428966
-0.17047678048897072, 0.014428422883549747, 0.22702134552497089
-0.161703159179874, 0.018026394071832284, 0.2344830670090523
-0.14356779700658828, 0.015088246428477062, 0.22674528073320294
-0.15480872093648432, 0.021205460030679683, 0.23876688106714047
-0.14587831300163923, 0.006892683093600451, 0.13171127026669685
-0.1444677480629516, 0.007641212386681897, 0.12155803701363117
-0.1658970222469152, 0.008111105940661535, 0.127398176973687
-0.15684415420692358, 0.0061725849895801765, 0.13872147101945814
-0.17210720941178304, 0.00822460746144835, 0.13245604781956785
-0.16875267147059736, 0.005740457466020322, 0.14536578631495967
-0.1782191774629208, 0.0034290546563598276, 0.17052976325425134
-0.17027368577568347, 0.004583886780736872, 0.15328664828889396
-0.1424045815119647, 0.006582826384161949, 0.1351319080375477
-0.15256944290950053, 0.0071255993063230995, 0.12981453821449754
-0.13674959879496132, 0.0063185063424560225, 0.14014586567665202
-0.14187207523065737, 0.005612975272799437, 0.14493877783858208
-0.15854983868647807, 0.005044543676320994, 0.14761993801928083
-0.1654056202238536, 0.004227417228224423, 0.15356306086468843
-0.158390828742822, 0.0030001666227675765, 0.16497293730717077
-0.14612428213497172, 0.004286805466177517, 0.15636450518268938
-0.1332356298486618, 0.0053888883336574225, 0.15365945833273198
-0.13738428839888372, 0.004318495001645996, 0.16442940576694867
-0.14519834069727056, 0.0043077902044900305, 0.09441526715788329
-0.1520230666386174, 0.006115440407988131, 0.10231793592939481
-0.15596990182555606, 0.0073296531572020224, 0.12891162658336797
-0.15970515616671094, 0.00814675985896597, 0.11810164345125716
-0.15303146900343145, 0.0072450492326706604, 0.10893807929889207
-0.14085516871115997, 0.007261138812011233, 0.12852676116126494
-0.14255354880780513, 0.00776503886954037, 0.11845296220430897
-0.13690669755009893, 0.007575035808075422, 0.11362705736949816
-0.1257377684848261, 0.007746549905086062, 0.1086919481720498
-0.14573040078889898, 0.005237715108582563, 0.09889345941708069
-0.13337893561367206, 0.0060391019698842535, 0.10109167278057178
-0.13547329298638933, 0.0032503061687467285, 0.08752196989497753
-0.114812751255238, 0.0037655494479088124, 0.04311034279425813
-0.12350021829059243, 0.002336058816871953, 0.061229733339573114
-0.1429782711033709, 0.00024146464081324152, 0.041924108433614354
-0.16070844371025603, 0.0021653703815073568, 0.053004997698050955
-0.13550614972762404, 0.0004564580856538152, 0.04638452092468072
-0.13467083882918723, 0.0006639175498591857, 0.05194441190158742
-0.16196031480257267, 0.002831896521975333, 0.06652490820043216
-0.14395011357097598, 0.0006638451389756812, 0.061641139413333226
-0.13970326230288943, 0.001391785125283932, 0.0739203991411474
-0.1397089658090076, 0.002187627729340662, 0.08154891960810384
-0.13319936121701387, 0.0007748636084898978, 0.050112283183375246
-0.12260864440808748, 0.002738594351939289, 0.0657917049887513
-0.14724014440282984, 0.0008636908102979744, 0.06467670955736493
-0.14720115053864255, 0.002828992393185626, 0.08630812656953389
-0.13116341394258557, 0.002956971317919513, 0.08251615316257281
-0.15029856678714676, 0.001518661553658953, 0.07473315075123259
-0.12771294469589087, 0.0027437038840920046, 0.07722732260863449
-0.11827482863647484, 0.004923850550892618, 0.08347990969588101
-0.135789163694422, 0.0018213108701187444, -0.0039667763345868304
-0.15710657425500402, 0.0028022330250829877, -0.005364240623069627
-0.1473198964094862, 0.00211570072589271, -0.010530240412886237
-0.1270245454084412, 0.004255424393732859, -0.01984148465777031
-0.14456755904732674, 0.0017062169339449745, -0.00490748807447684
-0.13751220512004347, 0.0016158543244503567, -0.0036252676362533414
-0.15589706056648417, 0.0013929130828258562, 0.023000543273123716
-0.14217194295000515, 0.0007498735619385213, 0.012285173364331185
-0.1567832730655159, 0.0013617762242983324, 0.03908413972660145
-0.14104896240664933, 0.0003505976166629164, 0.02550051030631539
-0.13350460714824117, 0.0016919307641946129, 0.0015687271716107185
-0.14962188516635241, 0.0010203020642757551, 0.006018216703919638
-0.13048415188957918, 0.0016746450314113314, 0.008869534708759138
-0.12828600581708244, 0.0019249656703172902, 0.008964993725677611
-0.14345081699622833, 0.0003915230217807476, 0.024277112712380693
-0.13154366812697568, 0.000982390471106626, 0.027055721817793144
-0.14984088124061373, 0.0003019581129035743, 0.04452725397524016
-0.12255734365176771, 0.002545037121442077, 0.015677481509225804
-0.13474748448399088, 0.000642711742565628, 0.025719821218861762
-0.11892942287285342, 0.0029929205950406526, 0.028822620941766932
-0.13498967860768704, 0.00048523804782745004, 0.03693245382400254
-0.14844523466896242, 0.007727468862120769, -0.06002222001889607
-0.1518842697051062, 0.007867407194500967, -0.05279882026083267
-0.1593511459611088, 0.004092342219078622, -0.017583668332926124
-0.16468146850558327, 0.006702501863032791, -0.03377928641876008
-0.1415280336833049, 0.0053810565390372996, -0.03553109579403849
-0.1319957821039269, 0.0058798413670181435, -0.03454573995126402
-0.1488612481677318, 0.0041582905354894326, -0.027525006821264058
-0.14918287251898935, 0.0029925006438624203, -0.018990647015284357
-0.12833343454667887, 0.00419485695860998, -0.020573209883230366
-0.13786661742134113, 0.004922050639363049, -0.031580370208207385
-0.12532655892407277, 0.005143131347751669, -0.024576651015889732
-0.15878287197833327, 0.00845554296492967, -0.05560027076851267
-0.1536157830021297, 0.0073983264840436855, -0.046993750973103904
-0.13889089612759326, 0.006753387316722584, -0.04324248939746392
-0.13870198109643583, 0.006027198363944409, -0.038245767809375095
-0.12959965461484182, 0.007759527761419138, -0.045859149060285063
-0.13271997379331968, 0.00791813481707628, -0.051402122500559755
-0.13984300366515492, 0.0008316320475036344, -0.13568551442206359
-0.14814236321411892, 6.17738950044679e-05, -0.12303827357951677
-0.16164868677342478, 0.0022549512255756465, -0.13228949150038982
-0.1640894997874528, 0.0023823771050494546, -0.11790139128544355
-0.16955487312237433, 0.0043058925618211855, -0.10718470247807767
-0.15226952682721936, 0.0032056054182294682, -0.09304276746504504
-0.14773278803953113, 3.860112592651838e-05, -0.1237372311918718
-0.15443101351378927, 0.0007013040708224069, -0.12074487764486837
-0.1451697518122347, 0.0011093300925371819, -0.10633428057978182
-0.1543318495305515, 0.0038569332824815346, -0.09018598653470572
-0.14491347371292435, 0.0023720947332886537, -0.09669126822395534
-0.1382524739562292, 0.00436059996440988, -0.0846687983757227
-0.13360575289299872, 0.0030330971104707448, -0.09445083322302907
-0.15142791834180375, 0.018488281531146983, -0.17373902645923775
-0.14345551779969756, 0.009256066685313952, -0.1600731197751103
-0.15648985326567214, 0.013804494782536722, -0.1669874086353279
-0.158057401619579, 0.01268592750505396, -0.16507204359193722
-0.16736414067260943, 0.017061289644711364, -0.17008881010231572
-0.15973587040533146, 0.007536045053372853, -0.1543791969284066
-0.15839677918949666, 0.005464889539930157, -0.14895473098436202
-0.1561745546252723, 0.0011980305781245074, -0.12960771467875667
-0.15591065121285202, 0.0024008927673172184, -0.13861681631096173
-0.1392284322143593, 0.005732565676241387, -0.15249420284097276
-0.159327623067564, 0.010851425973627234, -0.16129971526253709
-0.15192671318401077, 0.0019386410653265062, -0.1385000126475464
-0.1523397521804511, 0.006772690179836989, -0.154562890693491
-0.13709508536059306, 0.0001262738859222747, -0.12539610943095983
-0.1400504798808397, 0.0031092141674217387, -0.14557097793051402
0.19968878290272402, 0.02314792351926878, 0.033423034483744125
0.20495142575109032, 0.027655660144323743, 0.06184157765725704
0.18808131036180029, 0.016496853911220404, 0.034297730071014415
0.1869615958173454, 0.015916215441382758, 0.034746251814104664
0.18024123912169293, 0.013214423218330815, 0.06139354501012394
0.1761434849348094, 0.011342256334880282, 0.03399115544621233
0.1755014646593999, 0.011205688363791716, 0.053707084166601665
0.18221536214156464, 0.014616881989002527, 0.08473705015792743
0.17634965867184096, 0.011713980239202717, 0.06441274540125475
0.1989786074165521, 0.02273428004966028, 0.07349388563781638
0.18940995305791097, 0.017437808789766505, 0.07173238357542894
0.1840646561000981, 0.014727662277066789, 0.0545975863218231
0.18079431944178379, 0.013483719851737803, 0.06356655415745784
0.19295400734408255, 0.01912355761680895, 0.06341566440946919
0.20516289988551467, 0.02775192572000645, 0.06987943531120946
0.12608593643639637, 0.0032025947567419734, 0.040647741120366336
0.12437730806895239, 0.0036281681292334115, 0.05088915736894945
0.13501293366013892, 0.002577155115880967, 0.049824548912278645
0.1375741711951589, 0.0026665373034427367, 0.05505563764774604
0.12435509695991538, 0.003990907907212215, 0.06260263551599404
0.14769778553994656, 0.0033208667178368243, 0.05062887421536263
0.13224538900943142, 0.003222388673603435, 0.06541105895277499
0.14734463926276853, 0.003799023986851475, 0.06527357310158892
0.15235735309667575, 0.005174707366850468, 0.07509873311680736
0.15969467669135473, 0.007311551009446737, 0.08385573353421558
0.15269890367314698, 0.005588214374169306, 0.07995666250578133
0.14774502356660976, 0.0031588089327848545, 0.03443238608015734
0.14347197879700768, 0.00283966004622242, 0.04874088705616192
0.15590961685458513, 0.005218366783557712, 0.05992860208433945
0.1709837158414379, 0.01005045447694115, 0.07112588872601777
0.1669450066149517, 0.008159637992844887, 0.05283129995826621
0.15835450169094323, 0.005557058302870392, 0.05194762962617785
0.15178507031958155, 0.004243442528015319, 0.05583577735425606
0.1564102167524565, 0.0049787455511911835, 0.04401061044792369
0.1598328271420256, 0.0058445806968050185, 0.033713622595789056
0.07123733054566306, 0.02412024077509211, 0.07608176274945637
0.094322015520511, 0.013140769883047142, 0.08620239487346745
0.08829221459012844, 0.015578079212406514, 0.06785029269333646
0.07931323673094305, 0.020232934909663488, 0.06974290051769375
0.08335356137159561, 0.01805142446574482, 0.0669948084171563
0.09064772372100338, 0.014445104317441828, 0.06747321471146697
0.09472406811334996, 0.012595894329821574, 0.055950852048885905
0.0797511545390778, 0.020075232794112864, 0.03384730927072131
0.07045362795241866, 0.024456402880765164, 0.06298614049439064
0.07578738364399334, 0.02211110316140712, 0.066395506837428
0.07470690364658791, 0.02270070396953113, 0.05831014271220371
0.0678633518607414, 0.02518874613678862, 0.04113782309916496
0.06772629741540719, 0.025073320026799243, 0.059633974691284564
0.056533022250047915, 0.022158346720307004, 0.04992191456833808
0.049362330683263275, 0.019687642143666712, 0.06468261457062785
