-0.23893440887309858, 0.23704696972421824, -0.3775158103379413
0.23733854343812605, 0.2912419690653981, -0.10423592391565922
0.2356297996747891, 0.2935183988650827, -0.15807973356391825
0.2330175830436142, 0.29463251998480905, -0.1537017294446564
0.23850219211701898, 0.29248172470741274, -0.20496441511569885
0.23761677189177915, 0.2979580488177489, -0.23936028138522336
0.2457793672208755, 0.29398753514602416, -0.279029043669427
0.2447491562928459, 0.2968796687860752, -0.3120481148187553
0.2420646738916496, 0.2996186555060756, -0.32480637449786953
0.24146160275333922, 0.2985689840189322, -0.3635263226945091
0.2262599943553429, 0.28151813740717613, -0.3877534873397968
0.2051290260267645, 0.2781742739420023, -0.39283771826119124
0.17894129801075184, 0.27735860636465803, -0.3937075277504631
0.1593951074290173, 0.2757991712558103, -0.39388760290020086
0.1378725129399695, 0.275188093900831, -0.3930393329069968
0.10464274895797954, 0.2669915235603611, -0.3918356697675028
0.0803025511885684, 0.26422238116124047, -0.3887060322092045
0.06896871157383123, 0.2725179611266316, -0.38690694976065526
0.03717539702780215, 0.2724166257019809, -0.3847198466602093
0.1273494959732518, 0.3076081074815739, -0.10162156467969838
0.1412358557212969, 0.31211676760222445, -0.10368323036877734
0.12302285203646912, 0.30991543181054365, -0.11064705634867517
0.12911923630900013, 0.31144196532174473, -0.11005610293104595
0.11814184450394818, 0.31064078599354095, -0.132677900316612
0.11397786629563617, 0.3125002916011873, -0.15776101453510463
0.12748807581076396, 0.3132095413478539, -0.13394785564465014
0.12452049412623532, 0.3152728432121898, -0.15417342217312385
0.13219949931184277, 0.31679704877123616, -0.14902783551497167
0.15004939533832162, 0.31797581908949457, -0.1388397898784057
0.14468333195369182, 0.31958399257086323, -0.18432132205453305
0.143067106577123, 0.3195469527094994, -0.16424659818809786
0.14247593092272828, 0.319079135379954, -0.18883101144449999
0.1381741079392951, 0.3179924824185412, -0.19544294273888219
0.13283377834142446, 0.31660982590503667, -0.2012399026798069
0.1227732284161453, 0.3154383910086222, -0.16939856346285825
0.11288530567694897, 0.31196439537431436, -0.18076229651230225
0.12327775560725587, 0.3097928087818133, -0.22481515190122903
0.12127274104927613, 0.31268933971073387, -0.2076634105470522
0.12900221296714293, 0.31576457106572836, -0.20102032610855142
0.11174765963859813, 0.30605236609433406, -0.2205554163380837
0.11315240375273337, 0.29478556559354907, -0.26160743059342073
0.13661267855908613, 0.30317041344076956, -0.26719537312572494
0.1270310485725289, 0.2999186066422603, -0.2608698679223156
0.13998799395072542, 0.3144483259558388, -0.22394236713341942
0.13901612335708627, 0.3108323611937488, -0.2393279818692656
0.1259144909718986, 0.3019485036577448, -0.2538952584519504
0.12226687156781005, 0.3064356437440352, -0.2378618177344105
0.11703720395864936, 0.30117761336341026, -0.2457021381620529
0.11525912651067038, 0.30940293679908204, -0.31119289266098454
0.13961497207585746, 0.3154147246777548, -0.31397029051850217
0.1417581059317965, 0.313515243596912, -0.2897763697840993
0.14194085827926317, 0.31010751696687755, -0.2792310179264076
0.11968708537877802, 0.30827721480720005, -0.2943962374194358
0.14160412295157135, 0.3164208530675029, -0.3057358008485311
0.13577025531214662, 0.31304042394676884, -0.29415449856821374
0.12961904839011074, 0.30574741120375826, -0.2752641971695279
0.11050870635460418, 0.2989872486548323, -0.27673837260084394
0.1374073615410986, 0.3162926631364118, -0.34745036082009595
0.13819340083545079, 0.31760125510843373, -0.3354082036028745
0.15172264178557374, 0.32017030849304795, -0.32180344451684995
0.11645935658323463, 0.3115459624211472, -0.33914390294518576
0.14065364956493157, 0.3176732587866874, -0.3422158437681484
0.1352953425766627, 0.3167601032255474, -0.32378705493348503
0.12805172392705064, 0.31506618237601747, -0.3335109539083223
0.13444561132160154, 0.28692750299537056, -0.3897289932656367
0.14520149560998644, 0.3046314637544293, -0.37908677380071615
0.14108689514050213, 0.28866292117792886, -0.3900520832162887
0.1656731131305937, 0.29835219767471394, -0.38508974807615004
0.1570232303995196, 0.30123499012037863, -0.3827661314248017
0.15018954425927772, 0.31279544500220013, -0.36759925673689875
0.14619017906484807, 0.31814215852681377, -0.3472618153083354
0.14056208595893926, 0.3062785237520795, -0.37630401304275174
0.1307886241956762, 0.31440739807082807, -0.34927299558038455
0.1299773689966901, 0.31232357077459516, -0.35885264837148423
0.13159208350888332, 0.3105079625234487, -0.3666905112843658
0.054560294708615134, 0.3202099026501021, -0.33650438713029673
0.031856210449281996, 0.32198997847654565, -0.3351305382833867
0.025321288027922006, 0.32376418303123516, -0.329969381740915
0.03440911071089156, 0.3247662481180366, -0.3118291128302262
0.014133829155074124, 0.3247880945887886, -0.3256816250199449
0.04334183392407737, 0.3225378572975851, -0.3286047810370484
0.04917102228577428, 0.32090454589443207, -0.3345085040785392
0.06488724291825645, 0.31835338570653376, -0.3412573973651463
0.06025111181404423, 0.31988743890155513, -0.3328272045005209
0.09384536614855024, 0.3126908909808598, -0.34080282938317585
0.08445749336396385, 0.3146556442259139, -0.3446446091448581
0.1103736526709373, 0.31026795743114854, -0.3435835894853249
0.0910839105731696, 0.31256976278189, -0.32780303724665316
0.10662384551095881, 0.31039964663006203, -0.3394252386947056
0.08712446435753146, 0.31326493540099587, -0.3243779407790282
0.16410081425897535, 0.32022676223626795, -0.3502601563938943
0.17142441009372086, 0.3203134932164639, -0.3435530874054256
0.18492291070682831, 0.3199742209082552, -0.3438897684351006
0.1512362682481582, 0.3202699275644934, -0.32759768121960897
0.19214283642130525, 0.32051055817230983, -0.32061553024420597
0.17169013328765786, 0.3218456738619268, -0.3215788066549909
0.19099953717349644, 0.31884983444273535, -0.3124002491981865
0.16635047735281627, 0.32208426564443293, -0.33093511136162873
0.2347306403760763, 0.3042045233379935, -0.3464813067523709
0.22849456990606806, 0.3079043448494855, -0.3432583760890453
0.20172625809906236, 0.31745358517315436, -0.3459627868184307
0.24455072135940428, 0.2912173508986914, -0.35238785101287806
0.24558195983434905, 0.29232827496333613, -0.3380685430847842
0.25154220344637296, 0.2758273181454319, -0.33343769414647023
0.22323937216592843, 0.3123373616137911, -0.3283808345560568
0.21054776340203235, 0.31674827335092726, -0.3267231148027374
0.22511128954438492, 0.3116254033471458, -0.33173823622333815
0.2368471628078644, 0.30425259826880724, -0.3230252794029632
0.20854325335399482, 0.31716490497718275, -0.32204977706071447
0.2394554484612044, 0.28520540735722366, -0.11369699095116273
0.2401084608489753, 0.28229716955806833, -0.11641459744394869
0.21851331580575145, 0.3051420669401904, -0.12133379606530023
0.2183352336562206, 0.3041487506473575, -0.13530348566431058
0.22522721745548518, 0.2997923399272635, -0.1381793965802332
0.22694973007188238, 0.29815669105373466, -0.14491376857872454
0.21733373741748607, 0.3037962466104566, -0.1460983049308355
0.22369702122650606, 0.3027461208736812, -0.16020191750975496
0.24403302311609584, 0.276413834068402, -0.15287811011553917
0.24641259263361348, 0.27267219895650874, -0.12182495441320129
0.24494449826400536, 0.27790329492764737, -0.12875178055584366
0.2396392366938268, 0.2877764346838565, -0.15589410821823824
0.15174789030089764, 0.3147568387038214, -0.11410707769235834
0.14661232921252576, 0.31562084071706825, -0.12914843767202927
0.1407748134097151, 0.318702180795518, -0.15457257223731907
0.1528878176153317, 0.3203333723003632, -0.15204797977811085
0.16071308637630105, 0.31985820862728526, -0.1454380981464854
0.17013673060911105, 0.31621082240315157, -0.12908827746489504
0.18104920247511516, 0.31975710089475157, -0.16200698302287414
0.2047715122393513, 0.31201301994025177, -0.159449829832141
0.21722383238126802, 0.30604379029926077, -0.16683727455711195
0.19396075957946746, 0.31371937657534266, -0.14284066139040386
0.18247473345043613, 0.3164837427921809, -0.14062788773724616
0.18678093322277978, 0.31730098348318125, -0.1530453778729934
0.20787886967505065, 0.3089397287892146, -0.13950978040465467
0.17581353069721747, 0.31703315738440313, -0.13849564772742312
0.15901697497403072, 0.3153193859496797, -0.11962728917044996
0.19723116221834358, 0.31176518652269136, -0.12573899032074803
0.2070259167410071, 0.3097923828659457, -0.131864231278724
0.1957504230751792, 0.31222158478868867, -0.11039479351780174
0.19304492614227298, 0.3128499856208317, -0.12033092324870961
0.10754881336024748, 0.3080712356456521, -0.1320705934556012
0.10939781558490824, 0.310679821189942, -0.15008995982824969
0.11087907328108229, 0.30663846640978554, -0.11698506974261887
0.10543195960332676, 0.3043176994925834, -0.11432094197215235
0.10068754159641809, 0.3063264378287654, -0.13678240181444576
0.08813565334080237, 0.29780265661499045, -0.11710540592412173
0.09478508431276081, 0.30576818325137056, -0.15107528283234617
0.08666050542664237, 0.30004180690742543, -0.1277786873028595
0.09346348203412563, 0.3047341101042826, -0.14300816206808212
0.08133999193926511, 0.3007560214649872, -0.14143120926492642
0.06652875669099481, 0.3108154640142415, -0.16127649025989493
0.0704609457719945, 0.30753698482068603, -0.1367764266893386
0.07706183197827891, 0.2999479584289031, -0.12185270937299834
0.06780529378915587, 0.3079534078946706, -0.12910995310877602
0.07520944285073639, 0.29883886555717926, -0.11356268724792698
0.07112410336352443, 0.30500603453846076, -0.12370958644786081
0.029767525661222864, 0.3238913809367708, -0.16108238297549962
0.046740187171288014, 0.3180550818715878, -0.1380803844497578
0.05346499930675509, 0.3165608069531836, -0.15360528170425025
0.03809943873754196, 0.3218816957328418, -0.1561833073852527
0.03599406637525783, 0.31797420341708427, -0.12042320049325356
0.015458444274843821, 0.31955723106855904, -0.11747957192318842
0.054488439417591045, 0.314167206715667, -0.1302769941377292
0.05604230829336553, 0.31315208694176755, -0.12730587972830854
0.031239269985392403, 0.3174095413001452, -0.11604288697537612
0.0618150458110797, 0.3101270712435271, -0.12572793521802295
0.05341425915402322, 0.3086077204690413, -0.11167043608977749
0.02817755391223691, 0.3234234908475401, -0.18725362033518586
0.031432083281269854, 0.3229306085927962, -0.14627602503560777
0.041044504164383454, 0.321317093823245, -0.16520975343962674
0.007984622820321443, 0.32697472103309533, -0.16967291220804925
0.02960689017750482, 0.3240395590133912, -0.1743752409915292
0.01752477667172481, 0.32563495091547795, -0.1847855687308097
0.044409012002624176, 0.31829842825326665, -0.19124378891850205
0.024078203660623947, 0.32168979182164403, -0.20404190620523072
0.0253061707352335, 0.3226959914765871, -0.19504642218979282
0.03392707696164404, 0.3199476803949792, -0.2003152337864313
0.038036887096361625, 0.3189040857723961, -0.19941948499911025
0.06418233972151943, 0.3082000261211531, -0.20265730331742116
0.05943141972946006, 0.30436726234675215, -0.2193079805002269
0.08154174544788098, 0.30112653106085974, -0.17266900766741236
0.05288743024185673, 0.31240893900404526, -0.20495606165493327
0.07023477364027068, 0.3055601811416362, -0.19969167735508508
0.06550899209583722, 0.3092787683007078, -0.1938213118007394
0.06692661414920102, 0.3103533261250871, -0.17960239385359356
0.06110546286851376, 0.3131295368968747, -0.18358735889665329
0.03706442872841134, 0.3222323551535602, -0.18079208278452152
0.052327735307623635, 0.31537816688793047, -0.19130685103408418
0.05001670509300431, 0.31811389327308914, -0.17557707977628514
0.04322088765537373, 0.3199431862534161, -0.18454526189060239
0.18101195234330866, 0.3182173077007287, -0.15124481236540308
0.1929279753164197, 0.31830842539552406, -0.1816456391398405
0.1828143499174982, 0.320430342691207, -0.170353930730952
0.17675922582975653, 0.32140888570808807, -0.18290005050701222
0.16188997150845025, 0.321470689165523, -0.16521217031056584
0.15526034191174662, 0.3211937624580424, -0.16327667952787417
0.17753228013730232, 0.3210340179057285, -0.1988245229292371
0.16963274791571625, 0.321298042432138, -0.20051345566992612
0.14736966063962675, 0.32042230968542007, -0.16926490084850643
0.18531868377108168, 0.3199867295082389, -0.20195666833471698
0.1946791742014609, 0.3168107853302903, -0.21155022708092294
0.17308979935844807, 0.3214910408262489, -0.1955937376150605
0.16100025482500957, 0.3185039662630545, -0.2144401242545855
0.14858526847628942, 0.31980505458409286, -0.19622800526554915
0.1570611747697438, 0.32074329657266093, -0.20223313561885725
0.14835361702462885, 0.31948065943408865, -0.20226339746090355
0.10412980564754432, 0.3003003744416511, -0.22559411741410446
0.11692562597297132, 0.31207389688185466, -0.19892367704398406
0.10831142538876767, 0.30952022128536594, -0.18915651519251936
0.10757035574510929, 0.31025118446290956, -0.17464619649452218
0.09862614349388901, 0.3068785588542067, -0.17732783399160618
0.09656993202942785, 0.30490596978352413, -0.1896264707131221
0.08869115125372251, 0.3014337663680104, -0.1948640601229505
0.1004275615694925, 0.30782230634531843, -0.15900703262926652
0.09489909986901753, 0.305915912854023, -0.15617537205798254
0.09448086945289995, 0.3053890610630907, -0.1793752342526005
0.09007778567062472, 0.2930275039511333, -0.22289550963475768
0.07860189017790896, 0.29920733207831635, -0.19954882844095864
0.08480875673407019, 0.29519311417243166, -0.21047230372968379
0.23115977920705813, 0.30419189783478817, -0.21885138841379848
0.22612024739892422, 0.3080336169615685, -0.23012169710436053
0.21736460930022813, 0.31067766153447995, -0.2083886449065509
0.2107087346453063, 0.31313711995852955, -0.21669821011273918
0.2467888521938179, 0.27867633423282406, -0.2088218416960152
0.2423355207908078, 0.2906431291635231, -0.21812029140155706
0.23680240484115225, 0.293118471125932, -0.20310251818756345
0.2446819894789302, 0.28380024333276704, -0.19668608194548318
0.24105015846916994, 0.2894122151066042, -0.20560637319240568
0.23954119154475634, 0.28934748478890415, -0.170724447728919
0.19778435420418378, 0.31677327451010606, -0.20474159115368706
0.19877616365641593, 0.31692392510236855, -0.19731325320197854
0.22854361949457763, 0.30235807325836517, -0.19821723103467478
0.23361839371665255, 0.2949282690879511, -0.16908918856520305
0.21851823894462827, 0.306366934064627, -0.17204801350401105
0.21237125534497142, 0.3101328273111686, -0.17544802117653344
0.21801420229548485, 0.30776316647940116, -0.1791989167919888
0.19985166531214882, 0.31618181318231353, -0.1830265710700219
0.02175772302865736, 0.32598733559300486, -0.30528783468124115
0.04866638582423764, 0.3222920191165632, -0.30870258627577235
0.04996802684107479, 0.3212758882674388, -0.3007840572028081
0.05403771626747802, 0.3168047423085146, -0.28467240038971103
0.028809227588618095, 0.32490154337212085, -0.300436649196135
0.03756171281867863, 0.3222634946063798, -0.2916901339685075
0.04754964314219688, 0.31311793038364455, -0.27131819878092645
0.018496264105210797, 0.31579986984943803, -0.2615107490139156
0.02608704282249618, 0.31800316961597236, -0.2704664413438157
0.03493803808923372, 0.31138279682806164, -0.26058605105564064
0.032640868855269775, 0.30804945903991365, -0.25311085735718164
0.022866703058458594, 0.31333251732157197, -0.10703512823802247
0.02182490155372965, 0.3047696915485787, -0.09745585439130422
0.040696758931105394, 0.30616460024303493, -0.10222834615617833
0.028914485776683995, 0.313848249018802, -0.3545061678136039
0.03227297387958708, 0.3095096240515287, -0.3610181513505647
0.02787398501031187, 0.3118456015617034, -0.35775051931233726
0.033838965242245285, 0.3064472449432182, -0.3647227458217471
0.011679066068024106, 0.30212402392669263, -0.36779464726301514
0.011492970479653638, 0.29471170757722637, -0.37383435125247
0.01574554373098798, 0.29132314895061695, -0.37633598437622096
0.03730886186819871, 0.286081336634306, -0.38026816363160076
0.05342831619387065, 0.29331198745108517, -0.37804199149428497
0.05555435422838656, 0.279179969917226, -0.3843010944255035
0.027012575311024738, 0.30614991003671765, -0.24485450839258482
0.04075977459327819, 0.3005021312920455, -0.23887536083054375
0.03617431788554417, 0.30645714320802464, -0.23577374803213766
0.022718305499734404, 0.3150795421128311, -0.22781261736305278
0.033578811458920846, 0.31539843364415315, -0.22119081785190287
0.06416646665602707, 0.3162236513175706, -0.35126451406488024
0.06727966387203194, 0.309719923094593, -0.36453971765977594
0.06437200972895635, 0.3161150717566348, -0.3516351800191634
0.06626956100071614, 0.31021349941772985, -0.36370639086551626
0.06937221410787371, 0.3007417490466059, -0.37526542192740364
0.07621139273079043, 0.2938863686255849, -0.38142362095850646
0.043978545442962286, 0.27181674027709407, -0.38507653010466564
0.08997411526086149, 0.2907498946666052, -0.38490174769254354
0.06796933893233947, 0.30239441850961307, -0.37350515533368006
0.0752772035319495, 0.29301946732809914, -0.3817028933548591
0.10031735134243394, 0.29559580526798673, -0.3839247468424233
0.08084346603952632, 0.2832093110833534, -0.38611049822772336
0.10069570200680343, 0.28534206895025077, -0.38833667931705657
0.12485519319358479, 0.27777504949927206, -0.3913555125617363
0.12712049573656847, 0.28843143589601106, -0.3883946826896814
0.11972117540860444, 0.29340384196702785, -0.3860233241823915
0.1354334872938388, 0.30231097733025497, -0.38027284501780867
0.07953548538024012, 0.31403818253936355, -0.35456090374898064
0.07940149084133566, 0.3063264089977038, -0.37110129078377485
0.09524158181565529, 0.30079252231405756, -0.37933445786112824
0.12267399289478376, 0.30566714181572274, -0.3724838742821621
0.0942404949060553, 0.3087245441358173, -0.3681702738196065
0.12938774938442377, 0.30988448923444106, -0.3674150711919826
0.1145819140599657, 0.30748292421446266, -0.36595984271599336
0.17116737293930748, 0.2893388612925019, -0.3900064386690787
0.1934455132124342, 0.29283695282794486, -0.38878684793546947
0.18063346939897468, 0.30412067935166365, -0.3816033788261401
0.18523292333700553, 0.288606351687701, -0.3905885310292108
0.19779540649049676, 0.2852736309155494, -0.39162011351331666
0.1976926569528642, 0.2938541347952984, -0.3881028210302696
0.19859715421846927, 0.3030348523612405, -0.38202183647957955
0.1744417320489062, 0.3085516886701001, -0.3770719036373985
0.1961018013157691, 0.3044380678715438, -0.38106515726663276
0.21042027487361858, 0.3113525017104176, -0.3693449648924568
0.18425393525497222, 0.3155668988113268, -0.36683367172683407
0.20020376086444555, 0.3161671096795341, -0.36052083216774033
0.18890813548747215, 0.3181736179635895, -0.3589777326818578
0.17665477300478022, 0.31835557251437807, -0.3603792594139437
0.168550786272158, 0.3193429809282752, -0.35596792556446316
0.15275570300810698, 0.3197758711376014, -0.3442775334139051
0.22212668825951373, 0.2810919375961184, -0.38915016218010534
0.2061560397154163, 0.298259831009394, -0.38528163286231343
0.21821126023736395, 0.30176180278213505, -0.3816232144306657
0.24658821738754585, 0.2853519766131086, -0.3482661039275523
0.24247121597365268, 0.2961009468993777, -0.3527031815660876
0.2244769084537375, 0.3049028758376529, -0.3779052790614344
0.23655883090731483, 0.3046015601390972, -0.3705711547830286
0.23435997690174598, 0.30595728862588367, -0.366314000090829
0.19780744859604538, 0.3172482308797704, -0.35810011265173125
0.22477467633340095, 0.3099254895099412, -0.34652752858912067
0.12182596015578548, 0.29804304021646133, -0.266699966077084
0.10395060541492172, 0.2901858727303266, -0.2633080432438409
0.11735029208929171, 0.30353728275897746, -0.23946415702765467
0.10687912896624421, 0.30065383261612816, -0.23018641762109932
0.11162571501537741, 0.300487966240902, -0.23962832895641928
0.1020365605536878, 0.2993640839835658, -0.22430803289180004
0.0947748737539606, 0.2921359609711091, -0.2316960212407486
0.09482790707870203, 0.2873562010462758, -0.24358124935536968
0.03687785801612119, 0.3144612896072767, -0.11213561515305133
0.05669733719189683, 0.2966821623595697, -0.09937921008487427
0.06375736650096799, 0.295923775474437, -0.10163820786693357
0.07634449188429965, 0.2925995961581278, -0.10455910177205394
0.0460678366453482, 0.3109513176553509, -0.22045288520715142
0.05116516245333132, 0.30707394021187095, -0.2236771087050274
0.05157173938071103, 0.30088570943170995, -0.23321459070823164
0.05150818827478401, 0.2923539172877658, -0.24179965907698353
0.06459970573895878, 0.28643924225153644, -0.241089470129895
0.06968644006999221, 0.29737762812823265, -0.22003393083628076
0.06994036027639963, 0.28421466107193744, -0.2410231024337316
0.07458224459641781, 0.2884499348050721, -0.23045757993870652
0.08216120956356725, 0.28420090924335323, -0.2351508429331311
0.06784512158522364, 0.28517682283729345, -0.24638560892096215
0.062129611449148775, 0.30018084245055665, -0.26016509492565093
0.06161743790422815, 0.30332789736165355, -0.2636764771622822
0.08523726313771648, 0.2944115250492175, -0.26615656775806074
0.07467568753181104, 0.2834461322625322, -0.24823314167509572
0.07656445795851458, 0.29336685439017374, -0.2607866199001607
0.09010105534874191, 0.2852732176953701, -0.25868017258195874
0.16121164293936807, 0.3059095289041728, -0.26344405635870216
0.17014444419296348, 0.3082247577621819, -0.25892134411676027
0.18505361953560223, 0.31112564831446743, -0.2656857381889693
0.18433739435517607, 0.30847097152227126, -0.2594441108960477
0.15157963164466717, 0.3116187673663005, -0.24272772835074677
0.16270972336109185, 0.3129112954423013, -0.24325980496439673
0.195465235723722, 0.31345223902455766, -0.2479083252912844
0.20047490531909634, 0.31556003764669577, -0.22550042705186882
0.19141325103769513, 0.31715152726974594, -0.2192264282035967
0.17310806564934053, 0.31821781847015, -0.21785359390631528
0.19416597496270913, 0.3158727291750693, -0.23573336615998194
0.1495818580650333, 0.3151068304391445, -0.23142467694339355
0.1596537137207702, 0.315657023817737, -0.23354268495477992
0.22307418921455902, 0.3071108634665891, -0.26721427508937645
0.23053427538243212, 0.30401289887286587, -0.2687116384897217
0.21838352441581652, 0.307585730982704, -0.2655975033630054
0.2502166249708277, 0.2802233760885997, -0.27178725207630805
0.2481571952962967, 0.28430813648443826, -0.2736589307883803
0.24119802292549775, 0.293419632121584, -0.24864481079043343
0.24522383930488087, 0.28457742410283543, -0.23951042245856546
0.24763741994994243, 0.2787647019839986, -0.24377245196128933
0.2129487154999392, 0.3110372639100387, -0.25517874738472596
0.23936720825697488, 0.2971016082189306, -0.25465369461515963
0.23193403502885543, 0.30393308584167883, -0.242863919188
0.23392025249441045, 0.3019875790717548, -0.22380885482811158
0.19718761707226845, 0.3156117560718791, -0.23530539184282842
0.21715056035889815, 0.3108077813032083, -0.24610585877797236
0.19825351895909415, 0.3138105820343411, -0.24557339646205475
0.11963648080195236, 0.30903631307181767, -0.11203124343544979
0.11394500109039224, 0.30735324516749857, -0.11471009038420818
0.09765887759040026, 0.29808302292068056, -0.10856494055424754
0.08894052211965563, 0.2917234459293063, -0.10429521692339452
0.056225308285389734, 0.3210964442270253, -0.31346175706741336
0.07171072980663291, 0.31514021134999753, -0.30008160269518125
0.06916124077594936, 0.3175100378000915, -0.31208029713997315
0.11084203739224535, 0.309183381889792, -0.32204100431119176
0.08981569448570985, 0.30929886021664943, -0.2997687616751946
0.09666860055983814, 0.3078620167890815, -0.30300282803191025
0.1070781659092398, 0.30432716573892415, -0.294131233194792
0.09473602622212225, 0.30602404911893666, -0.2921139224770186
0.10103021908783483, 0.29836136820547937, -0.27704648910081114
0.10448076371795065, 0.29814070476729143, -0.2769905771221174
0.06523929870239627, 0.31624843494203436, -0.29425718223262937
0.04251423780435648, 0.3200622515766314, -0.28692473108488453
0.07054269090888501, 0.3148499941085898, -0.2957810394998449
0.06875080476173301, 0.31304532040091393, -0.28539898144839887
0.09511752951619759, 0.29987305068020154, -0.2775627514502994
0.08962828803298807, 0.30272088455991814, -0.2792775910563362
0.08737247319600959, 0.3003947665227002, -0.2742872046580002
0.07404869946817581, 0.3061722594546634, -0.27465199494786896
0.06504875159733933, 0.30786788476168553, -0.27179085295103683
0.24196866781518062, 0.28490283091907836, -0.10249324798521182
0.2207312697824381, 0.3054478908030667, -0.10799663427156808
0.2303347750870943, 0.3068714814950559, -0.31536336371482704
0.22087708307829845, 0.3122500790515322, -0.30565302789690085
0.253187124356984, 0.2795561720210937, -0.30567556461295076
0.2525233021309216, 0.2806888689681408, -0.29392219448677376
0.24925563658399, 0.2891654822127465, -0.29546970963958086
0.24505270838021795, 0.2944968318489766, -0.27668258183979166
0.22024042187810886, 0.3128185129624581, -0.30202440840732464
0.23385783259219747, 0.3047570288453412, -0.2877793457363969
0.23392099521619653, 0.30529223459408994, -0.2768281364791878
0.2155793911006272, 0.3072643344032375, -0.11157992015183311
0.20488814998664517, 0.31053444171438804, -0.11263561458962498
0.17808032799760415, 0.31110504326948746, -0.10089784694627676
0.1731102467174245, 0.3128058900777163, -0.1065071693959718
0.15320069156103416, 0.305775819465612, -0.09363766898972192
0.15461575212107456, 0.3106856541500033, -0.10097637655732654
0.15221791885427438, 0.3181074010949319, -0.3091131626618677
0.15953004102293328, 0.31883256537135074, -0.3111689754880169
0.1850692962385234, 0.32112241581910855, -0.3197349601612029
0.20649291713448065, 0.3158654719044359, -0.31202374566177726
0.2136870238110244, 0.31418893061122916, -0.3074907837055417
0.2166589169861941, 0.3139680254614884, -0.30107840459254254
0.20361161808241218, 0.31705009645955406, -0.2979256884660729
0.21268662732336077, 0.3148788327064834, -0.2965319080996789
0.21162284376091473, 0.31407799384701107, -0.286028883102376
0.22642395928628029, 0.30754557168525964, -0.2823078286882486
0.19952318951458523, 0.313876563975915, -0.2769957512762812
0.16955547093217177, 0.3195819618081476, -0.3007116639613244
0.17845226966232725, 0.31633722751186355, -0.28595917968933954
0.16933036508750643, 0.31694528167065195, -0.2893314619374991
0.2045318870701642, 0.31359426866020246, -0.27879727174809643
0.15916592864257306, 0.31218162300481644, -0.2779327660669388
0.17904275568651834, 0.3105830289021518, -0.2655991914304832
0.16230956596879773, 0.31297599198052006, -0.27918491261802425
0.2372170546386034, 0.23083642941478977, -0.1079971303367192
0.2351213446642087, 0.2320029047712656, -0.14776116334335893
0.23815166918357222, 0.2351657967579234, -0.1619132594399874
0.2425089734674828, 0.23904231068622647, -0.19115685197174187
0.244084968055729, 0.23613857449646444, -0.24354641550233636
0.23872337010221556, 0.22599164733399554, -0.24868317699941286
0.2474538200459901, 0.23188325191718825, -0.2874208984810985
0.24276813086268112, 0.22895741477153975, -0.31863564261173566
0.24448281743849698, 0.23405713855433777, -0.3343532277571527
0.23484809340832308, 0.24761753608660303, -0.3823033989612217
0.2147881936417134, 0.2701646192986728, -0.3923722032133494
0.22417203657457171, 0.24873992151931335, -0.3878666575469779
0.2006407541064839, 0.26496170455219364, -0.39469982856448904
0.1879136854579287, 0.25200197750036646, -0.3939017016212979
0.18578165745633762, 0.2648931204284553, -0.39517647493873875
0.17034637302938851, 0.2503942926239193, -0.3933095905848772
0.1645807859521508, 0.25894556848686034, -0.3945417803531493
0.1388723831055586, 0.26151457078587, -0.39356530317436567
0.13382776726849313, 0.2600405663576455, -0.3927885807284571
0.11974516003099903, 0.2630418412979138, -0.3923873088299353
0.10656819899661742, 0.2699389590698869, -0.3919062983394511
0.09338496904733024, 0.2684896281575071, -0.39024640602957733
0.09750448889247607, 0.249635166668601, -0.38957078535302436
0.07932751127763818, 0.25140007069679937, -0.38760437620863075
0.061087126007950285, 0.26300052124709805, -0.3869020347030695
0.0489130370604441, 0.2634823089328354, -0.3862707140669572
0.030117365753286218, 0.2588204384283087, -0.38549180055132104
0.015888795224666234, 0.26207503591752546, -0.385149489329632
0.1287747912547894, 0.2183249289115874, -0.09828496250488103
0.13760651617093478, 0.20865951426424964, -0.12174640955548062
0.13908767819138423, 0.20969146788719417, -0.10850930475024331
0.11432022236934034, 0.21891460209993885, -0.11220648216505721
0.12421008439879301, 0.21149594314195433, -0.13168665299214402
0.12065485326894496, 0.21233099212418646, -0.1568299561069345
0.1374779596534833, 0.20866205605438556, -0.11624885095423172
0.12617318546490205, 0.21095597688656256, -0.13738031758577468
0.13546734781493075, 0.209235406672084, -0.1363776899235956
0.14105371399684358, 0.20868174313968857, -0.13767966702824483
0.1501818121674891, 0.21188671269991555, -0.22741617299352077
0.1434403722747013, 0.2091468947987244, -0.15312692578003279
0.14297478194116398, 0.2112814359377468, -0.1880710711945559
0.13469952201485066, 0.2122183750227098, -0.19780752290713974
0.1322572802310703, 0.2122513229782867, -0.18843880827025575
0.12828382343438896, 0.21195517477820416, -0.1739394232224703
0.1187363981318152, 0.21459394125355719, -0.18286940585968686
0.13998674400898936, 0.2126907963751647, -0.2270731532555651
0.1399343276327601, 0.21186317970262625, -0.20835012674714276
0.12485500304929462, 0.2134387718561951, -0.1865159626696406
0.12332097268946682, 0.21489006920737241, -0.20592231170858105
0.14494353405836563, 0.21385252677719202, -0.2691651362926211
0.13717302879339577, 0.21809150785792897, -0.2637761831618324
0.13962611993069995, 0.2138350071923472, -0.25386190731077135
0.15368749504947155, 0.21193340307493708, -0.23316442937532833
0.14884722759074598, 0.21257179791684222, -0.2480571653150151
0.12850304567976606, 0.21738725632198702, -0.2516333936611718
0.13690137707196826, 0.2140577753199481, -0.2337703696746817
0.11598487346998046, 0.2227319484163018, -0.23909036929910976
0.12419543698153344, 0.21180861500811055, -0.302448948188878
0.15502429702519818, 0.20912815995429193, -0.29629954031474814
0.13368311416536544, 0.21203556475400837, -0.2836289989459676
0.11809160718322723, 0.21278974953537166, -0.29758901472519717
0.1275757150970881, 0.21169072803971506, -0.295157740335368
0.14183233909401377, 0.21117567077730098, -0.2854699715506214
0.11885022232198096, 0.21439519399118406, -0.2838347353545633
0.11939410964320933, 0.2186073677496543, -0.35311186540011863
0.1436650007535412, 0.21358242584390646, -0.34931547222641685
0.1328997168542781, 0.21309352600522025, -0.33199823803799433
0.14773692627567758, 0.2093468346787609, -0.3109482292294934
0.13026949352175102, 0.21376856947722483, -0.3349130436357187
0.1389649737455184, 0.21231889440638393, -0.33671804684231904
0.14087460175050134, 0.2109382572833225, -0.32095706147136976
0.12466833004219285, 0.21378972125825083, -0.3276232628784534
0.14222556060391933, 0.24675545823929024, -0.39141672979910436
0.14121278533249754, 0.22730164420706137, -0.3793997348112592
0.15290020455327522, 0.24363391560699657, -0.391103556821451
0.1581843109495934, 0.24896667723695398, -0.3927701744423379
0.15736399671659368, 0.23507884342347599, -0.38695875234766286
0.15771129080765772, 0.22754927626665677, -0.3810152697964728
0.15255995164307415, 0.21360087125280236, -0.3561253081959892
0.13485554948623227, 0.22819141092799908, -0.3793326288658877
0.13621703829356363, 0.22220200922338443, -0.3713557104931074
0.13501700345230727, 0.22055787112534536, -0.36789799854411587
0.12096486116820415, 0.22218316839486296, -0.3649331409114151
0.03959910048094481, 0.20861972702262332, -0.3429435335348972
0.014489879957471087, 0.21055738748995934, -0.34636284534998896
0.05240947423377838, 0.20687857444622773, -0.3221553771439678
0.02533703372050441, 0.207127860230388, -0.31956076291081625
0.04085549664105316, 0.20696236314225264, -0.3300109379732
0.011556562199318448, 0.20685883274996877, -0.3117165945222712
0.06390077627177572, 0.20697555208897803, -0.31279673082387344
0.05289672830813386, 0.20740224948225783, -0.3384816676059499
0.06303752210753708, 0.20742869642237935, -0.33724254561855577
0.07056043033560708, 0.20914851407410123, -0.34613046733940467
0.08273614602802172, 0.2107872469864934, -0.3469778004758133
0.11936710652150131, 0.21531811820676525, -0.3357055234814285
0.08110018971242847, 0.20885278016819286, -0.33259010152967705
0.08786951741354951, 0.21018962744064645, -0.32805500914035074
0.10439162237575277, 0.2153242599546351, -0.32801394616579516
0.10491783639325536, 0.21579263352766823, -0.3344979289180917
0.14726723808897857, 0.2109103530096903, -0.3395550547260877
0.15905997653918558, 0.2086133693438343, -0.340168075935826
0.1903674838903661, 0.20666803315350202, -0.3404661657997138
0.14492395248439421, 0.2103005108508772, -0.3226938448254636
0.20112029714162272, 0.20856946736511214, -0.31897869233033505
0.1757898553235948, 0.20665060279799674, -0.33257825764883386
0.1631784404884903, 0.20754457297307718, -0.3267103709737291
0.181922760782171, 0.20717836928413808, -0.3110768759305215
0.14368501453310434, 0.2100905137767027, -0.31417594931395704
0.17197828302300322, 0.20687110369502007, -0.32320626484481524
0.22641382380565167, 0.2180861027544534, -0.3413691573907641
0.20741716679382957, 0.20897036121110538, -0.33796760893905037
0.24876619530559063, 0.25318331612154554, -0.3507233095855271
0.24904810827859786, 0.24333302110528654, -0.3326848606148861
0.24928999849451255, 0.24693567490469817, -0.33910317962350056
0.24726734250349777, 0.23642822700546443, -0.3215315739431604
0.20666816670750932, 0.20915149696488133, -0.32551958833368616
0.2225558599361776, 0.2157377311278084, -0.3401874122109593
0.23132108677772384, 0.21820261218344472, -0.3110112048355503
0.20520928300515945, 0.20881264056515136, -0.3253781227344633
0.24230153726386616, 0.23964098266619488, -0.10897160811543308
0.2446489886605826, 0.2454262943571362, -0.12640518741653897
0.22785306189282267, 0.22355992813882272, -0.12416634503915466
0.22529439407109098, 0.22445995254121495, -0.14038011614811183
0.2181264473476559, 0.21920675859575936, -0.12494791143401439
0.23655848014632927, 0.23223352965624725, -0.1340158584930443
0.2327155230640031, 0.22782557839838485, -0.1301710281423498
0.24700908344586192, 0.25555559471319284, -0.13360793271215698
0.24619479853905618, 0.25035502707486174, -0.12861038564729696
0.24434093638104537, 0.24599699435306793, -0.13906824906464482
0.24313738191071865, 0.24281895478404708, -0.13331804186777801
0.16482956869959278, 0.20868151644358035, -0.1045298955641077
0.14541931909740818, 0.20872322727436476, -0.14562057486967772
0.15300835042447208, 0.20831355350887215, -0.1310615724946524
0.15608162518943886, 0.20934054437800392, -0.16243098564729902
0.1587100370261747, 0.20861797357411505, -0.1436784092377787
0.16876286092274215, 0.20977846953356843, -0.16727019004377758
0.18799584971101055, 0.21173692746382636, -0.14372834028087256
0.1803876032640308, 0.21081109565516626, -0.1577785989143758
0.22101661899044145, 0.22355252344119989, -0.1668388457807882
0.1988613322907961, 0.21519203859613797, -0.14987012818710832
0.17814999460232755, 0.20920210110460036, -0.11020797724184492
0.17711824204069065, 0.20904236260892234, -0.11737580051437624
0.18946745051310449, 0.21109861198856283, -0.12366963032287527
0.18319767804940915, 0.21091411424239315, -0.14609039751184277
0.2179413225795634, 0.2201782359423048, -0.1322178178370102
0.19474262282503063, 0.21365455528136312, -0.14384169540316377
0.18254012647537338, 0.20983992452851863, -0.1205789117820206
0.2162796662532529, 0.21670029654358264, -0.1138709994963038
0.20033934902053474, 0.21382465811586443, -0.12587194983737635
0.10525568725734827, 0.21702297499933015, -0.1451057948422151
0.12180410284461324, 0.21181364249335707, -0.13759682259144201
0.11039378620245187, 0.22260664288287874, -0.10906344578950972
0.10915400103988626, 0.21683106590515822, -0.1340173141325297
0.09706011684931867, 0.22470764881977115, -0.12128413930938109
0.09470020475936305, 0.221630856167495, -0.16790241095965763
0.09492081355482847, 0.22524088610156823, -0.12161550947435962
0.08930085305742819, 0.2230005809981121, -0.13650931030861657
0.07582112353480307, 0.2224113402485027, -0.16349640341430768
0.07431470286518943, 0.22146029638676124, -0.13499289302608525
0.08105176431489611, 0.22260205336236277, -0.14199759073453824
0.07994022735061349, 0.23229206872151004, -0.10539413376442018
0.06491431813904001, 0.21627977627225442, -0.14042755665543447
0.07348375435879517, 0.22912875041227238, -0.10513828359553201
0.027678151153008947, 0.20992301749506137, -0.13688282641838911
0.014602300822117945, 0.2108320415764834, -0.16225206340102877
0.027431892202097442, 0.21130531560108418, -0.16102797802920832
0.060085562446532306, 0.2140352640782025, -0.12915416342667962
0.041048993777898043, 0.21250305551862364, -0.16514848620049014
0.020490333410109945, 0.2091266869400712, -0.11477343142605062
0.01675366047108908, 0.20903772188551836, -0.1235691449813005
0.03460873311540026, 0.21053782148315167, -0.14254366613316044
0.04388415771787155, 0.21096984751323825, -0.13752876474101094
0.02977959524837353, 0.20940020571964021, -0.12251554860730399
0.05111778529789473, 0.21137633737546097, -0.1252928279337172
0.043548907345900965, 0.21287967600157792, -0.16826245030956585
0.03041707255191072, 0.21222183844716508, -0.1967426977745754
0.04178958231472349, 0.21135232785118463, -0.14756427366296138
0.03292238025227075, 0.21087959346627275, -0.1498262214165884
0.020460574243274944, 0.21139041519969265, -0.19540190479243374
0.02924276716867051, 0.21173212956410042, -0.1669984016886377
0.042217513896314944, 0.21343062253525924, -0.19130573999280118
0.02232590085121342, 0.21151668861629777, -0.19535636669024378
0.021073850590898637, 0.21094020939794197, -0.20877901397068474
0.06113048842155283, 0.21982980850730716, -0.20762761091699367
0.042966875436713334, 0.215434630678437, -0.22062717560085454
0.07473050981787677, 0.22563825340911464, -0.2006689020395702
0.07915982471247884, 0.22511397163368804, -0.1895973167581091
0.052260191161159555, 0.2149386999339155, -0.18406908461009097
0.07552236329307263, 0.22395345115911014, -0.18658483534736656
0.05715205275642648, 0.21722900306708065, -0.20334182423236702
0.07501499728864441, 0.2208451557738375, -0.14796253508261276
0.06865244883159556, 0.2196796712582395, -0.1677535273579139
0.04488462746529797, 0.21317528248698925, -0.17242850590438896
0.0533202740866547, 0.21558802129175056, -0.19803129172510522
0.04442489148521141, 0.2138168037509231, -0.19806793852342608
0.05422417814643453, 0.21510794835240138, -0.17844679195524688
0.198145999401076, 0.21502445364575068, -0.16964365153689964
0.17927743309193175, 0.211354105476453, -0.18241519728276095
0.17461851781957674, 0.2099717410415554, -0.1585571993094206
0.1692993620879271, 0.20922320340342657, -0.15030301282263434
0.15271275267144, 0.20938614550249995, -0.16295109563554167
0.18466618261413664, 0.21188682074703655, -0.18795826995127451
0.17883665678251495, 0.21100781649579173, -0.1735480946032736
0.15383474367605535, 0.21006138860364185, -0.17512632119120386
0.1892280820506556, 0.21320258347004767, -0.22720409174257106
0.20217491549382685, 0.21438779974262312, -0.20279136975128992
0.184368251238321, 0.21210934052311636, -0.19996578804654572
0.16156439025181418, 0.21099772462884298, -0.19493097386132563
0.16338878321398284, 0.21129062246727018, -0.2048533708303181
0.15082644189944214, 0.21128978629435252, -0.20129927721846985
0.16280793995402099, 0.21139020810493522, -0.21406697273681352
0.1658340813856041, 0.21169534465989762, -0.22045824325216637
0.16069834978739955, 0.21176988291751403, -0.2258403969487953
0.10085294856954406, 0.22970491512902477, -0.2267112071151834
0.11594083498051752, 0.21573942120015954, -0.18727612591704793
0.11725473740384544, 0.21416233764863452, -0.17046033933923094
0.11181000422525665, 0.21522391624955603, -0.16229713723250716
0.10503726673196603, 0.21716873474843912, -0.15461780952486998
0.10420248790519195, 0.219179293015722, -0.17846663305205376
0.0979552509920133, 0.22127424170790266, -0.17643088262781706
0.09424845098585921, 0.2204878884614881, -0.15091447828524296
0.07999852806724114, 0.2242183523359123, -0.1799086641072076
0.08312946523152198, 0.22387662952923798, -0.1748493092664109
0.0921185120283031, 0.22702821923543182, -0.203664641292574
0.08058510916540394, 0.22839800536062543, -0.20496166871303811
0.08489044786898135, 0.23607931263313153, -0.22459703347337837
0.23147911292372542, 0.22404739905625226, -0.22107315319540982
0.22113623822940603, 0.21844253436421954, -0.23156677441154705
0.2027550414978354, 0.21467142453207086, -0.22613416284294996
0.24352446269947162, 0.23906565654281664, -0.21731898616729178
0.24577299037043915, 0.2450335591055453, -0.21087542188084754
0.242256908312855, 0.238342376733591, -0.19510081418585276
0.24710369029197513, 0.2568047955763746, -0.1712723678476536
0.24583392689352496, 0.2494520211366696, -0.1728312959526121
0.242389123824924, 0.24130785213305778, -0.16991915613339262
0.21798174655502614, 0.21830658324313806, -0.21115803026075813
0.20075729988616559, 0.21418199192344428, -0.215927837239886
0.23273389409496845, 0.22766893227329077, -0.18838671836207813
0.22525792046056314, 0.22141396554913667, -0.20565282093790466
0.22925099582201167, 0.22767016498015416, -0.156242162351453
0.22785749488953455, 0.2264572715010492, -0.17197917332279633
0.22144658691265728, 0.22199622126916552, -0.182729782340014
0.19631849263912077, 0.21424711459880733, -0.1779972810979686
0.20064815709342512, 0.21575273735467096, -0.15300865122847862
0.2076018368121407, 0.215582233527788, -0.2012583859445045
0.21176084656493518, 0.2196278947133324, -0.17046732761298394
0.20505528393235423, 0.21577714924298025, -0.18532773230902902
0.03198684027161309, 0.2069466708414595, -0.3154738337157176
0.04604797088799352, 0.20651638503856798, -0.2984788809288435
0.031190404659756414, 0.20675571012881067, -0.28984335438592884
0.00814957580319025, 0.20680521101387694, -0.2884235146470156
0.04850179147186233, 0.20841652851700332, -0.2776228823299191
0.04208656588144921, 0.20913361658585106, -0.27079734464502175
0.009363797252582146, 0.20718643318807073, -0.27740469412797264
0.02951282412167594, 0.20897176274251017, -0.2671737923381164
0.03432472734052734, 0.21154152935318457, -0.2603781407004614
0.03638580577023279, 0.21508177387187588, -0.2533081147561039
0.0124694704963942, 0.21343796507589258, -0.251196280586241
0.0333717884253185, 0.2121596409076587, -0.10124615023343418
0.023913195486799387, 0.2126575347141237, -0.09818752483634685
0.03722336096875627, 0.20808491103753846, -0.34082924554102595
0.0359861367472221, 0.21276190588938357, -0.35396433802906063
0.04459715147313527, 0.21223560495925858, -0.35393086937264284
0.02435334303879279, 0.22096612441979313, -0.36647510259039284
0.017892620836550008, 0.2338524778732789, -0.37788669790441143
0.04705547427248602, 0.22000657077970914, -0.3675672924825097
0.026818230855356635, 0.24254686296841532, -0.382366992425765
0.02143754375268448, 0.24155568069480438, -0.38181872293479385
0.04752627516448195, 0.24445756819193465, -0.38383017390695506
0.05034501849760236, 0.2291141130571649, -0.3770022319865306
0.024527362721646843, 0.21731081851368958, -0.24262538351857246
0.03565833867681226, 0.219240701408566, -0.24032783500367774
0.03739837247236799, 0.21606758105927182, -0.22948310095064076
0.03131436490899399, 0.2152165731052217, -0.23084862335107792
0.012394150268001947, 0.21243360677447606, -0.2294810861190432
0.05703084041481432, 0.21456240418538736, -0.360614119561971
0.07277290656197051, 0.21519786741549116, -0.36311654817541844
0.06804399051713185, 0.2140829336829798, -0.3602264950651872
0.06417676090361879, 0.21826022135279802, -0.36736572007648116
0.05880410057671003, 0.23229863862471936, -0.3798804684877066
0.0620109453330651, 0.24131877131311325, -0.3838629205746222
0.051555652307033045, 0.24748322155439775, -0.38488440507768185
0.07621333599885755, 0.2403455340199867, -0.3848457428407225
0.08755101441346334, 0.22926246044213883, -0.38038949793864807
0.08070317935439031, 0.22307942092366428, -0.37450749261939253
0.09099301247221259, 0.25274182111276416, -0.3892679710347894
0.0801820358463801, 0.2466114017966251, -0.38689028968110645
0.1142572054842241, 0.2554944419488794, -0.3917189640237895
0.10691320711934035, 0.24332352567940424, -0.3889650661373242
0.11801113733123761, 0.24277289308446584, -0.38849950778974335
0.10991536175999535, 0.23389056186249899, -0.3841972473153205
0.11617346356005329, 0.23037663107547993, -0.38028107503811387
0.0912617391345849, 0.22776781286011605, -0.37953255474353603
0.0914076794823216, 0.21959234445995027, -0.3695459939483576
0.09887984597069534, 0.22693270266810406, -0.37864024714495287
0.10815484838695304, 0.22654612965185697, -0.3774023675638455
0.1029455021836655, 0.21776784176043623, -0.3576119356701905
0.12286383359204521, 0.22045564752709998, -0.36148892329100935
0.11188574446174446, 0.22165808404157114, -0.3634429250181124
0.18244765789956147, 0.2546240604210532, -0.39434639709909913
0.1877737939361631, 0.22798407804420545, -0.38243570003222305
0.16938256711689634, 0.22354532877507965, -0.37800306933977545
0.1906690036718443, 0.24780774917427775, -0.3930802984787706
0.20742156350044522, 0.23701435120113418, -0.38730833859477437
0.1822775422883787, 0.2247859456870973, -0.3795362725087973
0.16195056941110014, 0.22322507931903685, -0.376860154792917
0.2025029199794991, 0.21720884219956263, -0.36528020987329973
0.16739280744338653, 0.21944006417238776, -0.3727410290172561
0.1829869304245789, 0.21802115964241786, -0.37124529449594124
0.188518368904211, 0.20847876044022862, -0.34990078041284317
0.18558270332739032, 0.21134569213461563, -0.3583476795830824
0.16973202810339877, 0.20899338686991464, -0.35023514019204693
0.17556793850449487, 0.2094017736340027, -0.35358697228552816
0.14971663693361598, 0.21308074618199824, -0.35249068438988584
0.16299343352284423, 0.21483253706726604, -0.3645589820179924
0.21559757061024248, 0.25319540323234496, -0.3913989033018898
0.22988345181776412, 0.23069870772330286, -0.3777559835613308
0.20963445209347137, 0.23269469005655496, -0.3842820938676704
0.24387842536786994, 0.24223451994516576, -0.36150213519542457
0.2431249136014395, 0.246320890036409, -0.36996868948511197
0.22158916088605995, 0.22222721936543505, -0.3663233251975203
0.22994039088682414, 0.22651305656841506, -0.3714132547120427
0.2300321783746192, 0.22153735714350184, -0.34581780280260177
0.20503555719696398, 0.21554191997538427, -0.3606463432330126
0.20882509214577646, 0.21909828614236854, -0.36633022041778995
0.10416647970176258, 0.22549078476512208, -0.26866934520224156
0.1056665522063499, 0.2303833937746958, -0.25308848169071363
0.1091942118063094, 0.22755986282866353, -0.24841318996030434
0.10751193519671429, 0.22869008110435507, -0.24833342713231604
0.1014715708619443, 0.22767373796918605, -0.22077536216410598
0.09611932063106243, 0.23654654065294017, -0.247443749742148
0.09019629437872931, 0.2315536621094042, -0.2167636664892179
0.09559488380905172, 0.2361300435788784, -0.25411204110969
0.04529107979909497, 0.2138734668208865, -0.10258854789895046
0.05294101830227661, 0.2163319389521698, -0.10359973101375283
0.06303039978209912, 0.2231014553755683, -0.10252955032751737
0.07759252774627082, 0.23980199460340784, -0.09358002173404295
0.05726593487087296, 0.22332063182737197, -0.22445616763601722
0.06296942553685964, 0.22759720144866513, -0.22549441852757046
0.044405587624023135, 0.22302726189800504, -0.24454217410113477
0.06911057555571794, 0.2369943366217943, -0.2469356755282296
0.06240718649403447, 0.2326498884382607, -0.2372999049177368
0.07118533456926854, 0.2352431165812333, -0.22976430933611275
0.08132633766714348, 0.23873801664747712, -0.2299799321062303
