0.3541705701082876, 0.28276462392830654, 0.21210340844723719
0.7856982109140082, 0.2827646134144807, 0.27660121321190184
-0.3631896089261397, 0.282764603587845, 0.33688340162956426
-0.07269243392049923, 0.28276465023981295, 0.050693620157511644
0.4157469624859229, 0.28276465927268174, -0.004719149427548849
-0.3175686667565108, 0.2827646073775602, 0.3136351270526026
-0.5018439405758366, 0.28276459354176975, 0.39851175747626977
0.40232298292380625, 0.28276463381156475, 0.15147386510019228
0.1921522625768043, 0.28276459500797557, 0.38951721475965206
0.29993605326832046, 0.282764680899957, -0.13739319225102348
-0.1761839840727926, 0.2827646179188417, 0.24896889347938278
-0.5186377185466032, 0.282764607265783, 0.3143208321229318
0.4730060245685691, 0.28276462361682153, 0.21401423532725497
0.10126107925157096, 0.2827646243373285, 0.2095942342903246
-0.37587183125816503, 0.28276461017268245, 0.296488252819531
0.2492668465171067, 0.2827646405694759, 0.11001698305708896
0.5969811205181867, 0.28276464656001854, 0.07326757769093506
0.5915026907787597, 0.2827646366445396, 0.13409478159777397
0.42774365820061033, 0.282764673958109, -0.0948079372051613
0.5920920310990068, 0.2827646009134305, 0.35328978555783774
0.3740816545782423, 0.2827645949809858, 0.38968278546168833
-0.6227666526158927, 0.2827645994942438, 0.36199588621199913
-0.21160022424253533, 0.2827646295804188, 0.17743012784241116
-0.12509149471946182, 0.2827646140736486, 0.272557501463886
0.3461969615571694, 0.282764685324821, -0.1645378321890421
0.5084179663763864, 0.28276470024162237, -0.2560460001525721
0.8040500578942011, 0.2827646551985377, 0.02027397382808896
0.3705933748120391, 0.2827646563650563, 0.013117883251100138
0.6258006676512731, 0.28276466793562655, -0.05786259437471547
0.3739472816027309, 0.2827646906978535, -0.19749907768267227
0.4152706783380514, 0.2827646075216424, 0.3127512444805953
0.7103835663582319, 0.28276467794754684, -0.11928142403081679
0.4960808137190724, 0.28276464126774037, 0.10573343058520382
-0.5531671843319735, 0.28276458794354953, 0.4328544335052756
0.7764850077260186, 0.28276468115850917, -0.13897929854323704
0.7087153829962841, 0.2827646249580884, 0.2057861389940946
-0.17260409702878587, 0.28276458911569846, 0.4256638036362274
0.46218833041454294, 0.2827646611037764, -0.01595212871940177
0.40698000813949803, 0.28276469057010484, -0.19671539465319665
0.6592412242011001, 0.28276459229846196, 0.40613891683902476
-0.21060349656507357, 0.2827646360173922, 0.13794206132837372
-0.23620129838115234, 0.2827646153272136, 0.2648674185823493
-0.3365602188025654, 0.28276460633599243, 0.3200246979920147
0.4681254161416314, 0.28276458532024906, 0.4489472551218485
0.5859647863638423, 0.2827646270226113, 0.19312117788747996
0.33046669869212725, 0.28276459595305925, 0.38371953234152856
0.4270502238693609, 0.2827646197401011, 0.23779624950606204
0.44840282018050376, 0.2827646874981129, -0.17787004396556008
0.5085318549681473, 0.2827646597439575, -0.007610223837234781
0.573994538760507, 0.2827646759574585, -0.107073087181478
-0.19257664999102728, 0.2827645972168677, 0.3759666103741508
-0.27972272132577175, 0.28276459049622504, 0.4171948659477956
0.524245724547034, 0.28276465189729083, 0.040525705505871035
0.4323132203415757, 0.282764653141132, 0.03289527382878224
0.6565217409648446, 0.2827647109531751, -0.32175677444526274
0.4992960774841134, 0.2827646936554794, -0.21564284237031853
0.17812792672120323, 0.28276466722770566, -0.053519803485264986
-0.22326485515610262, 0.282764617958609, 0.24872493805952553
0.7891325725381313, 0.28276461703264777, 0.2544053123775156
-0.1510137370951822, 0.282764635311067, 0.14227506307801374
0.09458452212196014, 0.28276466584896515, -0.045061823093458346
0.5781846977616989, 0.2827645979324623, 0.3715767450813113
0.558698613450919, 0.28276459670123, 0.37912982610847024
0.625664642108973, 0.2827645874423544, 0.43592905035692114
0.4488763332703546, 0.2827646555088952, 0.018370064251839416
-0.45586088880402714, 0.28276458916645936, 0.4253524072676911
0.6113600682967246, 0.2827646705590089, -0.07395591804318963
0.5393624623077786, 0.28276468633836105, -0.17075546455889262
0.7037780735215271, 0.2827646278673183, 0.18793926348414508
0.45878318097653953, 0.28276466137121176, -0.01759272956860193
-0.039119361423243904, 0.2827646057807888, 0.32343063349657963
0.12213370712540109, 0.2827646550805073, 0.02099803983456759
-0.5793732127985028, 0.2827645861172091, 0.4440582473871754
0.31663291504950763, 0.2827646435512816, 0.09172488636490192
-0.29197952721617626, 0.28276458409919175, 0.4564379170628066
0.7265857983725159, 0.2827645892086775, 0.4250934171529136
0.12338542322435292, 0.2827646404948146, 0.11047499858955875
0.7389087847151806, 0.28276459302214024, 0.40169946106927307
0.5026832596733743, 0.2827645988024214, 0.3662399197199826
-0.5275693787801481, 0.28276459104744395, 0.4138133750222135
0.6597979462078488, 0.28276461648482565, 0.2577659659846516
-0.16340863324803045, 0.28276460279510074, 0.3417465472988045
0.2975802312023295, 0.2827646487952652, 0.05955530001698049
0.09787731487077994, 0.28276459665440734, 0.37941706345441645
0.06510594489036949, 0.28276464231200044, 0.09932734390865448
0.09991058637534614, 0.2827646420395073, 0.10099897230376098
-0.18316009133202646, 0.28276460647994595, 0.3191416048771555
0.34835880042862716, 0.2827646442878771, 0.08720618929727766
0.3019285624389868, 0.2827645945999382, 0.39202034891260995
0.7994939742156785, 0.2827647320000036, -0.4508700258090701
0.5825137297097135, 0.28276465137361595, 0.043738225872404723
0.7922023912655097, 0.28276471382587065, -0.3393795273400562
0.5483796064430553, 0.28276460522887636, 0.32681637933186525
0.6830244618599738, 0.282764662033724, -0.021656957893718937
-0.34795195664924883, 0.2827645886321796, 0.4286299838543966
0.751137937394486, 0.28276463458414347, 0.146734426723136
0.4420122916542425, 0.2827646627118362, -0.025816884379798205
0.5254065707090437, 0.28276467077016737, -0.07525128452764564
-0.21130877220123512, 0.2827646203633945, 0.23397261211000492
0.31201545677519166, 0.2827646498490295, 0.05309090876593761
-0.17182793769549742, 0.2827646381660763, 0.12476080770799097
0.21676772704704406, 0.2827646213512443, 0.22791257794421244
0.4960869934941945, 0.2827645903212182, 0.41826845784422795
0.7972146638529853, 0.28276469040252605, -0.19568737094632466
-0.5511457506455191, 0.28276460331615616, 0.3385500960326356
0.3785910157305908, 0.2827646918902851, -0.20481413371177834
0.7061496354209141, 0.28276465323835376, 0.03229886053928732
0.7496970024777511, 0.2827647003716695, -0.25684378342991204
0.2794296755063783, 0.28276460288199046, 0.3412135161913467
0.24623908423219462, 0.28276459341705834, 0.39927680840284413
0.6143402077944113, 0.28276467124772237, -0.07818087924245909
-0.410018720148586, 0.2827645892867243, 0.4246146333422135
0.6936679130900775, 0.282764653474283, 0.030851535866606855
0.4824038696506148, 0.28276469079478944, -0.19809373841710387
0.03996805582639527, 0.28276465634736986, 0.013226382211110714
0.6727691843364308, 0.2827645882823511, 0.43077603153080907
0.639801562180264, 0.28276458939382304, 0.4239576286779415
-0.08368376746068991, 0.2827646421683251, 0.10020873065557533
0.5020858509323698, 0.28276468685795064, -0.17394292363647312
-0.2169762073604991, 0.2827645889651648, 0.42658726293788124
0.0846788681913509, 0.2827646196115608, 0.23858478912706615
0.22226699082652615, 0.2827646366122942, 0.13429259333070268
0.6877494309103909, 0.28276460061073155, 0.35514671353226673
-0.32541580571060535, 0.28276459805103155, 0.3708493734231593
0.7650309790206047, 0.2827646112609338, 0.2898122985026067
0.6060708818312205, 0.2827646880711814, -0.18138557316210202
0.3138594780119799, 0.2827646473005074, 0.06872499694239577
0.6717172812062184, 0.28276471427403244, -0.3421288074432353
0.34437193355133, 0.2827646084822323, 0.3068584381451234
0.7512795108719655, 0.2827645838477695, 0.4579802845451285
0.35652539147656326, 0.28276465695726677, 0.009484926767607232
0.6703708896598419, 0.282764586780727, 0.43998785014083525
0.2338882639337616, 0.28276462966591825, 0.17690562545289445
0.5092406504382315, 0.2827646267494009, 0.19479720647841106
-0.5332978585401424, 0.2827645956225641, 0.38574697773474054
-0.3533441152210719, 0.28276459592203707, 0.38390984007683293
0.6921519510865688, 0.28276460411142473, 0.3336714648783703
-0.16088234456358502, 0.28276462999800345, 0.17486842529320062
0.27474179003348204, 0.2827646828667199, -0.1494584377536169
0.8047109782345487, 0.28276465277485474, 0.0351422276796437
0.06531046079802527, 0.28276458766934703, 0.4345365480833594
0.789824714911422, 0.2827646098643805, 0.2983795526427733
0.6149981528980055, 0.2827646842023171, -0.15765175250652244
-0.09908889520775194, 0.28276460696649575, 0.3161568307088989
-0.042753482042422436, 0.28276462903048816, 0.18080371596014425
0.2314609451479907, 0.28276459040790003, 0.4177367016975728
0.12859611830114104, 0.2827645838972586, 0.45767668998511024
-0.08884156032693141, 0.2827646212476039, 0.228548367602915
0.5187954204456205, 0.28276466826987867, -0.05991308722694341
0.36223641482346836, 0.28276465419177865, 0.026450008225703286
0.7042116271361583, 0.28276468763088286, -0.17868453064716905
0.023667787013751974, 0.2827646516125928, 0.04227220557554341
0.11143022395621988, 0.2827645918082581, 0.4091461072432778
0.23124231760359498, 0.2827645972285195, 0.3758951316508622
0.27957116686311634, 0.28276463077759123, 0.17008598938760386
0.5997555321105805, 0.2827646678174973, -0.05713792243785512
0.6738871865283188, 0.2827646173972076, 0.25216889482047367
0.1372422229045191, 0.2827645846228569, 0.45322545630850075
-0.49185021324771344, 0.28276460968854306, 0.29945823996539916
0.7180893269032269, 0.2827646619423119, -0.0210961838712809
0.38446286642691957, 0.28276465460341066, 0.02392482258754451
0.2791869836055929, 0.28276460976150297, 0.29901066234596596
0.7205008900389256, 0.2827646613405659, -0.01740473048955596
0.396152892094026, 0.28276468297055435, -0.15009541721728703
0.4324344088564689, 0.2827645995440792, 0.361690167830725
0.7352204524211581, 0.2827646593090076, -0.004941993091977348
-0.0564625242493772, 0.2827645885852696, 0.42891775668353105
0.2753744099533003, 0.2827646574903307, 0.006214808343223341
0.3314745773812911, 0.28276459079048716, 0.41538969411202986
0.5670573658379829, 0.282764645421757, 0.08025032351528258
0.7378706749546626, 0.28276464250785505, 0.0981258600349274
0.6718237412886024, 0.2827646902370555, -0.1946722803961317
0.6828591244836073, 0.28276469163286205, -0.20323495356881827
0.01184550105379771, 0.282764642186222, 0.10009894056495502
-0.3077836603195087, 0.2827645839092934, 0.457602861848677
-0.38648660852870886, 0.2827645922909362, 0.4061850841773672
0.5200783370650033, 0.28276464278949787, 0.09639810232691169
0.3009666878997892, 0.28276464998074713, 0.05228287736712103
-0.06728850803338826, 0.2827645865368974, 0.44148364020517494
0.7981823901507101, 0.28276470788191055, -0.30291588542575126
0.3859235085458367, 0.28276462679433123, 0.19452157802614806
0.7514164222446846, 0.28276472058518515, -0.38084501790566094
-0.13201841172960463, 0.2827646327220421, 0.15815761841355447
-0.23077982373524883, 0.28276463513576455, 0.14335046818324523
0.14171834759790702, 0.2827646690677513, -0.06480769339234659
-0.0964909327834148, 0.28276460187227204, 0.34740770474971194
0.7399299554569011, 0.28276459256388436, 0.4045106640791681
0.10845824062510168, 0.2827646242385162, 0.21020040534157974
0.6482695787652735, 0.28276460857118035, 0.3063127799429889
0.5743274370631557, 0.2827646774845416, -0.11644108595062813
0.39510967943302777, 0.2827646241784171, 0.2105690874069046
0.6610723594899647, 0.2827645919823252, 0.408078279937794
-0.3310105696364175, 0.2827645990715828, 0.36458873015765414
0.49454598762639757, 0.28276466423921853, -0.035186719190089324
-0.3024611227072933, 0.28276459803062987, 0.370974529281876
0.37390303038315625, 0.28276463475178293, 0.14570603062769877
0.1158238368473809, 0.28276459752830296, 0.3740560891230058
-0.29567669857475487, 0.28276460110060075, 0.35214157663890633
0.6851141667649219, 0.28276468303065533, -0.15046411134793322
0.3176744540829596, 0.2827646417725844, 0.10263642943722295
-0.10325091786890532, 0.2827646302483888, 0.17333241878442215
0.030302933972646634, 0.282764633160588, 0.15546732800850804
-0.18945717377780347, 0.28276462134273034, 0.22796480772676087
0.06561631287007316, 0.28276465480717017, 0.022674845573118305
-0.05503178916712129, 0.2827646281835737, 0.18599917266665641
0.6479018909893743, 0.28276471046548446, -0.31876500199403424
-0.45431940063394993, 0.28276461277022363, 0.2805534535364104
0.452536894742646, 0.28276459590828595, 0.3839941975162469
-0.08727212296445147, 0.2827646310191253, 0.16860428155981402
-0.09993501335368421, 0.28276467331046135, -0.09083489679299123
0.22103055999739757, 0.2827646842313096, -0.15782960936967022
-0.7179806002248162, 0.2827645999686134, 0.3590858325279122
-0.20094356277921027, 0.2827647100141508, -0.3159962639785845
0.6043534901907148, 0.2827647221789241, -0.3906219219703014
-0.5530979014779625, 0.2827646098916421, 0.29821231455122005
-0.1554043690784082, 0.28276464574447036, 0.07827061597195353
0.21285208312587434, 0.28276472769049377, -0.4244330343912165
-0.18917195983600552, 0.2827646829647493, -0.15005980618539672
-0.18297946208601035, 0.28276466441962317, -0.036293424251092374
-0.6258078472828106, 0.28276470747077354, -0.30039373691967614
-0.20952010723021486, 0.28276472847242273, -0.42922983215312344
-0.5523984500698087, 0.2827646455738196, 0.07931748473522673
0.07738096283999613, 0.28276467601781363, -0.10744334014166673
-0.569673330660798, 0.28276472226863364, -0.39117225136014533
-0.009766728292197685, 0.2827646852762925, -0.16424013051098746
-0.3950976901766494, 0.2827646791245165, -0.12650162766906797
-0.4077670328164977, 0.2827647150442212, -0.34685358451721165
-0.09394573575361659, 0.2827646817415646, -0.1425560933067596
-0.4105752222101592, 0.2827646743902291, -0.0974588083940449
0.5179352066880927, 0.28276471562119243, -0.35039305548698557
-0.7173453795328095, 0.2827646107391962, 0.29301293435213316
-0.5272875736186482, 0.2827647227052688, -0.3938508205841204
-0.5285569065388601, 0.28276466687901725, -0.051380749969013234
-0.6248283111005245, 0.28276461465213426, 0.2690087402795598
-0.49795996658411223, 0.28276461767398536, 0.2504709817024825
0.35099817029209546, 0.282764724034422, -0.40200460453014075
-0.5302584531799779, 0.2827646809892066, -0.13794070006871945
-0.5410361255983146, 0.2827647010691211, -0.26112234923033967
-0.1440289968154223, 0.282764716048136, -0.3530121710545834
0.7055030117569906, 0.28276472465041297, -0.40578344462860144
-0.44999402417790024, 0.28276473114542455, -0.44562754988667447
-0.17359631895655878, 0.28276469955477235, -0.2518324702773506
-0.22775712978114712, 0.2827646413329957, 0.1053331172733721
-0.38967507109106747, 0.28276463950892855, 0.11652298579756412
-0.5912489462999786, 0.28276463883031167, 0.12068600892354733
-0.3763007687869301, 0.28276470922456526, -0.3111524957159051
-0.7050871022451429, 0.28276472641590256, -0.41661396429751807
-0.5926428755186686, 0.2827646696015287, -0.06808218804796579
-0.41402963535682985, 0.2827647166367951, -0.35662334105512605
-0.36555679295390553, 0.2827646569388177, 0.009598103639604907
0.7523988783314312, 0.28276473113566186, -0.4455676604259686
-0.7781566464687549, 0.2827646314431185, 0.16600326569089768
0.6371689556293996, 0.2827647199663445, -0.3770486966146338
-0.1840799762055597, 0.28276467845475767, -0.1223929447505045
-0.6997060613259019, 0.28276460255611785, 0.34321260462613257
-0.4876597788626722, 0.28276466546315315, -0.0426950320951518
-0.7913640800619711, 0.2827646043430707, 0.332250416093826
-0.719728978520381, 0.2827645974134134, 0.3747608867599538
-0.8035214864525154, 0.28276458542403954, 0.44831054486023875
-0.610449917207003, 0.28276466832059033, -0.0602241818214822
-0.590696776289332, 0.2827647069184554, -0.29700550218874183
0.22780759423802838, 0.28276468782642533, -0.17988409970721533
0.16989621378069575, 0.28276472515952117, -0.4089066042294004
-0.5681091164510009, 0.2827646159213774, 0.2612224786988791
-0.066799980622581, 0.2827646618353997, -0.020440323299872217
-0.7010182807771317, 0.28276462882763775, 0.1820481162332373
-0.7016609934047999, 0.28276471482656773, -0.34551837400814817
-0.5804856190929415, 0.2827647319655342, -0.45065857059697273
-0.2115263430858966, 0.2827646714474974, -0.07940641342928836
-0.3877473059022709, 0.28276462379315576, 0.2129325005551984
-0.21862351592533782, 0.2827646495224188, 0.05509452509275227
-0.11741032743201024, 0.2827647012447054, -0.2621994836686322
-0.7919621968347976, 0.28276458942011895, 0.4237963145627137
-0.36024127707194914, 0.28276470505299733, -0.285561718558086
0.1713860914836425, 0.2827646807279175, -0.1363378037283055
-0.5733227885266544, 0.2827646424997925, 0.09817532022860696
0.27696229788167287, 0.2827647154205799, -0.34916238355229345
-0.6251971262443107, 0.28276463269533925, 0.15832142927996462
-0.5379315999238573, 0.2827646792379528, -0.12719751046447264
0.08706770594690016, 0.2827647084854532, -0.30661836090366124
-0.5146181397289895, 0.28276463448618294, 0.14733537247811063
-0.6569022825283439, 0.28276467273583844, -0.08730983221710362
0.03165402513058091, 0.28276471605322784, -0.35304340673580875
-0.09368177213492124, 0.282764723497764, -0.3987124379690684
-0.41738053039837997, 0.2827646480315421, 0.06424041300880971
0.1949475531338999, 0.28276472766668337, -0.4242869675585137
-0.24494753562256705, 0.28276472597342495, -0.41389955420384694
-0.232514758121093, 0.2827646723102102, -0.08469878555915443
0.6457630198347565, 0.2827647198596736, -0.37639431638842924
-0.5725065414925257, 0.2827646202362008, 0.2347528912799651
-0.5062675771980905, 0.28276472471294467, -0.40616704936022857
-0.6570530570683032, 0.2827646162080462, 0.2594638889061048
-0.7890316456965117, 0.28276468763557516, -0.1787133158012325
-0.4615832007567111, 0.28276464462113593, 0.08516178962003199
-0.35540354695530574, 0.28276465464018513, 0.023699227242745036
-0.12201472212068878, 0.28276467050043935, -0.07359661902269873
0.36423165072599994, 0.28276471441594714, -0.3429993933100858
-0.24516901652948225, 0.28276471347134385, -0.337204657863698
-0.07877574280300892, 0.2827647162180093, -0.3540542702298737
-0.6173774718349537, 0.2827647101615114, -0.31690025775589015
-0.19999575385710536, 0.2827646433944849, 0.09268676666025358
0.2679943835835672, 0.2827647211307726, -0.38419196286365404
-0.7281444764047387, 0.28276467036507696, -0.07276622884464543
-0.1834423091434654, 0.2827646502911474, 0.050378705277732375
0.24112460764336777, 0.28276471237461775, -0.3304767144150566
-0.1060547596403894, 0.2827646719742079, -0.08263755601382483
-0.1871933837174144, 0.2827647085356968, -0.30692658353701957
-0.6951231249557027, 0.28276463691208287, 0.13245351865912222
-0.7273316442685295, 0.28276467992360343, -0.13140368257173823
0.23277808396611196, 0.28276471187592217, -0.327417431485847
-0.7167009241707271, 0.28276467856062004, -0.12304236500865368
-0.49522108720820335, 0.2827646958962049, -0.22938873067901971
-0.3878891504449753, 0.28276470392853736, -0.278663639872465
-0.005048715754916028, 0.282764667875468, -0.05749354743803385
-0.10574131740019188, 0.282764657118783, 0.008494093704894075
-0.4032629736717974, 0.2827647139836032, -0.3403471490557604
-0.666749898223819, 0.28276463795618256, 0.12604841537005387
-0.5475461910753285, 0.28276464782397775, 0.06551373115049412
0.04280703804759947, 0.2827647077175435, -0.3019075640557175
0.5888721923042861, 0.2827647197349707, -0.37562931767893853
-0.7463518336581154, 0.282764660974822, -0.01516104899266324
-0.5893506651826466, 0.28276461793892566, 0.24884568710242577
-0.646689243145534, 0.28276473084818954, -0.4438041409985767
-0.6950543644144351, 0.28276469352861683, -0.21486459498776614
-0.807524559701965, 0.282764591835469, 0.4089791796101144
-0.13781555722422945, 0.28276470916033786, -0.3107584879273935
-0.08079057183581956, 0.28276472301781524, -0.3957681585275654
-0.5013385695755868, 0.28276469155665473, -0.2027674546853859
-0.08243134306799654, 0.2827646979331151, -0.24188429963035918
-0.7321976134553966, 0.2827647199372764, -0.37687037621869973
-0.021300414952628965, 0.28276467780408404, -0.11840134139774582
0.10286739631687028, 0.282764672744379, -0.08736222476580136
-0.19911251867751847, 0.28276470215728916, -0.2677977928829028
-0.1362772488812793, 0.2827646921527467, -0.20642422245401737
-0.686298066170398, 0.2827646204833743, 0.23323658772275352
-0.7423834873026237, 0.28276461747103854, 0.25171597357062325
-0.19024687954259858, 0.28276464802244755, 0.06429620416301096
-0.17898926104167864, 0.28276470556687583, -0.28871414250537675
0.0148016921790637, 0.282764660689477, -0.013410579442090505
-0.2639882281015018, 0.2827647248653342, -0.40710189378411565
0.13066671521779263, 0.28276470701776035, -0.29761469550109587
-0.7764687930934866, 0.2827646358261656, 0.1391151542528627
-0.022259262384027867, 0.28276469444394287, -0.22047972689188938
-0.40406019418733147, 0.2827647113780839, -0.3243634074442477
-0.21191462565969882, 0.2827647195225577, -0.3743262554932889
-0.7563539353638065, 0.2827647328016169, -0.45578757877665743
-0.5302415592937307, 0.282764621672739, 0.22594034603660829
0.185261480426677, 0.2827647045620928, -0.2825502299745141
0.5679517723606741, 0.2827647213704903, -0.3856625279231524
-0.6033230641352364, 0.2827646064556948, 0.319290375318668
-0.1692889560966364, 0.2827647293868347, -0.43483935687691766
0.4614432682218585, 0.28276470454983327, -0.28247502329365654
-0.15420655796497046, 0.2827647051142521, -0.28593749005130387
-0.13366879380363245, 0.28276469792815484, -0.2418538707409865
-0.608982091419886, 0.28276471566695777, -0.3506738061084638
0.33888967382019164, 0.2827647290944727, -0.4330458416734505
-0.4575578522396625, 0.2827646947800424, -0.22254155309287138
0.16012761479228713, 0.28276468886639644, -0.1862638757256294
-0.11804872844039296, 0.28276467790765536, -0.11903670727869754
-0.34265429827615435, 0.282764680479899, -0.13481631685011625
-0.2582729118257343, 0.2827646658498197, -0.045067065258060965
0.31647800031971207, 0.2827646979357035, -0.2419001784407446
-0.40825527723120764, 0.2827646913569516, -0.20154236134843354
0.23328008576729084, 0.28276471198303155, -0.32807450116784126
0.34774676520271647, 0.28276469293282774, -0.21120968502599696
-0.6674721784973077, 0.28276470802509485, -0.3037942598193215
-0.5955742401765576, 0.2827646513131448, 0.04410918990101212
-0.7199180855983152, 0.28276467803321215, -0.11980694391237046
-0.506229945398522, 0.2827646855897672, -0.1661631631066381
-0.5447504425823874, 0.28276466746210566, -0.054957747036210786
-0.12062172526918594, 0.28276466775757014, -0.05677029487767231
-0.5221301335468367, 0.28276465849165405, 7.211981818461277e-05
-0.22716328354609652, 0.28276466190944183, -0.02089454019626355
-0.6061031689363607, 0.2827646185566574, 0.2450561679233779
-0.2365276593200117, 0.2827646676840065, -0.056319013446255034
0.3561531907455274, 0.2827647025296818, -0.270082261401409
0.15536256158103795, 0.28276470313341445, -0.27378590212234816
-0.13592759461573017, 0.28276465668303896, 0.011167196118863298
-0.8065548201000892, 0.2827646256786345, 0.20136589824409085
-0.5110307024506787, 0.28276471694287775, -0.3585010268898748
-0.3385026371819698, 0.2827646491651922, 0.057285956957666584
0.2749288065547917, 0.282764721840202, -0.38854400714157716
-0.2560649472032286, 0.2827646474649407, 0.06771626916857537
0.00576844969339829, 0.282764659182675, -0.004166997284929862
-0.39686020008412415, 0.28276462355438736, 0.2143972420363954
-0.15894422345024392, 0.28276469466173687, -0.22181579961013342
-0.3730260192740901, 0.282764634987949, 0.14425725297547834
-0.7346950744646485, 0.2827646670414613, -0.05237727472902354
-0.49887352883186714, 0.2827646435273856, 0.09187147793823248
-0.7206176728026045, 0.28276464171431986, 0.1029938575964717
0.5184812188732633, 0.2827647294421298, -0.43517856869016186
-0.5414228120172531, 0.282764660436134, -0.011856429393164086
0.32543869516160245, 0.2827647262843506, -0.4158069498843089
-0.4193936664028825, 0.28276462955505327, 0.1775857345874108
-0.23086775946035884, 0.28276464365319665, 0.09109968151418675
-0.6626382729136144, 0.2827646073605934, 0.31373921094051427
-0.285957058806412, 0.28276472521796714, -0.4092651452922176
-0.5067616217413239, 0.28276472112118023, -0.38413311748715795
-0.16029625819640672, 0.2827646990093858, -0.24848675776976173
-0.2454517183260504, 0.2827646749061394, -0.10062369574310082
-0.2744304938330048, 0.28276468159183404, -0.14163756072343467
-0.7337306232269876, 0.2827647313076079, -0.44662247497102026
-0.6032183775519272, 0.2827646359446283, 0.13838843656040428
-0.1595257829119543, 0.28276471880727794, -0.3699383213056312
-0.7760571157579408, 0.2827646724684326, -0.08566941239398437
-0.11705121798408691, 0.28276472021615184, -0.37858115748523125
0.1582533321022505, 0.2827646794520635, -0.12851098753949616
-0.27843551180704385, 0.28276470381224944, -0.27795026320508315
0.3133480389087647, 0.2827647148676707, -0.34577052316106094
-0.0591603635145696, 0.282764724619658, -0.40559477591194226
0.35064303006147385, 0.28276471974495193, -0.37569054793068996
-0.4742270896724139, 0.28276470306613066, -0.27337314477541336
-0.29202598317050527, 0.2827647295329982, -0.43573600693546133
0.0970031002784145, 0.2827646841725269, -0.15746900242807277
-0.6351605409740911, 0.2827646521677516, 0.0388665446368284
0.21109384398081632, 0.2827647070442731, -0.2977773398256057
-0.2632013697313193, 0.28276468553505024, -0.16582749784260167
0.1748703062536408, 0.2827646877816327, -0.17960931620315543
0.11140184864039032, 0.2827646762880466, -0.10910110289739564
-0.7961380546209775, 0.2827647220288142, -0.3897010619702326
-0.5637775072672147, 0.2827646126991049, 0.2809897362542207
-0.39302362871927277, 0.2827647251100272, -0.40860298011379664
-0.8051155038887107, 0.2827646289102624, 0.1815412494276987
-0.38799957105417204, 0.28276470932535314, -0.3117707859885215
0.5153792419637409, 0.2827647295277366, -0.43570372947259667
-0.20085725947036126, 0.28276472242498196, -0.3921313814530776
-0.6279132664354418, 0.282764709751557, -0.31438536362180053
-0.23392851191693778, 0.282764667772751, -0.05686342267248512
-0.6464984542380676, 0.28276470425896594, -0.2806906768314523
0.5427853713456523, 0.2827647132880532, -0.33608024840614364
0.7464578030704826, 0.2827647302285134, -0.44000269434273465
0.3847208535571188, 0.2827647263070595, -0.4159462593580246
-0.09432155217940358, 0.28276470639796203, -0.2938124994067035
-0.7760371020855548, 0.28276469832522866, -0.24428974774815088
-0.7125456480636402, 0.2827647084448329, -0.3063691727287459
0.11248479596471928, 0.28276467872076727, -0.1240247992710452
-0.4619165710388344, 0.2827646566259966, 0.011517126648176751
-0.5116582478612988, 0.2827647040738529, -0.27955508806856577
-0.32361393916475595, 0.2827646654932251, -0.042879510821205793
0.21838688378643623, 0.2827646951933323, -0.2250769090777064
-0.6774240841579042, 0.28276469176906754, -0.20407051586218802
0.1873735731385256, 0.2827647083588211, -0.305841527312549
-0.2408328185760717, 0.2827646419994534, 0.10124468599628528
0.05905171119654884, 0.2827646695240721, -0.06760702523357737
-0.5605929901264541, 0.282764676089712, -0.10788440555297585
-0.11879006200577086, 0.2827647039544683, -0.27882271478343423
-0.6992896051543456, 0.28276470032748985, -0.25657275989481687
-0.42033361429438904, 0.28276470682461535, -0.2964298338982104
-0.4780084611321575, 0.28276471788577545, -0.36428529908902696
-0.17433621258807724, 0.28276470943916787, -0.31246899034720127
-0.6781651218479303, 0.28276472367989913, -0.3998297588125736
-0.21777688414596497, 0.2827646506378986, 0.04825153558246241
-0.4204747976265303, 0.28276466336562095, -0.029827573266310525
-0.10776095087133894, 0.2827647015271014, -0.26393186183157147
-0.43149573397802554, 0.2827646774404694, -0.11617072178746614
-0.5152109317481633, 0.28276467550422435, -0.10429269023222902
0.21128490058966792, 0.2827646996955264, -0.2526959357471563
-0.1436720641893211, 0.28276472983615897, -0.4375957681845263
-0.550482753095339, 0.2827646140107589, 0.27294330236406833
0.18422274897119031, 0.2827647187790274, -0.36976501641068094
-0.5300374195901774, 0.28276471975383977, -0.375745071256196
0.11692240675622488, 0.2827646870948549, -0.1753962297746611
-0.4409993332124595, 0.2827646310912909, 0.16816157640453308
-0.4333308153185843, 0.28276467003296357, -0.07072885586992068
-0.5642783457651643, 0.28276464065144724, 0.10951412465396117
-0.49372206988705303, 0.2827646374690387, 0.12903683382437597
-0.7970756855647961, 0.28276470282215854, -0.27187648093326244
0.48864624349172303, 0.28276471426474353, -0.3420718239458709
-0.6533425020934425, 0.28276461008406106, 0.29703190675782215
0.4747887705755991, 0.28276472380677886, -0.4006081113194433
0.3412312964674196, 0.28276469314512087, -0.2125120120525744
-0.8053640269793856, 0.2827647291432157, -0.4333448591748555
0.0054864751310769524, 0.28276466454582755, -0.037067633675588914
-0.48641793819896767, 0.28276471405783027, -0.3408025000364765
-0.456455917726514, 0.28276467601486993, -0.10742528173949253
0.35547497443366427, 0.2827647293743627, -0.43476284662526227
-0.6920477835527183, 0.2827646926577957, -0.2095224815741223
-0.5725318643731162, 0.28276464021892056, 0.112167490108451
-0.49278075902072654, 0.2827646195219527, 0.23913449607855852
-0.6679214464640839, 0.28276466874794026, -0.0628457898059939
-0.76704776477812, 0.28276462934654834, 0.17886482269516904
-0.057706121869059504, 0.2827646577886595, 0.004384689366344802
0.0003335925558119845, 0.28276465844604987, 0.00035188168915081895
-0.7000176883101212, 0.2827646614976971, -0.018368662494283206
-0.596121625602589, 0.28276473088777826, -0.4440470008502012
-0.19371060424844333, 0.28276467463601795, -0.09896661709460988
-0.6142108095612109, 0.28276463876574065, 0.12108212434284041
-0.19904074967670868, 0.28276469424109285, -0.21923532925741696
-0.7751876282577589, 0.282764594959392, 0.38981525419079655
-0.2766964420379817, 0.28276468842745245, -0.18357114293472357
0.014969030815135675, 0.28276471352354277, -0.33752487577340745
0.01687774167116604, 0.2827646799777107, -0.1317356075683969
0.11300421150246864, 0.2827647247640977, -0.4064808512877266
-0.7152625068277036, 0.2827646084960982, 0.30677337685528155
-0.794478617369397, 0.28276461241887735, 0.28270881190927855
-0.5542517258897266, 0.2827646943596561, -0.21996266415464147
-0.5684439417846185, 0.2827646871668226, -0.17583772044133464
-0.5547032071837172, 0.2827646504645153, 0.0493151673385151
-0.5735753885660692, 0.28276468001461835, -0.1319620198560987
-0.47354895571197286, 0.2827647226760862, -0.39367179782608125
0.004124992550673612, 0.2827646853109995, -0.16445304316114573
0.1032369932926529, 0.282764720321391, -0.3792267541769546
-0.6723229453828334, 0.28276469363544465, -0.21551993763212876
-0.692552606688751, 0.2827646343287537, 0.14830113305178985
-0.6824872670908559, 0.28276468001307586, -0.1319525573188759
-0.5689213116108774, 0.282764638543129, 0.12244775120515833
0.35572205321239025, 0.2827647045922235, -0.28273506895203887
-0.6604746088937073, 0.2827646256615684, 0.20147059147696583
-0.028746896900348817, 0.28276469606106003, -0.23040004608947082
0.7393450310348265, 0.2827647324176954, -0.4534323855772948
-0.15405169013713316, 0.2827646579389449, 0.003462753021868062
0.24697251776768242, 0.28276469935032017, -0.2505782438755442
-0.14664445278919916, 0.28276470165038936, -0.2646881805215878
-0.13548324644768875, 0.2827646742932119, -0.09686364911049422
0.10252207308785591, 0.2827647080426311, -0.30390183734971227
-0.2730422112440526, 0.28276468739650085, -0.1772466978109925
-0.5923838475800683, 0.28276472319688173, -0.39686665481668787
-0.7441749214505464, 0.2827647287533449, -0.43095316935836264
-0.20166881253309055, 0.2827646828779255, -0.14952717902084917
-0.30791643016111675, 0.28276464062234324, 0.1096926645257015
-0.5412035178159517, 0.2827646165749511, 0.2572130849417599
0.3250993762980664, 0.28276470344215, -0.27567986218852175
-0.09326670718759682, 0.28276466585135646, -0.04507649293767715
-0.5835361096204567, 0.28276472998517715, -0.43850993074613587
0.5655447782715253, 0.2827647205112102, -0.38039121350145155
-0.5790649710067457, 0.282764731273238, -0.4464116305056031
-0.7726269254171807, 0.28276466157850755, -0.018864400331031678
-0.5817511838102903, 0.2827646603660106, -0.01142625243778439
-0.7166915995092161, 0.28276460622064037, 0.3207323331819026
0.11555233644865999, 0.28276468192776716, -0.14369836581512682
-0.5277069336679406, 0.28276471760489696, -0.36256223040253077
-0.320632768368883, 0.282764679787434, -0.13056834168185727
-0.010884168243670791, 0.2827646768022006, -0.1122552168674777
0.39644219775990985, 0.28276471924100466, -0.37259904801571875
-0.18790011462971223, 0.2827647169124951, -0.3583146424525712
-0.018693214330673974, 0.28276468364450946, -0.1542298424721153
-0.36478792126862614, 0.28276471995765184, -0.3769953706996775
-0.4506360846388767, 0.2827646481317243, 0.06362583816519438
-0.41735798504735055, 0.282764644374615, 0.08667408971747477
-0.6714548112721496, 0.2827646982885059, -0.24406446959391398
-0.41127272720079294, 0.2827646322022644, 0.16134623112538898
-0.6175740823142378, 0.2827646302541712, 0.17329694660104034
0.35742521214863865, 0.28276471784683715, -0.3640464294589527
-0.7798046261174356, 0.28276464845149185, 0.06166420157762595
0.3464265204960698, 0.28276469861309955, -0.24605571219776565
-0.7403511082540609, 0.2827646033600151, 0.3382810404104798
-0.5331265816689624, 0.282764685724597, -0.1669902858107596
-0.7436332080064025, 0.28276462283434345, 0.21881440191419926
0.12238560203370602, 0.2827647268909841, -0.41952838574331563
-0.7006628114515093, 0.2827646214973509, 0.22701627686785233
-0.63555765141178, 0.2827646779848395, -0.11951019848271946
0.1102367348566071, 0.28276471259814717, -0.3318479714898436
-0.5629104821237945, 0.28276464065502716, 0.10949216304415257
0.1037584461025352, 0.28276472063860786, -0.3811727434816103
-0.24625343363772437, 0.28276468102372615, -0.13815246261235561
-0.7199755292496939, 0.2827646273372935, 0.1911907376254783
-0.3769589218624185, 0.282764672062014, -0.083176208627149
-0.5844924595860267, 0.28276467512792053, -0.10198422814182417
0.0038504260403461193, 0.2827646787679207, -0.12431406556250824
-0.19743832269121123, 0.2827646989539092, -0.24814643303157574
-0.4234241041800266, 0.28276471657061913, -0.3562173803192398
-0.4194483012561323, 0.28276469503512236, -0.22410635930198528
0.5044962685995882, 0.2827647277221854, -0.4246274485195417
-0.6252848134986161, 0.2827646493858777, 0.055932145824371365
0.011831908067621022, 0.28276468615729233, -0.1696446860497967
-0.7111691927562331, 0.28276466166065095, -0.01936831501279801
0.377498093041703, 0.2827646942908319, -0.2195404569906867
-0.5228310014554394, 0.2827646953962897, -0.2263219655475294
-0.354405611188371, 0.2827646485665406, 0.06095842680168122
-0.6522840395997277, 0.28276460671167664, 0.3177200364276523
-0.7345006110767438, 0.28276464844566884, 0.06169992360083229
-0.13707782420320247, 0.28276467112827763, -0.07744813705129484
-0.2999470397410957, 0.28276470496435946, -0.2850179630619315
0.6943116445055241, 0.2827647300050156, -0.4386316311788643
-0.5506137946803213, 0.2827646945067176, -0.22086482288737452
-0.7711214851838135, 0.28276459673108595, 0.37894667265465615
-0.6247462743848772, 0.2827646979483772, -0.24197792608686303
-0.38343405336751013, 0.2827646782246366, -0.1209812509010475
-0.3670875847225258, 0.2827647038356311, -0.2780937000788546
-0.37798231051606035, 0.28276471398281905, -0.34034233840839473
-0.8066757131521327, 0.28276460421255617, 0.33305106691425784
-0.48344957916780557, 0.2827646187134345, 0.24409440819999184
-0.400863352926477, 0.28276464192456296, 0.10170410673302197
-0.7353741584329712, 0.2827647037630953, -0.27764872379349853
-0.39736857388434177, 0.28276469144825844, -0.2021024899950697
0.438482757931387, 0.2827647284710055, -0.42922113815294527
0.6743550915115376, 0.282764727780475, -0.42498503002516763
-0.16397655520063487, 0.282764728595601, -0.42998547793001907
-0.2975042796724108, 0.28276466765569996, -0.056145364962496
0.011754234737427843, 0.2827646856080414, -0.16627526760973485
0.32552726904361584, 0.28276471305158335, -0.33462960747806664
-0.1614928261483955, 0.2827646687706771, -0.0629852706654244
-0.36619635722603083, 0.2827646592896012, -0.004822943201442567
-0.22802058003121903, 0.2827646942763407, -0.2194515596746678
0.27253790621523544, 0.2827646865127651, -0.1718253584223129
-0.544323071535936, 0.2827646274436422, 0.1905383340295852
-0.6381897269308232, 0.2827647236765352, -0.3998091227548154
0.5397164582100665, 0.28276473120522294, -0.445994387474262
-0.3105239104629377, 0.2827647139612302, -0.34020990008993207
-0.3312096138896329, 0.2827646968904108, -0.23548775677654504
-0.5389762840959139, 0.2827646819801596, -0.14401977116562165
-0.3019779561040542, 0.2827646534726844, 0.03086134248209947
-0.7985844440497148, 0.2827646296940205, 0.17673323034437713
-0.6648423853579841, 0.28276466606124345, -0.04636405933937135
-0.6861449288584621, 0.2827646065407776, 0.3187684288359509
-0.3107205097967481, 0.28276471879304277, -0.36985099440755076
-0.6516244557432559, 0.2827647005664365, -0.25803859501746734
-0.6107351535609803, 0.2827646096320249, 0.29980495452010075
-0.06607777636187034, 0.2827647322075884, -0.45214346904560015
-0.7318158541744644, 0.2827646550722288, 0.02104882434673927
-0.5490437183296116, 0.49654474712091534, -0.038792737121896494
-0.5583287741877464, 0.49750849329272384, -0.0424551892158757
-0.613184370583417, 0.5015244327544881, -0.016729270683593072
-0.659775592874508, 0.5329149023804223, -0.06439013710169307
-0.6419248488591552, 0.5419244453531422, -0.09117589935328672
-0.5595736812378928, 0.5065380507705955, -0.08437467241504285
-0.5336012227475874, 0.5031173125537741, -0.09778230925748073
-0.5515794486576454, 0.5008798291668368, -0.0616869561188972
-0.42494802029096823, 0.5569132946610971, -0.037590250801934566
-0.44937312492558357, 0.6043918318861794, 0.008302921853542044
-0.4484244395824614, 0.5787308893693138, 0.011237009311894938
-0.4781675788025666, 0.6112462990115934, 0.057734278729711166
-0.4674312516848049, 0.6146891589692407, 0.03791487719769658
-0.4852463213902944, 0.5075484383914535, -0.04123584418799868
-0.460646737103583, 0.521116699751449, -0.0335851697316923
-0.5440378383696688, 0.49551681935072817, -0.011778255293723847
-0.561079074137213, 0.5010973997133699, 0.03238033703502423
-0.4902058448589596, 0.555921211320761, 0.06622352022097605
-0.4945990109615238, 0.5468896797854992, 0.0617519088335195
-0.4549698676778758, 0.5364063925916569, -0.014183015270489437
-0.49355757035927406, 0.5114624211245515, -0.004047124625719625
-0.4966636992345724, 0.5264580312837742, 0.033213508669929795
-0.6200773996065931, 0.5141082185615913, 0.1600538914541368
-0.6235158075312153, 0.5046974895071913, 0.11481739119864427
-0.4966504906820852, 0.5902192715633954, 0.09255703187461653
-0.5417447425616342, 0.5997758883861894, 0.1568620769824968
-0.49733994080947486, 0.5956091517315656, 0.09349016578907725
-0.521976077013797, 0.6272863389607707, 0.12282638145109377
-0.5547834934331466, 0.6040352781867444, 0.17317823974003577
-0.6030054843351248, 0.5935755154897577, 0.23115366799164166
-0.5816866684134752, 0.5660132548412717, 0.20790249960577215
-0.6730041559239667, 0.5077716984977693, 0.11082375637901322
-0.7252896296337604, 0.5181930778356741, 0.1492290438122808
-0.7422922413345008, 0.533111275657003, 0.08210816118365512
-0.7691672101294427, 0.5539488155417467, 0.07217973215687473
-0.7334198691453903, 0.5398264090960051, 0.030392766107357125
-0.688490900331542, 0.534181120062871, -0.04050311134298028
-0.6855108704761645, 0.518427803554187, 0.00874421366252172
-0.6590183402688565, 0.5066199638581459, 0.028074184686027123
-0.6635681088587648, 0.5056723803870387, 0.07576784286575441
-0.6404528761979864, 0.5037647840863134, 0.08312289791541208
-0.5737163611367512, 0.5615766809856233, 0.19764903728093644
-0.6676981672697327, 0.5065699508912831, 0.16441708526111196
-0.6695808006166915, 0.5064531481601572, 0.18884550773633757
-0.6342607588913114, 0.5030767150195544, 0.0820890928803164
-0.5645916736284003, 0.5624252199749187, 0.18501229722960988
-0.6128829631704152, 0.517920720029557, 0.17059544009669114
-0.5617602629603291, 0.5336624444761402, 0.14430990643535252
-0.4868610497194611, 0.4948858125401598, -0.10383892341641413
-0.4615391590245642, 0.495854384926863, -0.09437723940307274
-0.44164523731218086, 0.5102659725817423, -0.07275726528456741
-0.42363109366941365, 0.5333583107703559, -0.059509144878384546
-0.5932052475001223, 0.4994328990698982, 0.04899496266887778
-0.5849319326758553, 0.5067362233960817, 0.090574242276489
-0.5365711006306921, 0.5516915984474311, 0.13393382133991633
-0.555467134808804, 0.5123494670996878, 0.07166173390223914
-0.501216434883306, 0.5585678192573114, 0.08599311013323621
-0.6446565416545316, 0.9645383081597843, -0.2942937085562493
-0.613196083471455, 1.0333521955461715, -0.32059683787160215
-0.5923382100282067, 1.0193740433906175, -0.31726994013052334
-0.5883886054373104, 1.0273873897097174, -0.30417409630711323
-0.5882885795567792, 0.9852306107790665, -0.17280384816680966
-0.586438497032026, 1.0002187336733834, -0.22729461152483402
-0.585136709960829, 0.9473430472045586, -0.08867196661398008
-0.5846754082001823, 0.9273608676138797, -0.054248766854781985
-0.6352875249191245, 0.941083811199223, 0.0063116389408189675
-0.5950535962932386, 0.9336215151699272, -0.04727097021527488
-0.552962718928107, 0.912318161934824, -0.08607080531770436
-0.5696048649231595, 0.9641305186970704, -0.1494497673811015
-0.5648697978617627, 0.9417445724515534, -0.11139968467156279
-0.5658704380478479, 0.9536694941142132, -0.13293064567409593
-0.5679350134107413, 0.9663052316685348, -0.15681310544929003
-0.4201635805098699, 0.6295393102287608, -0.05131867552042311
-0.4253235744572719, 0.5929931827407321, -0.029867546599360167
-0.3957903220975628, 0.5839392599355535, -0.10573517323565279
-0.38438956107351735, 0.5257738179591689, -0.1911064643074014
-0.5393670599490579, 0.5161579852496903, -0.12479594366898936
-0.5605693258703108, 0.5322896075129128, -0.1378171721055951
-0.5606765782592563, 0.5440129346734828, -0.1536618895930879
-0.593902198249109, 0.5824220730382, -0.15994399322728595
-0.6220722540808394, 0.666346409054356, -0.18615715439706504
-0.5957471346741086, 0.573898724996775, -0.153249373387477
-0.5710062706273857, 0.5835394737570463, -0.17635373233638335
-0.6815249018636176, 0.7222384658644343, -0.1726824264405386
-0.6560534356100078, 0.7178702644166359, -0.18922156794698036
-0.6899986013322073, 0.7682110771558089, -0.1907543399715696
-0.6599662517450009, 0.80118697126769, -0.23121727023369687
-0.6891545082714379, 0.8691474057739107, -0.23916655094907563
-0.6788493178666968, 0.9124032525735598, -0.2520181616857342
-0.7076021209147434, 0.9141315805493462, -0.21540141836327034
-0.6662984448942353, 0.9255365773785051, -0.2676566534283709
-0.6558635115758298, 0.960977817210386, -0.2797075502475963
-0.8356287182169679, 0.9909429359158894, 0.18798691761668598
-0.6763648632491157, 0.6905713525750375, 0.24790531137868102
-0.617178892587092, 0.7121158476827112, 0.1951691162093701
-0.6536841200828787, 0.7352275970684534, 0.2118831710814542
-0.6707959262838479, 0.7414701089747667, 0.22004111704983914
-0.6710157681298203, 0.7661148569619067, 0.2070127118533528
-0.8014079587742697, 0.6262791500357912, 0.1963534761612612
-0.7815118076147713, 0.6379389458442567, 0.2380629393628483
-0.7013785841619116, 0.6981792656092312, 0.2522134537201052
-0.8490101030577248, 0.7475558102271674, 0.08322886082476667
-0.8470558895403923, 0.7374769615075617, 0.12683578814725088
-0.8414164299292771, 0.7222769455754702, 0.1349139718940172
-0.8281276788867493, 0.7841822974701221, 0.21539973134385998
-0.813371421824313, 0.8011649441029265, 0.22113232727883453
-0.7629827981644954, 0.78864061080742, 0.2303670728430224
-0.7343141569169866, 0.7971650447413651, 0.22362090851474936
-0.7160504429708784, 0.8024164013566683, 0.21476807830653127
-0.6628136572112009, 0.7896921150299129, 0.18872030131112472
-0.7087784478027218, 0.8383982874693576, 0.19463116564342103
-0.6926018810266459, 0.8604077077633876, 0.17001642113067097
-0.8345486093338909, 0.9006191162106193, 0.20863096500306688
-0.8222456928606662, 0.9100219813200638, 0.20952861015990362
-0.876312689965586, 0.852745750754923, 0.046160624484196666
-0.8961096175781383, 0.8582657976379362, 0.12654946468624684
-0.8919021327114184, 0.8832547377247195, 0.16127204831034045
-0.8041221706237063, 0.8966961771178676, 0.21418978464861177
-0.7904957312608947, 0.8832159923843504, 0.21761411330290958
-0.8663330152007569, 0.8457823222423261, 0.18378724546794645
-0.8844921393802125, 0.8407144655668086, 0.1485679526383186
-0.8705176724795131, 0.8636748804481437, 0.030124866929764984
-0.8481234807858056, 0.8606182883878082, -0.01839537119917376
-0.8473977662355643, 0.8447194377071386, -0.017123846207948247
-0.8668962139613281, 0.8232726705178497, 0.03769572774068954
-0.7456375835324287, 0.861402304560311, -0.17493913131447503
-0.7490305366868907, 0.8273368344740777, -0.16155424684198838
-0.7427349240160834, 0.8346041567692775, -0.17288971615516757
-0.6555760135890473, 0.8606992536359908, -0.2638350860618206
-0.6219666679329448, 0.8818248660830914, -0.2792766013130911
-0.5750139459831641, 0.8841769041744382, -0.2783089172928545
-0.5495906228941317, 0.9236784180240177, -0.2841241303509643
-0.5409434059269427, 0.9118595391417721, -0.2736404698662304
-0.5492036631201008, 0.9712560690765045, -0.21109350755738565
-0.5338434801815668, 0.9489694841720916, -0.18757506323807466
-0.5171721066606767, 0.9160434920455272, -0.18152896387372636
-0.8872322716273794, 0.832060896009122, 0.1175625438213305
-0.8630852158035811, 0.7992836830207385, 0.05588512278562691
-0.8780139050692086, 0.8119113616126689, 0.11590048652253207
-0.858536348958217, 0.8036773800071602, 0.035070456032429184
-0.840452816340661, 0.8157142725443578, -0.01619926583044067
-0.8183870440377339, 0.7859419789474962, -0.040030347452499365
-0.8560360723331619, 0.7838931823608235, 0.049582157294120625
-0.7610799934610268, 0.8130364307029649, -0.1384877986560822
-0.7297817289012974, 0.8056026696216547, -0.17258025780534103
-0.8002657953802441, 0.8036573205954747, -0.07939358229079435
-0.763050711822062, 0.7712053529299611, -0.11548518650441511
-0.6452947297745929, 0.8134339885340448, -0.24639215426954236
-0.6353729626292672, 0.8283024680767769, -0.2576261154214717
-0.5734685545549821, 0.8651731230028773, -0.2722929930703018
-0.6091329610794549, 0.8292467083668907, -0.2631552716508852
-0.5242188473111005, 0.8790516613578927, -0.24031092377545826
-0.5309007532382821, 0.8615846655583044, -0.25687230237638314
-0.5185185686386539, 0.8824200010490998, -0.11335915838506903
-0.5142124567871716, 0.9067981408007155, -0.1791332515870906
-0.5191890241685522, 0.9042524550967663, -0.14645103902154039
-0.7777746536117729, 0.9686003968518033, 0.15660216914629183
-0.7923468355180997, 0.9479835742095089, 0.1910213441615432
-0.7302722806788267, 0.9107598599552846, 0.1673144179048507
-0.7383717777198987, 0.924099934503342, 0.16186169244613785
-0.6073443248528353, 0.9124464984984305, 0.010938799177823593
-0.6523600150212353, 0.9315478645434706, 0.046670742598617324
-0.636869636911457, 0.8942055773557367, 0.0797695142524069
-0.6521695994216496, 0.9414841983787242, 0.030488852428490934
-0.7067225964885164, 0.9493400072456253, 0.09164689914570481
-0.6229719803187861, 0.9431224142271222, -0.017056777850489938
-0.656462403399801, 0.9549896044147789, 0.013388079127378697
-0.6381889990884605, 0.9615383169000067, -0.02841691998636727
-0.7389955252691657, 0.9401030285447878, 0.14532389112988914
-0.6762882110920083, 0.9304592195374578, 0.08116762680892944
