-0.569675016625627, 0.28214787743370745, -0.206696556313902
-0.5696750187440056, 0.2552903233117638, -0.22889272476616546
-0.5696749944440311, 0.19547219015181494, 0.02572004432339628
-0.5696750266065775, -0.45667448897897805, -0.3112760656777009
-0.5696750023679784, -0.10337754562294807, -0.057306336978673725
-0.5696750282227306, -0.02574437294741086, -0.32820991556396434
-0.5696750163234224, -0.2591165429473535, -0.20353014249867116
-0.569675008654308, -0.22278479641240195, -0.12317390238692183
-0.5696750139770334, -0.030875967243620156, -0.17894488145244888
-0.5696749982147522, -0.005605096597952081, -0.013789226148923667
-0.5696750016264395, -0.0158717079653935, -0.04953655533532077
-0.5696749977242818, -0.0045370964209011655, -0.00865012346646224
-0.5696750179363883, -0.03340807442563862, -0.22043061980088496
-0.5696749909253584, 0.21691735710698146, 0.06258835819105316
-0.5696749984864298, 0.02398267644652116, -0.016635833176349812
-0.569674975621054, 0.31498730015480725, 0.2229453857243126
-0.5696750061868375, -0.1797028938066421, -0.09731998221872634
-0.5696749988230945, 0.18231769353957122, -0.020163357220537748
-0.5696749898038713, 0.14141833189640718, 0.07433918325019187
-0.5696749866715776, 0.1358717891548986, 0.10715905318614918
-0.569674991731902, 0.06334985675856333, 0.05413745777042092
-0.5696750249886627, 0.2572162334938504, -0.2943236350558286
-0.5696749840744741, 0.29576435747360397, 0.13437126843395877
-0.5696750092537826, -0.17595280960963902, -0.12945513287503815
-0.5696749791436689, 0.2282074997637571, 0.1860357583557125
-0.5696749758960558, 0.311498015604492, 0.2200639439645145
-0.569675023110552, 0.07365045443606705, -0.27464499264629216
-0.5696750237663495, -0.26625845096585804, -0.28151641205733136
-0.5696750258962067, 0.2851045252968254, -0.30383278930016266
-0.569674988619723, 0.235522699841792, 0.08674658424542372
-0.5696750142973817, 0.1442600009416642, -0.18230144176417168
-0.5696750262181048, -0.3889821722581608, -0.3072056796978633
-0.5696750259718275, -0.09542432891316821, -0.30462517834826075
-0.5696749937942852, 0.01764309727096952, 0.03252800038111378
-0.569675023472074, -0.25346685071003616, -0.2784330199477207
-0.569675004714242, -0.04026265688057862, -0.08189025307883427
-0.5696749961010652, -0.004844163291785025, 0.008357780747226401
-0.5696750106265279, -0.0978081731544658, -0.14383861773919748
-0.5696750217287299, -0.4051693313408634, -0.2601664456084524
-0.5696749945238823, 0.18291453035201183, 0.02488337098177116
-0.5696750263094925, -0.12210178117455825, -0.3081632030257043
-0.569674981421285, 0.32458624246805934, 0.16217113041567177
-0.5696749878193583, 0.2131021300029008, 0.09513272596447342
-0.5696750204540064, 0.21245887508783923, -0.24680995064720132
-0.5696750173850303, -0.1322752206386948, -0.21465355482082182
-0.5696749952322865, 0.2710758773080798, 0.017460789541944622
-0.569675017363109, -0.22553748874504528, -0.2144238745095631
-0.5696750246654271, 0.2765614487582488, -0.29093680223109486
-0.5696750087482465, 0.2712705807709008, -0.12415812869154046
-0.5696749954188536, 0.1534732522244539, 0.015505946073809534
-0.569674984632368, 0.18672409269035262, 0.12852569869702227
-0.5696750167726259, -0.10499481108633929, -0.20823683651407332
-0.56967502226766, -0.3091399840315508, -0.26581329317232005
-0.5696750055326031, 0.2952823076041128, -0.09046492459476393
-0.5696750238855265, 0.3253231853334489, -0.2827650738821898
-0.5696749850231091, 0.2819459180844173, 0.1244315620335071
-0.5696750234404643, -0.3602049741196979, -0.2781018277329561
-0.5696750090401788, -0.14985384255386297, -0.12721701035065935
-0.5696749893160483, 0.0852974577859921, 0.07945053978135341
-0.569675027506553, 0.26987242417278456, -0.3207058429051413
-0.5696749950523033, 0.1594984012949922, 0.019346624478597613
-0.5696750283009255, -0.14139400851561748, -0.3290292455502831
-0.5696749891050247, 0.1222305503715019, 0.08166162906791188
-0.5696750226773791, -0.31330605038819714, -0.27010629095570676
-0.5696749861950121, 0.2838577334962566, 0.11215247515467966
-0.5696750033259329, 0.31615901250187045, -0.0673436471493306
-0.5696749885240884, 0.12959631978105127, 0.08774862357906528
-0.56967501862527, 0.3095225627816767, -0.22764861873485484
-0.5696750162986068, 0.30696394461209753, -0.20327006627130942
-0.5696750247748021, -0.32621940892262563, -0.2920828872239471
-0.5696750211088714, -0.24936254583092635, -0.2536716123921485
-0.5696750245662113, 0.22526493056315805, -0.28989723417668933
-0.569674990518316, 0.11593215034355714, 0.06685329839608843
-0.5696749936266667, 0.24746960499541326, 0.03428431574169719
-0.5696750142216457, -0.2016731074676929, -0.1815079239407565
-0.5696750088248129, -0.08360465994169497, -0.12496042162519268
-0.5696750201235902, -0.22179602138274318, -0.24334792847584613
-0.5696750041217449, 0.16201829846202498, -0.07568210364406656
-0.5696750021537959, 0.13661190967689463, -0.055062128038853894
-0.5696750212402963, -0.3911373377584351, -0.2550486859664407
-0.569674989199755, 0.2005579462020927, 0.08066906180628738
-0.5696750222093587, 0.2775193160786642, -0.26520235424442323
-0.5696749890953902, 0.28568724658343136, 0.08176259652468428
-0.5696750263539538, -0.451289246127922, -0.30862909870841865
-0.5696749995553659, 0.06358726890502733, -0.027836039173246452
-0.5696750169858646, 0.20747106687095396, -0.21047109963696428
-0.5696750069728769, 0.26864815549340176, -0.10555597699152625
-0.5696749940709153, 0.057191215728316896, 0.029629501345654785
-0.5696750221304623, -0.3265568887486463, -0.2643757504265235
-0.5696750219712958, 0.09137531409329974, -0.26270797451716826
-0.5696750239727986, -0.0023137000401005914, -0.2836795369694095
-0.5696749861860785, 0.14566149000506579, 0.11224606640075609
-0.5696750085930742, 0.13334572335738715, -0.12253226336925048
-0.5696749971617797, 0.05612888930950846, -0.002756275567596972
-0.5696750262053938, 0.28058849166437183, -0.3070724235432642
-0.5696749890097614, 0.08739881045907352, 0.08265978396939001
-0.5696750073749357, 0.16938129654069461, -0.10976872148386731
-0.5696750195120471, -0.36724852194833596, -0.23694025580991024
-0.5696749886823188, 0.28390974378586226, 0.0860907182508203
-0.5696750207676841, 0.2541716187660669, -0.2500966316523446
-0.5696750223898006, -0.02331409800946785, -0.26709303982921506
-0.5696750067036989, -0.007815596376415462, -0.102735586445572
-0.5696750260905499, -0.20241557914899297, -0.3058691509913102
-0.5696750148983876, -0.1959150996921879, -0.18859875964815512
-0.5696749997761722, 0.08198827311721665, -0.030149623883066162
-0.5696750028573158, 0.16188327282738219, -0.06243353894710596
-0.5696749826344742, 0.25862150748616614, 0.14945944257921762
-0.5696750186228761, 0.06256932274764909, -0.2276235605953491
-0.5696750172291305, 0.17785063322833874, -0.2130200174289299
-0.5696749840609826, 0.24418501183199492, 0.13451262619412876
-0.5696750210019075, -0.22266263347825843, -0.2525508517065854
-0.5696750224535472, -0.18068555607367887, -0.2677609870190229
-0.5696750274890148, -0.22484145161452546, -0.32052213253648343
-0.569675024676743, -0.3789277761838786, -0.2910554392179651
-0.5696749947371907, 0.04978982067683416, 0.022648331544717362
-0.5696749811528589, 0.26275282416798257, 0.16498366543406942
-0.5696750120274554, -0.1438027420453783, -0.15851740528951114
-0.5696750210905238, -0.25328116715862964, -0.2534793686458802
-0.5696750155254664, 0.2453751322609055, -0.1951691841748353
-0.5696750282437826, 0.3182564812305756, -0.3284304580443751
-0.5696750129234229, 0.07772921805579106, -0.16790524292506573
-0.5696750104107606, -0.24473861758913645, -0.14157784533849443
-0.5696750268806167, -0.12170030718705296, -0.31414738554452426
-0.5696749924472241, 0.06031982029626756, 0.04664238159447552
-0.569675000321281, -0.09002102896036371, -0.03586123978533501
-0.5696750263590997, -0.06787896565270626, -0.30868297623010377
0.7272231045547258, 0.33390282788999887, -0.33025017380714417
0.7726409527267555, 0.32661377537567016, -0.33025017380714417
0.5594261230625348, 0.3327240895000982, -0.33025017380714417
0.7904139196131776, 0.33288160814393686, -0.33025017380714417
0.44507737424199456, 0.3259355211101873, -0.33025017380714417
0.7379925185769627, 0.3166732866157893, -0.33025017380714417
0.6143102533892699, 0.32884520370234627, -0.33025017380714417
0.8550515028579965, 0.3191550580580311, -0.33025017380714417
0.9126083716738319, 0.33975450108549565, -0.32958197230519726
0.6191787346795685, 0.33977365493774414, 0.2961264270053091
0.9741130980083623, 0.33947305826447527, 0.23220623764865808
0.35387509525382776, 0.33464705969649444, 0.032566397904735145
0.3538750830161154, 0.3255704758176007, 0.05795113180698139
0.3538750956883612, 0.3349694025298594, -0.15634725739171718
0.3538750885577219, 0.32968062390826364, 0.05954204465064443
0.35387508757287267, 0.32579344098216967, -0.055454716524358794
0.35387509816097923, 0.33617203473355695, -0.2769842065676005
0.35387507605696306, 0.3203012592361012, 0.185486718381625
0.35387509470905365, 0.3172646302835084, -0.2047613492566922
0.6841756569547917, 0.31530748399792885, -0.3299555819729199
0.8950063466489778, 0.3160625000236405, -0.33025017380714417
0.5093282183928725, 0.3258183773086979, 0.29723309418941357
0.37805298448298197, 0.3327354105099426, 0.2972330539055937
0.40848060946868897, 0.32966280046305896, 0.2972330731481807
0.9296518238163909, 0.32141479929442646, 0.29723310355515253
0.6060426792565489, 0.3172565425155057, 0.2972331472322801
0.9513784965045295, 0.3209344961008526, 0.297233105742685
0.5364112995277004, 0.3189272354538571, 0.29723313933582746
0.3557583951785142, 0.31516380344267725, 0.1669731487255852
0.9741920775019217, 0.31570138499970574, 0.09440320798845589
0.9540199923807823, 0.31516379630122376, 0.2416815654789754
0.9621083280407474, 0.31516380523943716, 0.14817676461592827
0.960491009596581, 0.31516383953952914, -0.21064474667705524
0.9517103609222267, 0.31516380119780507, 0.19045725107348335
0.8957098584453536, 0.31516379428857433, 0.2627363810871739
0.8002874829963592, 0.31516382437819196, -0.05203833634692498
0.5027633492375326, 0.31516380478632267, 0.15291694922901483
0.8258721199001435, 0.3151638026896952, 0.17485024217651857
0.903893542349172, 0.31516382617812977, -0.0708679287827906
0.5487191428587841, 0.31516380183080694, 0.18383530497559045
0.9257689362513087, 0.31516383218874255, -0.13374639666937094
0.9618647374531578, 0.3151638170555041, 0.024566046282765104
0.7736056460118486, 0.3151638213524765, -0.020385596396741257
0.7232688109755943, 0.315163820938944, -0.016059529277018286
0.8983326221014452, 0.3151638305018915, -0.11609983993092646
0.7439150905141373, 0.3151638284837904, -0.09498798389147811
0.5695210999539639, 0.3151638032052791, 0.16945661973716172
0.9660815434393366, 0.3151638449144424, -0.2668730078080831
0.8041646298912737, 0.3151638130985261, 0.06596096070891277
0.8047268537458427, 0.3151638083641027, 0.11548890291960057
0.9484354534418699, 0.3151638338637605, -0.15126916454936326
0.8844814318552671, 0.3151637990309074, 0.21312569513561555
0.783272591054697, 0.3151638120699184, 0.07672147557180711
0.7386779491122084, 0.3151637937123816, 0.26876408667286655
0.439180598398379, 0.31516379858896687, 0.2177489844805644
0.7788463009916619, 0.31516382012954436, -0.007592210421728904
0.6103608234517777, 0.3151637991819526, 0.21154560135605355
0.4938285278790789, 0.3151638001734638, 0.20117317543951932
0.7440234884821516, 0.31516380127018023, 0.18970013730688248
0.8325111490082755, 0.315163808424108, 0.11486116964368509
0.766026766072318, 0.3151638153912643, 0.041976077922762034
0.8350540533703723, 0.3151638176380399, 0.018472011917601575
0.9209714923751368, 0.3151638440649733, -0.25798650151358843
0.8315557953712891, 0.3151638113568424, 0.08418112994916409
0.7003697140367307, 0.31516381599223914, 0.03568914226347637
0.6599919339372351, 0.3151638051459424, 0.14915486497323702
0.8807264294302996, 0.31516380800770294, 0.11921727889275724
0.9125211036370182, 0.3151638137995696, 0.05862716540208079
0.6304174734019126, 0.31516381766302404, 0.018210666002420717
0.8974594227672229, 0.3151638398768559, -0.21417359663412572
0.6668465037750385, 0.31516380624598134, 0.13764709266746283
0.8116060583974283, 0.3151637979663761, 0.22426202006527746
0.5833630952118511, 0.31516380260244886, 0.1757629701402587
0.5773452296944399, 0.3151638041822622, 0.15923616379741487
0.5717235649857605, 0.31516379607443934, 0.24405404879649853
0.4994308241684699, 0.31516379276711914, 0.27865272768281457
0.5966357738626615, 0.3151638029539242, 0.1720861004810136
0.6639480630326984, 0.3151638180535755, 0.014125009787277099
0.7439844605790386, 0.31516380931661075, 0.1055244921872145
0.5507326340525819, 0.31516379861771493, 0.2174482334340997
0.8055806509873344, 0.31516379795509686, 0.22438001552014414
0.8565339902752098, 0.3151638034034499, 0.16738347934801107
0.9183116430823047, 0.3151638289777107, -0.10015502019887075
0.8829280467206942, 0.31516379782422166, 0.2257491250701234
0.6537064499424629, 0.3151637929876333, 0.2763458610994917
0.7171087492355659, 0.3151638055387382, 0.14504572853112774
0.8505084586269371, 0.31516382931806025, -0.10371549141239558
0.5320016630025017, 0.31516380812618155, 0.11797787913857127
0.8673132140646629, 0.31516384005431863, -0.21603007486614373
0.7073352133066926, 0.3151638031773778, 0.16974848823138752
0.9227918929157368, 0.31516382921746555, -0.10266315345686042
0.6923979704387946, 0.3151637923482661, 0.28303443223208335
0.9448621355692242, 0.3151638452104173, -0.2699692701980415
0.8488538872201081, 0.31516379586279325, 0.24626810282617592
0.6698816805308708, 0.3151638155138331, 0.04069386579661438
0.6434214549261104, 0.3151638164122108, 0.03129572320650026
0.5221183955264448, 0.3151638066228092, 0.13370501943888302
0.9646297130018889, 0.3151638060950318, 0.1392261827293929
0.8515951729771413, 0.3151638072482466, 0.1271621370326198
0.8752985395699723, 0.31516381355491463, 0.06118656330565436
0.46324901693348136, 0.31516380099663843, 0.19256175098371325
0.6777397571341469, 0.31516379522531707, 0.2529369109365769
0.8200860888719632, 0.3151638124454714, 0.07279272105586507
0.8854070384873621, 0.3151637977688047, 0.2263288546868756
0.6387335512021954, 0.3151637931166953, 0.27499571393952954
0.7676726359019742, 0.31516381126353177, 0.08515728119585766
0.9372118311224799, 0.31516381742781086, 0.020671258768954207
0.8351711613048526, 0.31516380631895247, 0.13688370826887736
0.5438527342348114, 0.3151638091241492, 0.10753789838555478
0.7625449612594397, 0.3151638025628771, 0.17617692206827992
0.5927512230224974, 0.3151637928544261, 0.27773938007925303
0.9319659653190552, 0.31516379821449697, 0.22166635673005847
0.9429745460300225, 0.3151638173979311, 0.02098383678307989
0.9633480401124268, 0.3151638223157335, -0.030462477904944812
0.7719354776549159, 0.31516382498057594, -0.058340017238812714
0.9629476038798335, 0.3151638160986142, 0.03457630216763061
0.5066803294925615, 0.31516380324558707, 0.1690349537802143
0.6262129642415043, 0.3151637942992341, 0.2626248924886783
0.6927278119568587, 0.31516379158574204, 0.2910113795392746
0.7507196934333449, 0.31516382291271017, -0.03670757458063967
0.8281824358961353, 0.3151638303859513, -0.11488695481583874
0.9476916539897087, 0.3151638320136976, -0.1319152114133536
0.8104301898717624, 0.31516381245703007, 0.07267180410309963
0.49729070874898906, 0.3151637994669263, 0.20856443380598286
0.8512543825053434, 0.3151638292255539, -0.10274776034824074
0.43038471011587975, 0.3151637940382347, 0.26535528850476386
0.7005060296321274, 0.31516379823413165, 0.22146097519321734
0.7714170550668389, 0.3151638291161942, -0.10160371536439318
0.5422422594560367, 0.31516380084693474, 0.19412782981302718
0.4891266002110274, 0.3151638009454535, 0.19309720646210154
0.7634994785099786, 0.31516381473952493, 0.0487940808105191
0.5134500896566092, 0.31516380067085853, 0.19596980787299048
0.8809065997519667, 0.31516380624227924, 0.13768580035270495
0.8642159149370902, 0.31516380560079316, 0.14439654215393674
0.695543554359094, 0.31516379350179563, 0.27096708158493465
0.8796339674899127, 0.31516383299068873, -0.14213574346644264
0.5187941714799256, 0.315163845960307, -0.27781404368069884
0.5198489206604368, 0.31516383736768977, -0.1879246002129747
0.7191318255587342, 0.31516384751932913, -0.2941233509205314
0.4605921146609032, 0.31516381388892106, 0.057692469300602435
0.3612860849251571, 0.31516383433928385, -0.15624371463466205
0.598589570047926, 0.3151638300963563, -0.11185742523660011
0.3768835912915548, 0.31516379323736105, 0.2737334262590941
0.38462214510182985, 0.3151638134879471, 0.06188715493338165
0.44609768077418555, 0.3151638147964075, 0.048199034474567505
0.379441001622523, 0.3151638055182844, 0.14525972103199705
0.6216195723097556, 0.31516383371510054, -0.1497139823591139
0.47180412493391694, 0.3151638432015104, -0.24895360724419566
0.53597736922269, 0.3151638360538162, -0.17417985155848975
0.46024185794729944, 0.31516381691540796, 0.026031658931151357
0.47062015028865334, 0.31516384645774775, -0.2830178923822173
0.5504216197311347, 0.3151638101931616, 0.09635470140692697
0.3808015860682433, 0.315163802918579, 0.17245586670682575
0.7627694842360269, 0.31516384643011786, -0.2827288486059016
0.4354070784668529, 0.3151638099896179, 0.09848402158523044
0.5975034753943611, 0.3151638365448748, -0.17931693452797742
0.7276945161886037, 0.31516385034831085, -0.32371801248465293
0.7221122989464915, 0.31516384030284544, -0.2186299725528215
0.3789904586720325, 0.31516384577983964, -0.2759261313649075
0.6643822652117043, 0.31516384818691, -0.30110707597230324
0.45268691786950577, 0.3151638236241291, -0.04414989367891531
0.4487256765308226, 0.31516383299941364, -0.14222700859394735
0.455200362987187, 0.31516382122678993, -0.019070749408428712
0.4522686111815334, 0.31516384608340514, -0.27910180371507365
0.8783076019932387, 0.3151638440870561, -0.25821751397564385
0.4029280759501678, 0.31516382231464424, -0.030451056283265082
0.42490033079327405, 0.3151638351422052, -0.16464326874581908
0.5165504318624559, 0.3151638218929399, -0.0260395048480037
0.5738627274785841, 0.31516384838333683, -0.3031619445011652
0.5274028542052487, 0.315163813574193, 0.060984915502285075
0.5233671272302467, 0.31516384106388107, -0.22659135023631163
0.3633651090803977, 0.31516382240464147, -0.0313925387593153
0.8086397672591837, 0.31516384353941657, -0.2524885251735506
0.4973970889558683, 0.31516383547334537, -0.16810740585798767
0.6073695863349462, 0.31516382904940915, -0.10090505825499327
0.3622438833258353, 0.3151638336707896, -0.14925043467714236
0.4618747617897365, 0.3151638329245554, -0.14144389915952532
0.7721405494111313, 0.31516383408266213, -0.15355913328362186
0.4963151333621709, 0.315163846289931, -0.2812623201164826
0.44440324214418614, 0.31516382686929345, -0.07809834107400779
0.7054365482472195, 0.31516384620040133, -0.28032572868005495
0.3862700604784969, 0.31516383106420465, -0.12198232019113828
0.7169546587165935, 0.3151638350722854, -0.16391182059927698
0.6298806776269573, 0.31516383113052926, -0.12267615763031334
0.531644303505159, 0.31516383980173296, -0.21338771440330134
0.8022390237145915, 0.3151638498178537, -0.3181687720115305
0.6767871036071544, 0.315163823811458, -0.04610958590941713
0.7502661447431546, 0.3151638293887675, -0.10445516738509489
0.4785854805667007, 0.31516381038948593, 0.09430090554506396
0.5678172386196793, 0.3151638398475368, -0.2138668792500542
0.6086610750470705, 0.3151638236136555, -0.04404032639239039
0.5863444883318591, 0.3151638380003209, -0.19454270717592487
0.36741538932962764, 0.31516382794902265, -0.08939364893760995
0.5070482183431189, 0.3151638406953973, -0.22273655276597473
0.37919160907096977, 0.31516380572505936, 0.1430965982435651
0.6506906756082792, 0.3151638476817231, -0.29582219402823196
0.3586798614776348, 0.31516380404209476, 0.16070249717982443
0.884515790258921, 0.3151638437457686, -0.2546472233465507
0.8065576673888781, 0.31516384563368427, -0.2743971650672302
0.4543985552039884, 0.31516382898554957, -0.10023700742966912
0.3696205890916815, 0.3151638089251528, 0.10961964790545609
0.5799318250852752, 0.31516382123081277, -0.019112832693562468
0.8255405710271985, 0.31516384741034087, -0.292983198885141
0.8634917653503823, 0.3151638445845715, -0.2634221423610154
0.40285349443157514, 0.3151637964099255, 0.2405444631687767
0.5082031266533859, 0.31516383309640056, -0.1432416121160418
0.4430479612805074, 0.3151638196596734, -0.002676764587472548
0.7065129294910906, 0.3151638366422347, -0.18033543928632612
0.8138510000752506, 0.31516384350367843, -0.25211465926342497
0.4963538590424945, 0.31516381642178415, 0.03119557723853225
0.5049342235573372, 0.31516383167327405, -0.1283539420744163
0.6788519348596809, 0.31516382578959273, -0.06680333104048894
0.37128220536708817, 0.31516381475572125, 0.04862466298047889
0.4215564409722504, 0.31516383567489437, -0.1702158587081335
0.5739980572761716, 0.3151638150881967, 0.045146557306042084
0.3847316661727786, 0.3151637964378836, 0.2402519866482536
0.8196056160197118, 0.315163841132987, -0.227314284345
0.43317080316477785, 0.31516382597029013, -0.06869365026133395
0.622421636217011, 0.3151638435439127, -0.2525355603600389
0.41650773311706174, 0.31516380275115086, 0.17420737356924015
0.4706858142679292, 0.315163842958316, -0.24640949174830928
0.46471174106609314, 0.31516380765680074, 0.1228881849250309
0.7660012768593507, 0.31516384036958, -0.219328098658013
0.7165890676629596, 0.3151638496731066, -0.3166545378289207
0.5957157467285329, 0.3151638312755967, -0.12419374382106675
0.557385514370262, 0.3151638111857727, 0.08597075711843029
0.37330672297688466, 0.3151638237481501, -0.04544730682905916
0.47230388883253693, 0.3151638438311651, -0.2555405765860763
0.4568172498807098, 0.3151638143731521, 0.05262681087367974
0.8633584727197442, 0.31516384346046894, -0.2516626342261637
0.9263378899994844, 0.31516384984869206, -0.31849137942857947
0.3618997611447033, 0.3151638031891788, 0.16962505657634347
0.5865186237125616, 0.3151638395099414, -0.2103352125223954
0.5667148847432457, 0.3151638255266905, -0.06405304724960219
0.40668734199308343, 0.31516384605363146, -0.27879033374847606
0.7487177044401979, 0.3151638476461583, -0.2954501417115986
0.6442073770133895, 0.3151638473443274, -0.292292615728279
0.5555754673802574, 0.31516384649281565, -0.28338474525716323
0.7012705821417659, 0.31516384919311724, -0.31163325338663517
0.8292495807728718, 0.3151638424110977, -0.24068490823460142
0.37142677981595834, 0.31516382816334976, -0.09163577634835164
0.9742547869682312, 0.33666267685943974, -0.07624270517904572
0.9742547869682312, 0.33443508516127035, -0.05013488001562676
0.9742547869682312, 0.3254045814819567, 0.2708110797789773
0.9742547869682313, 0.3362622651762284, 0.14137078099929715
0.9742547869682312, 0.32635917666935504, -0.3065144313434619
0.9742547869682312, 0.3218611414409614, -0.21084128588779547
0.9742547869682312, 0.324761956222083, -0.0165218565454318
0.7552925092197714, 0.3397736592661317, 0.2499790642970246
0.4771778169740461, 0.33977368312345707, 0.0004019054826433083
0.37855735819422226, 0.33977367278843923, 0.10851898664100837
0.9551786334841699, 0.3397736554098593, 0.29032044710055294
0.5117137056508508, 0.33977367802557074, 0.05373210750958109
0.4283258726138196, 0.3397736670857843, 0.1681758167473621
0.9097726402370766, 0.33977365516926816, 0.2928373283713692
0.43333118985072344, 0.3397737066544087, -0.245760979684783
0.7623315824098278, 0.3397736641535375, 0.19885074925085733
0.6044422746792157, 0.3397736597129988, 0.24530428153070444
0.6670056190909257, 0.3397736714449985, 0.12257304039815482
0.5561898580912535, 0.33977366648604646, 0.17444981761238168
0.4333033738862995, 0.33977366722039853, 0.16676758559996596
0.7363688934954177, 0.33977366776502704, 0.1610700975268667
0.8504072546837302, 0.3397736661289824, 0.17818514921548484
0.490004830462596, 0.3397736677559502, 0.16116505233714298
0.7299387703354273, 0.33977367396862657, 0.09617276591753178
0.5727553589382928, 0.3397736870534325, -0.04071050314599095
0.6994994251433112, 0.33977367260099944, 0.1104798383676881
0.5541997656245022, 0.33977368680955555, -0.03815924840785842
0.38168399662837343, 0.33977368230625205, 0.008950881573496163
0.5461145429282628, 0.3397736867436878, -0.037470189774476304
0.5314596049306617, 0.33977365567627715, 0.28753338666053263
0.6484703330372422, 0.33977367210621956, 0.11565584930150796
0.6949016606775376, 0.3397736604303923, 0.23779945686202802
0.43350736697119635, 0.33977370335459944, -0.2112408899069637
0.5017129023761816, 0.3397736928987433, -0.10185969056929992
0.7222517175268746, 0.3397736562520302, 0.28151029741347
0.5334450000258844, 0.3397736772142943, 0.06221906362738905
0.46098232466478495, 0.339773676958574, 0.06489421404805693
0.6911519492318305, 0.33977366969670575, 0.14086234591745148
0.41559079316240244, 0.3397736997931476, -0.17398369447426032
0.5436213193448292, 0.33977367530244973, 0.08221932421830948
0.38353625424550086, 0.3397736879121074, -0.04969330504145824
0.4095953827134842, 0.3397736639149353, 0.2013468228912219
0.47551626012616854, 0.33977366263576625, 0.2147285149524891
0.8330830234151543, 0.3397736611966412, 0.22978354520741512
0.535950912200254, 0.33977366566235384, 0.1830666617286944
0.4063393141759273, 0.3397736665170753, 0.17412521751205448
0.5088435156313507, 0.33977369959943393, -0.1719572101687442
0.4115945934968415, 0.33977368830973603, -0.05385299342230625
0.44620957275070694, 0.3397736562663197, 0.2813608116069096
0.8015065736851487, 0.33977365872316023, 0.2556592179820992
0.5450084275994385, 0.33977367937708497, 0.039593595421978114
0.4845493540172221, 0.33977369913784256, -0.16712839339144467
0.7458092497813821, 0.33977367476564685, 0.08783494740771751
0.544973545440701, 0.33977366348906746, 0.2058019281497128
0.6857585394969764, 0.3397736602378407, 0.2398137845655141
0.4039419451136342, 0.33977367734209707, 0.06088208776209566
0.3799788188391735, 0.3397736915689142, -0.08794803194118382
0.36079876783021336, 0.3397736691166243, 0.14693071661813584
0.4929680477169077, 0.33977369168052984, -0.08911566949362788
0.4863227468081831, 0.3397736616596169, 0.2249402457165367
0.4904466764655516, 0.33977367060362434, 0.13137485521452263
0.564780406066163, 0.3397736677516683, 0.16120984610542527
0.4739889255079037, 0.33977366172046664, 0.2243036819641051
0.5201243716627844, 0.33977368057667123, 0.027044438240370422
0.6871299005430568, 0.33977366835074874, 0.1549427232952128
0.4083205371484857, 0.3397736585266495, 0.25771496347256384
0.5406825107894326, 0.3397736913255849, -0.08540250606539002
0.7396206834970394, 0.3397736654476913, 0.18531229841310679
0.6428048994050058, 0.3397736734385254, 0.10171828043705791
0.41220881796635805, 0.3397737007512135, -0.18400625023724565
0.7451478586687208, 0.33977366860391817, 0.1522942575917548
0.5252871208859416, 0.3397736897605509, -0.0690303124276238
0.8233363507095129, 0.33977366900727707, 0.14807462399488408
0.4192334955806606, 0.33977366214712623, 0.21984029471311187
0.5624015886443174, 0.33977367534173214, 0.08180838192734446
0.5409844923977736, 0.33977369095306786, -0.08150551685357174
0.7193043521779, 0.3397736555652988, 0.28869435763884466
0.6825702171385213, 0.33977367928958946, 0.040508907385109025
0.422193935867067, 0.3397736942114498, -0.11559222579422668
0.7313391599141866, 0.3397736652030978, 0.18787104831911777
0.528094293737786, 0.3397736629547534, 0.21139151463578
0.8803889857918672, 0.33977366220549876, 0.21922964544571047
0.611802263756708, 0.3397736885341841, -0.05620099729532578
0.7851771089053398, 0.33977366677897397, 0.17138543287239988
0.6421357067792335, 0.33977366952191945, 0.1426908273613205
0.41517038644594373, 0.33977367271158754, 0.1093229511024017
0.493370192753803, 0.33977369950016084, -0.17091869053865272
0.6335275769631356, 0.339773661065375, 0.23115675223593124
0.5690963303515243, 0.33977365549356364, 0.2894447966623028
0.6661760990445189, 0.3397736576274041, 0.2671221835715296
0.6693340949514236, 0.33977367738981623, 0.06038288702081471
0.44292268220722614, 0.33977367345685155, 0.10152656619986253
0.42311190459303766, 0.3397736601402895, 0.24083429138320167
0.36745924568648985, 0.33977367248168855, 0.11172797833994441
0.38957614238171356, 0.3397736983667176, -0.15906147130602158
0.5257954239858755, 0.33977366291920136, 0.21176343286812588
0.6657456196747702, 0.3397736565639491, 0.27824723941275936
0.3760195681314244, 0.33977366615808385, 0.1778807122112163
0.9096426309885102, 0.3397736552052749, 0.2924606535811433
0.6235575025772924, 0.3397736853267751, -0.022647529158932644
0.6446017882989429, 0.339773660914486, 0.23273523693210232
0.39707454165492595, 0.33977367351906845, 0.10087570082480624
0.5607089143781688, 0.3397736935954107, -0.10914769451677386
0.49012267999640247, 0.3397736679149925, 0.15950127265442116
0.5448322150596702, 0.3397736619181586, 0.2222355790402631
0.39476480579619044, 0.3397736896394529, -0.06776347808527869
0.6386817217180519, 0.3397736564958478, 0.2789596637622334
0.8022663488085734, 0.3397736710688598, 0.1265079163783136
0.3877174684040579, 0.33977369657172335, -0.14028360864801112
0.39015834283395046, 0.339773702336417, -0.20058944115216307
0.3761369780583238, 0.33977370667111284, -0.2459357257723301
0.7172566084534168, 0.33977366737317527, 0.16516935100229552
0.8381552948106311, 0.3397736963378369, -0.13783686695518213
0.9323226760350772, 0.3397736945434872, -0.11906574779542299
0.8072556620288563, 0.3397736741177846, 0.09461238812650172
0.6038279271168315, 0.3397737047866837, -0.22622226391831063
0.6926441039208892, 0.33977369368286475, -0.11006257137377291
0.8780029835875538, 0.33977369628699483, -0.13730499629705253
0.5888160185319053, 0.339773713017545, -0.3123272630928151
0.9494965159931851, 0.33977371096640496, -0.2908697991046908
0.4616725726515124, 0.339773704687618, -0.2251859142049542
0.521098036377425, 0.33977370873602897, -0.2675373053568288
0.7850783689823435, 0.3397736905323343, -0.07710412303949825
0.8609589382430548, 0.33977370143480706, -0.19115748473149313
0.7863137936753885, 0.33977367859127194, 0.04781417233161414
0.8729406144077039, 0.33977367198165714, 0.1169589259832945
0.8312004291414026, 0.33977367109228146, 0.12626289639823324
0.5163003088870735, 0.33977370860606065, -0.26617767580805096
0.8935046642677495, 0.33977369403328, -0.11372834913571234
0.7839526058014088, 0.33977370383879213, -0.21630614544258792
0.55504786267451, 0.33977370539690455, -0.23260592994770216
0.5533582169712352, 0.33977369607007524, -0.1350357483908616
0.6230489220617198, 0.33977370493555237, -0.22777961453986617
0.502007440814518, 0.33977370535484286, -0.23216591214772136
0.892095954560733, 0.3397737023048967, -0.20025969938105148
0.48246061299915, 0.33977371198353157, -0.3015102030286139
0.8704878530803408, 0.33977366827754807, 0.15570849254313288
0.9593676408542839, 0.3397736770286463, 0.06416117128233491
0.8514807660248404, 0.33977371358106156, -0.31822234419562573
0.455476993542145, 0.3397737101012145, -0.28181883570082594
0.9586298187096904, 0.3397736645134124, 0.1950860116750632
0.7575827019151815, 0.3397737051622481, -0.2301511327965559
0.7378004017523536, 0.33977370201273005, -0.19720327539007948
0.9173489134926005, 0.339773687135899, -0.0415732047717024
0.938645207234042, 0.33977366904281575, 0.14770284579289295
0.8621146531624653, 0.33977371303697756, -0.312530551873495
0.6883710471947884, 0.3397736929684385, -0.10258878897009019
0.9087753380533591, 0.33977369702953786, -0.14507291562322708
0.8859728527331514, 0.3397736645839136, 0.19434848212119044
0.956774618260723, 0.3397736966678813, -0.14128954010330733
0.9302345513042529, 0.3397736892259803, -0.06343804234490066
0.6785134834724471, 0.3397736860344316, -0.030050491810832247
0.8744067641903529, 0.33977369229820864, -0.09557735501410036
0.48680076845045533, 0.3397737086684508, -0.2668303537268755
0.8511273426529241, 0.3397736707280627, 0.13007307556321263
0.7126260013352841, 0.3397737142562778, -0.32528594215426554
0.3777049550018856, 0.33977371299538084, -0.31209539878040277
0.9011941569811814, 0.33977369391085693, -0.11244765162391925
0.8605031991337678, 0.3397736829704105, 0.0020029618325620724
0.8495198651310446, 0.33977370246467764, -0.20193120652025792
0.8657875118925974, 0.3397736926381148, -0.09913319345460198
0.4587684521655001, 0.33977371332273937, -0.31551997417292277
0.8813544474542727, 0.3397736773542629, 0.06075481846919577
0.9179775157731258, 0.33977369646459804, -0.13916294564223225
0.7650328944754224, 0.3397737067717297, -0.2469883031310768
0.5221239944025183, 0.3397737124085868, -0.30595680688197413
0.7296489119300305, 0.3397736832479018, -0.0008999410790211937
0.9703220507418123, 0.3397737111719114, -0.29301965114162193
0.9422100969864978, 0.3397737115495489, -0.29697020621381026
0.6457944299308476, 0.339773688855314, -0.059560414485742424
0.8143929760749553, 0.33977367716147416, 0.06277162679167578
0.8880141510508838, 0.3397737032095237, -0.2097232180177656
0.8947983927661913, 0.3397736930965365, -0.10392885193600729
0.6109055183380765, 0.33977369028491133, -0.07451577275480581
0.7287854235700633, 0.3397736983787858, -0.1591877194375791
0.7406785347763236, 0.33977369006970737, -0.07226447205441756
0.9269192798223679, 0.33977369018814524, -0.0735034789269202
0.7513221137282734, 0.33977367952268406, 0.038070448632647885
0.6582306231092973, 0.3397736899049796, -0.07054121575978518
0.633160826125247, 0.33977370655044026, -0.24467334141399286
0.8978158081724906, 0.3397736642583053, 0.19775474766196138
0.9016098478568394, 0.33977369141212477, -0.0863078202134385
0.8042803199469915, 0.33977369174065825, -0.0897446871568422
0.8287253903546794, 0.33977368455360724, -0.014559236389811075
0.6232708069800829, 0.3397736923106577, -0.0957075864267696
0.6765850989166903, 0.33977369349027375, -0.10804783162664541
0.8720978527632985, 0.3397737034239241, -0.2119661116088684
0.5369333060508165, 0.33977370014152775, -0.17762818215674972
0.6980432639525191, 0.3397737110858129, -0.29211895388871445
0.7317822373703209, 0.33977370748700886, -0.2544710088810898
0.8501061905292566, 0.33977367116410745, 0.12551150797517502
0.5759405699438671, 0.3397737125010576, -0.3069241659600454
0.5606043686917502, 0.3397737022209001, -0.19938099122939212
0.8078132248616718, 0.3397737064849504, -0.24398823687913784
0.6495936244465673, 0.33977369985334377, -0.174613421133912
0.6907670902916342, 0.3397736996864269, -0.17286726388314116
0.4654738162237232, 0.3397737104060703, -0.2850080047029323
0.8573576730289093, 0.339773710223733, -0.2831005307487364
0.8722201097692551, 0.33977368167179695, 0.015588067416066213
0.6420465307102746, 0.33977369856330686, -0.16111803787403628
0.41614778806398417, 0.33977371229458664, -0.30476422376793444
0.9192021499770637, 0.339773710639111, -0.28744589912493534
0.8935126416296091, 0.3397736687392177, 0.15087885598517584
0.778823074944838, 0.33977371370286324, -0.31949654029441893
0.9370399868073411, 0.33977370895673425, -0.2698461554205469
0.8597372807417619, 0.33977369679541214, -0.14262367081773974
0.9244177322212834, 0.3397736769777471, 0.06469364035190042
0.894504462176552, 0.33977366845754187, 0.15382553459793927
0.7261693376644275, 0.33977369562322857, -0.1303611791497011
0.8963853090727172, 0.3397737089475393, -0.2697499641473744
0.8131564743988061, 0.33977368626596693, -0.03247263803501263
0.7050644956823378, 0.33977368664548524, -0.03644286988908635
0.7897246731850511, 0.3397737048550257, -0.2269372067363952
0.7659941307700306, 0.33977370199980506, -0.19706806389555323
0.5699987715654994, 0.3397737066260862, -0.2454646914533381
0.829045268514683, 0.33977370493272546, -0.22775004210123523
0.7431342495197575, 0.33977368238710404, 0.008105069981433344
0.8845796789854053, 0.3397736988776371, -0.16440632160408777
0.9724580419724795, -0.5020496331607962, -0.24206656763053655
0.9737993681085764, -0.477529806343727, 0.28880116085062846
0.9453078727899169, -0.4774397611618042, -0.32871248724195573
0.44572741516417735, -0.5018201433482056, 0.2970675043641764
0.35419726230617943, -0.47757431122010224, -0.31161751551962025
0.9742547869682312, -0.5009080560567233, 0.036050633747084046
0.9742547869682311, -0.500682402980507, -0.05974697786818225
0.9742547869682312, -0.4915872803118754, -0.21224159956824137
0.9742547869682312, -0.492250854415623, -0.05702689201814795
0.9742547869682313, -0.4840717006664542, 0.12479764680583699
0.9742547869682312, -0.48189273179939396, 0.08629735259150595
0.9742547869682311, -0.47901985041308903, 0.1376190328281278
0.9742547869682312, -0.48115639385628517, 0.024106253039716016
0.9733773758777577, -0.47743976116180414, -0.287833009026919
0.3538751173873832, -0.48593331895472747, -0.029573999617088814
0.35387515567955036, -0.48036220256270534, -0.29662968769766396
0.35387509335290046, -0.4830282471891814, 0.13804632027407843
0.35387511474063993, -0.48895224778801116, -0.011115189615824889
0.3538750806620137, -0.4809377037217345, 0.2872909259502952
0.3538751541498469, -0.4995247364263769, -0.10141156502497002
0.3538750949675379, -0.48455595226897474, 0.24232151348035563
0.3538751342228298, -0.49448466239833994, 0.16669049928434895
0.6764555072878515, -0.4776163946955158, -0.33005437393060466
0.8042985665653559, -0.49269330588868765, 0.2972329479431888
0.917743639763422, -0.49237238014581164, 0.29723294878908807
0.8306444792500498, -0.49561157012336426, 0.2972329402511984
0.9709555526786502, -0.4877922091945631, 0.29723296086154904
0.6672281422626674, -0.48704366137643956, 0.29723296626370416
0.38958428398322975, -0.4892859241217122, 0.2972329708318788
0.3578077094092403, -0.4929550079072209, 0.29723295786283566
0.7990574682514688, -0.4774397611618042, 0.18832793880422244
0.8873772016725725, -0.4774397611618042, 0.05629183560708928
0.7272532813291451, -0.4774397611618042, 0.1828940204521195
0.7915868059998957, -0.47743976116180414, 0.26064227307693644
0.7363629662383818, -0.47743976116180425, 0.1627986291823466
0.7932437392382453, -0.4774397611618042, -0.11009272239930369
0.9383131042023871, -0.4774397611618042, -0.0061536387625406586
0.927938856118739, -0.4774397611618042, -0.2734636465481934
0.8242876780982623, -0.4774397611618042, 0.14552522497036946
0.8310442030599219, -0.4774397611618042, -0.1371425790933804
0.8124064130941346, -0.4774397611618042, -0.023621495814269006
0.7495259577787027, -0.47743976116180425, 0.25301948438103294
0.7918443739290016, -0.4774397611618042, 0.1666490052508542
0.8472489644991539, -0.4774397611618042, 0.13389677100763125
0.5173873345540043, -0.47743976116180414, 0.20647203548825552
0.5640119979839919, -0.47743976116180414, 0.2662045395034179
0.8345956610180426, -0.4774397611618042, -0.07376717459658763
0.9618014409888229, -0.4774397611618042, -0.019631814960580612
0.7522838237735119, -0.4774397611618042, -0.05034947249334398
0.916121355052962, -0.4774397611618042, 0.16873712844085376
0.9108166868132778, -0.47743976116180425, 0.2807765910351365
0.9616908763294758, -0.4774397611618042, -0.26000700683737893
0.918559180264459, -0.4774397611618042, -0.014485385127920969
0.944797948504895, -0.4774397611618042, 0.25165246772806715
0.9696763653990437, -0.4774397611618042, 0.28016514973131706
0.8687711129977136, -0.4774397611618042, -0.166821490484383
0.8566375327485154, -0.47743976116180414, 0.21803087995061815
0.7872929350887825, -0.4774397611618042, 0.1315934300476711
0.9168653462881253, -0.4774397611618042, -0.1353058403279032
0.5323291690434104, -0.4774397611618042, 0.18122674450706944
0.809942760595945, -0.4774397611618042, -0.030534786926261298
0.7881940833949692, -0.4774397611618042, 0.12464462140161964
0.9395684868535537, -0.47743976116180414, 0.18926799262273053
0.86379671811824, -0.4774397611618042, 0.05104055195104848
0.6759484692309194, -0.4774397611618042, 0.1992889115046857
0.9060381469265719, -0.4774397611618042, -0.19400792046915624
0.5332011947002886, -0.4774397611618042, 0.20026621900923078
0.9407437319647663, -0.4774397611618042, 0.16649758138473064
0.9701484522011975, -0.4774397611618042, 0.2864020749699779
0.855324392851496, -0.4774397611618042, -0.15180761117491834
0.7323434506550475, -0.4774397611618042, 0.0645911243930564
0.8596597184266039, -0.4774397611618042, 0.018552291186798714
0.9120691884637704, -0.4774397611618042, -0.04949718484312249
0.752002259741392, -0.4774397611618042, -0.036486350807447665
0.898990814566061, -0.47743976116180414, -0.17092486082935315
0.7394731706564592, -0.4774397611618042, -0.010798839337692157
0.8805926987564907, -0.4774397611618042, -0.11943053416433298
0.7783893358219102, -0.4774397611618042, -0.049846080091171
0.946674462572892, -0.4774397611618042, -0.1473437676436279
0.9673670743262822, -0.4774397611618042, 0.23131893820654645
0.8173724129915649, -0.4774397611618042, 0.019307158013416426
0.9381972155872953, -0.4774397611618042, 0.01880718845473614
0.880216799591794, -0.4774397611618042, -0.11860401600336945
0.8773036254037734, -0.4774397611618042, -0.005008858900090091
0.501823646607813, -0.4774397611618042, 0.26387811267830247
0.8585103910700282, -0.4774397611618042, -0.07140291092912544
0.9540514466324602, -0.47743976116180414, 0.2763353254028277
0.8260316778282774, -0.4774397611618042, 0.16911695307561914
0.7998668467729668, -0.4774397611618042, 0.037470164417178126
0.9018418143722534, -0.4774397611618042, -0.06357019549089071
0.6881689304592119, -0.4774397611618042, 0.11282346855952849
0.8950311532573146, -0.4774397611618042, -0.009093719477037965
0.6979804591549795, -0.4774397611618042, -0.012057335073368342
0.946488969626385, -0.4774397611618042, 0.03908178932730613
0.7654386080240554, -0.4774397611618042, 0.037533504069347856
0.8920483582285175, -0.4774397611618042, 0.0962002039651566
0.7514207806800677, -0.4774397611618042, -0.05207849392391159
0.8401714541550489, -0.4774397611618042, 0.22809535018810828
0.7767575680692028, -0.4774397611618042, 0.049070220662874
0.8856084962913588, -0.4774397611618042, 0.015275028866306578
0.8374064288893555, -0.47743976116180425, 0.11340362555488148
0.8686002864449075, -0.4774397611618042, -0.0027757414815678116
0.8565705393338139, -0.4774397611618042, 0.2750432698841041
0.6969076528903583, -0.4774397611618042, 0.25485316203945796
0.7696763400151543, -0.4774397611618042, -0.0014825153126538648
0.537286893936576, -0.4774397611618042, 0.2643487181572491
0.5607184469323712, -0.4774397611618042, 0.19939211655946493
0.8850231206437702, -0.47743976116180414, -0.1504246457309255
0.53032542166164, -0.47743976116180425, 0.2915843415441037
0.7537042779648297, -0.4774397611618042, -0.06460136288580008
0.9577735589670355, -0.4774397611618042, 0.006800533727345154
0.8642123529859329, -0.4774397611618042, -0.05673602454541549
0.868755832754825, -0.4774397611618042, -0.02168109328114018
0.6783876719031796, -0.4774397611618042, 0.03902144992555112
0.7203095985483567, -0.4774397611618042, 0.007793351375999291
0.895828789685374, -0.4774397611618042, -0.052412749774460254
0.8749216613939682, -0.4774397611618042, 0.21607937774430197
0.9588767517968674, -0.4774397611618042, -0.27805193966163366
0.80870531251433, -0.47743976116180414, 0.25230210141962056
0.9196479123266392, -0.4774397611618042, 0.04786117082789751
0.8822309614010126, -0.4774397611618042, 0.2438585325664126
0.9026695052963886, -0.4774397611618042, -0.03382864220461215
0.8354014359697177, -0.4774397611618042, 0.16155967956681067
0.9208718171186104, -0.47743976116180414, -0.15232471587651644
0.6047403958981454, -0.4774397611618042, 0.15321959590942452
0.8674454470251738, -0.47743976116180425, 0.1439450139803944
0.9502662155633645, -0.4774397611618042, -0.11524496875081107
0.5815660581448718, -0.4774397611618042, 0.20615497840458327
0.8826393627084883, -0.4774397611618042, 0.16726456927855976
0.8463987893946635, -0.4774397611618042, 0.0702308844255334
0.7687307824022491, -0.4774397611618042, 0.1073238992439799
0.7813167392700162, -0.4774397611618042, 0.17656529764750814
0.6759257116348734, -0.4774397611618042, -0.01478270465839926
0.780102267127985, -0.47743976116180414, -0.06742726006426478
0.7452673743761982, -0.4774397611618042, 0.07587352556784467
0.5137097951484195, -0.4774397611618042, 0.1232938478936593
0.6269299663749316, -0.4774397611618042, -0.17739895282195067
0.6012485971210075, -0.4774397611618042, -0.09972614036627339
0.6042354539969622, -0.4774397611618042, 0.02769002538624174
0.511640458083223, -0.4774397611618042, 0.0919425950662165
0.7787734055653317, -0.4774397611618042, -0.18205163437517066
0.442850341875657, -0.4774397611618042, -0.2889918298654614
0.43451402059548255, -0.4774397611618042, 0.09176588457141174
0.6437701979417605, -0.4774397611618042, -0.10406541464639467
0.4122489791335582, -0.4774397611618042, 0.09615124509303094
0.65385528142269, -0.4774397611618042, -0.17586346151605015
0.6927674224055236, -0.4774397611618042, -0.06749643962877502
0.6059393552261239, -0.47743976116180414, -0.23036395114712363
0.3793030885130978, -0.4774397611618042, 0.21955927846404616
0.42928797974119637, -0.4774397611618042, 0.12148026444918965
0.555961507509242, -0.4774397611618042, -0.18519082310645438
0.49874353490826506, -0.4774397611618042, -0.16339046658687556
0.49378636537507015, -0.4774397611618042, 0.15404466958445828
0.6063897773608901, -0.4774397611618042, -0.2475597131053735
0.37598853398049054, -0.4774397611618042, 0.26526738657621435
0.3589015156361268, -0.4774397611618042, -0.26075494547951344
0.3693609254188618, -0.4774397611618042, -0.037382988456006794
0.7417069760196323, -0.4774397611618042, -0.2980525681160816
0.4991527141204817, -0.4774397611618042, -0.04859729506401375
0.43815721433807353, -0.4774397611618042, 0.09820272876299847
0.5708386124870338, -0.47743976116180425, -0.1578847627194155
0.6848261592236419, -0.4774397611618042, -0.24983820325101394
0.3888163155388249, -0.4774397611618042, 0.18452770777376648
0.6372767059751399, -0.4774397611618042, -0.16865625856423394
0.5745289918703671, -0.4774397611618042, -0.09790428577891007
0.6550668898981715, -0.4774397611618042, -0.06768647404560826
0.4297758223805089, -0.4774397611618042, 0.07325101632076103
0.47214180803550626, -0.4774397611618042, 0.04627440034574912
0.6598852378666894, -0.4774397611618042, -0.21859493444059186
0.4430707554996588, -0.47743976116180414, 0.12352096136443394
0.6830077313865631, -0.4774397611618042, -0.0514334915791288
0.36389885745745404, -0.4774397611618042, -0.22516547427194575
0.614908564385964, -0.4774397611618042, -0.23310143708491526
0.7009521031394302, -0.4774397611618042, -0.306293046185846
0.7177906442112658, -0.47743976116180425, -0.31797347313228863
0.6031645266328771, -0.4774397611618042, -0.17725316537948807
0.4118362250860803, -0.4774397611618042, -0.17449691758494917
0.5603200542421152, -0.4774397611618042, -0.01500910404427408
0.3662504314078734, -0.4774397611618042, -0.2758227287888186
0.7345019477114928, -0.47743976116180414, -0.32510554500249017
0.4089450957622272, -0.4774397611618042, 0.13098068622016099
0.7616776984777486, -0.4774397611618042, -0.13193372951316706
0.5872449233272115, -0.47743976116180425, -0.17193924194385785
0.47674482318851097, -0.4774397611618042, -0.15971578595926833
0.48425956618765953, -0.4774397611618042, -0.12825737956099942
0.5406877679644311, -0.47743976116180414, -0.22398393087357985
0.4989007788829713, -0.47743976116180425, -0.2792388947029507
0.5670099332630969, -0.4774397611618042, -0.21735505761805907
0.46638187515568413, -0.4774397611618042, 0.01805853328082893
0.3833405144415247, -0.4774397611618042, -0.10693938061073244
0.6174289121621945, -0.4774397611618042, -0.007997556583964643
0.35678218425539615, -0.4774397611618042, 0.16427125359741662
0.70118821833952, -0.47743976116180414, -0.24562889884814817
0.4374853831073442, -0.4774397611618042, 0.0017323113349433372
0.43969577641197827, -0.4774397611618042, -0.25504049801012335
0.5669159409052659, -0.47743976116180414, -0.18884211374901927
0.44631075239697826, -0.4774397611618042, -0.02191656030796571
0.4402911730101963, -0.47743976116180414, -0.08144308176945779
