0.7048451457569271, -0.11226461735262452, 0.7560302412245893
0.8417887393673511, -0.1122644800779909, 0.2427748217684695
0.5895680314539636, -0.1122646272484018, 0.7930294252878629
0.7242262075678236, -0.11226454618046357, 0.4899249734324938
0.49730479155684326, -0.11226462250579773, 0.7752972476316233
0.8736212856995615, -0.11226460399656668, 0.7060934731434404
0.6117274907333876, -0.11226459544641154, 0.6741251200683096
0.8972587700684242, -0.11226452453741936, 0.40900403144825026
0.5505134226351743, -0.11226461921689034, 0.7630004097919224
0.9495438915503771, -0.11226443999054346, 0.09289212701872468
0.9240556265225562, -0.11226460373402834, 0.7051119111616582
0.8128757361173367, -0.11226456829334572, 0.572602805322264
0.7262809675800247, -0.11226457267144381, 0.5889719861211153
0.8333373290972248, -0.11226462344973513, 0.7788268071525103
0.6774863114960201, -0.11226463022965434, 0.8041760896600252
0.9309154269654281, -0.11226451419532743, 0.3703360564449303
0.5786596556713229, -0.1122645974806766, 0.6817309977135866
0.8778501819605669, -0.11226449531664648, 0.299750594603235
0.7280231375643291, -0.11226458402820436, 0.6314337303189164
0.8165511133812107, -0.11226459678002557, 0.6791115320100708
0.5961929045409804, -0.11226457723256245, 0.6060254259059176
0.4962661890583753, -0.11226461652308309, 0.7529285009979958
0.8100506112292933, -0.1122646233243588, 0.7783580190473512
0.620630162745074, -0.11226462168755985, 0.7722380429580201
0.818052139408773, -0.11226463044360707, 0.8049761520292484
0.8722657701131329, -0.1122645581592358, 0.5347124745621195
0.7251085819140349, -0.11226457560048342, 0.5999233586246744
0.6854000661587908, -0.11226454063799748, 0.46920223910782094
0.7885512546802778, -0.11226460485740876, 0.7093120020061012
0.6269213328151925, -0.1122646209580144, 0.7695103537904343
0.7624638316872542, -0.11226452379800958, 0.4062393446732421
0.620825092809616, -0.1122646086557384, 0.7235134223910346
0.8592634996320028, -0.11226454144418828, 0.472216645199177
0.8751726988995714, -0.11226455707651617, 0.5306643011825782
0.7427535727829389, -0.11226455246204599, 0.5134111698652504
0.8934589672735667, -0.11226450342223585, 0.3300565603276459
0.9186938925889172, -0.11226455088089844, 0.5074995687163193
0.7613471234576161, -0.11226455657681367, 0.5287958721606933
0.9310944367107328, -0.11226457397395591, 0.593842111293588
0.94353831148586, -0.1122645216855538, 0.3983412416925261
0.8990637978607005, -0.11226454331079776, 0.4791957359776573
0.5581721293506413, -0.1122646250632347, 0.7848592876610697
0.7209880408468662, -0.11226460954681275, 0.7268451386900135
0.8875969799675962, -0.11226458869658033, 0.6488884320463164
0.6353142701213528, -0.11226458907971043, 0.6503207082896245
0.8134849379947773, -0.11226460809404473, 0.7214134665904345
0.5489956917387251, -0.11226462030470781, 0.7670676445341593
0.7792413012282186, -0.11226462346048463, 0.7788669539547707
0.8346544914397565, -0.11226457715648432, 0.6057411736669466
0.7525875049120427, -0.11226453009288878, 0.42977523315115257
0.9388807273554072, -0.1122645424190929, 0.47586177720962053
0.7492379543288186, -0.11226452695342409, 0.4180370994692263
0.761892310236324, -0.11226456772497859, 0.5704776980522338
0.817010694115437, -0.11226452731612352, 0.41939325051130993
0.8170442177721347, -0.1122645558121059, 0.5259367553658137
0.9159038993550677, -0.11226454011266343, 0.46723825928193896
0.7764565896850136, -0.11226450913025456, 0.35139815056575563
0.9253651009371091, -0.11226446780374795, 0.196882776678916
0.8241506799660936, -0.11226460220856, 0.699408262073009
0.739255930784269, -0.11226457841409317, 0.6104431635441467
0.8048753632532288, -0.11226451138035833, 0.35981107713775895
0.5987347471082508, -0.11226462718479643, 0.7927916189089553
0.9173152478495761, -0.11226458283521898, 0.62697343792054
0.7946921090934452, -0.1122646159426922, 0.7507587252025265
0.8984125405896539, -0.11226460944917926, 0.7264802430631697
0.6614606121145468, -0.11226458848747688, 0.6481064303054216
0.882792121227844, -0.11226456101956632, 0.5454069605988346
0.5681872715531839, -0.11226458515574475, 0.6356493548804801
0.8198542797940599, -0.11226461803960064, 0.7585988677019224
0.8055747254093688, -0.1122645047140709, 0.33488652465194424
0.8433525271638687, -0.11226448607161935, 0.26518437444841747
0.6742756383516104, -0.11226455792534146, 0.533837805306175
0.6513477232076941, -0.11226456875068308, 0.5743126093496413
0.7378419687252353, -0.11226456206055513, 0.5492989900025791
0.8556194479435728, -0.11226458750903193, 0.6444482861842272
0.5751400604921193, -0.11226459520687518, 0.6732294885006852
0.8127144341598591, -0.11226449188478857, 0.2869191824745473
0.8716566586794599, -0.11226452126281446, 0.3967606043838986
0.5470396257880304, -0.11226463025167752, 0.8042583247974741
0.8072507820552814, -0.1122644992894247, 0.3146043398660982
0.9264248455468418, -0.11226455531866719, 0.5240919293574351
0.8602728254096057, -0.11226445169621985, 0.1366583777037492
0.547510781829021, -0.11226451983547028, 0.3914237711948958
0.47748921375711145, -0.11226460595211349, 0.7134047596731362
0.8313800820502593, -0.11226442849473206, 0.049910471629956446
0.5063397141906585, -0.11226453157687613, 0.43532363748542036
0.8418450033835158, -0.11226443541533497, 0.07578587329029902
0.5001212946466453, -0.11226460721931882, 0.7181427087874106
0.5382304255834186, -0.11226449325373963, 0.2920374978704272
0.7948162815080643, -0.1122644825317621, 0.2519491923679597
0.7105117510874935, -0.11226450089162036, 0.32059474516392983
0.47031104306200355, -0.11226456665713445, 0.566484998997543
0.45991674589855597, -0.11226458319632274, 0.6283232689340232
0.6434625193041414, -0.11226451179307659, 0.3613541257340157
0.8677011853979114, -0.11226445336248178, 0.14288835534710012
0.5381937971690054, -0.11226455940325919, 0.5393635369847234
0.6092364125722104, -0.11226443602509442, 0.07806567059890673
0.6709062328458613, -0.1122644476027507, 0.12135330735570228
0.5035352471471327, -0.11226450498497428, 0.3358993359275741
0.5993608044435473, -0.11226445736342702, 0.15784743233098342
0.787296614006303, -0.1122644690949713, 0.20171045548147737
0.9146592609193661, -0.112264435157379, 0.07482141220243288
0.6741125906726395, -0.11226451590570555, 0.376730813106788
0.6998625637962284, -0.11226447444647791, 0.22171916044126805
0.76924080360269, -0.11226443729764052, 0.08282360525185979
0.5845049233919271, -0.11226449428011681, 0.2958750189723569
0.7350217403459498, -0.11226447849208249, 0.2368452512910829
0.7247177204149231, -0.11226446645722514, 0.1918481945755082
0.6309003786814077, -0.11226451651439996, 0.37900665165472064
0.5640814562057287, -0.11226452367093756, 0.40576417861494607
0.8919956412876833, -0.11226443869407879, 0.08804475494630815
0.5769051614651177, -0.11226456072516858, 0.5443060207791519
0.6865554972135764, -0.11226446250311643, 0.17706419671358978
0.48520585118727383, -0.11226451966851592, 0.3907995388282656
0.5576136877191867, -0.11226458674868767, 0.6416051967308577
0.6256165944049978, -0.11226451338079205, 0.3672904232582387
0.47857089246063633, -0.11226446423273351, 0.1835310259423479
0.45842619454971945, -0.11226460415876999, 0.7066996361476672
0.5255127964897878, -0.11226446216153688, 0.17578704711505164
0.5672753534985084, -0.11226456580553298, 0.5633009634159111
0.6819359629516171, -0.11226451366079235, 0.3683373216691377
0.4965422807792085, -0.1122644458706907, 0.1148772972079182
0.47798216811249183, -0.11226444226034413, 0.10137859191283716
0.49834635351881035, -0.1122645195365623, 0.3903061798880735
0.7821609363360512, -0.11226448414290119, 0.25797306904806033
0.7186588938428013, -0.11226444446083846, 0.10960603652807926
0.5760888013070461, -0.11226456719600866, 0.5684998055559499
0.6850778870811532, -0.11226450299948404, 0.3284758207966318
0.6180888327555867, -0.11226449160318708, 0.28586626670350557
0.7846372897887145, -0.11226443458953163, 0.07269827511756935
0.6207077252701833, -0.1122644969354018, 0.3058028524093724
0.5292004709868787, -0.11226453740824527, 0.45712651112606784
0.5299758204064986, -0.1122645242190095, 0.40781335726434975
0.7238107171339097, -0.11226447801118355, 0.23504721982719998
0.4748449838756917, -0.11226443026252197, 0.05652000673566862
0.6007604437009393, -0.11226442937083676, 0.05318610576640667
0.7642535630960561, -0.11226445716364107, 0.1571004740286309
0.5315461184781118, -0.11226444993647719, 0.13007884605197187
0.48603244193859974, -0.11226458464079064, 0.633723984439152
0.8856631896207542, -0.11226443175018971, 0.06208228925944848
0.5655121801884935, -0.11226457768652612, 0.6077227365940812
0.7613599869881581, -0.11226447384251277, 0.21946100636924537
0.6051803128618566, -0.1122645271007704, 0.41858796492248085
0.5026978378742349, -0.11226460942822428, 0.7264015723946725
0.5877646277634938, -0.11226444328685933, 0.10521663701893537
0.5662781507981965, -0.11226443201802862, 0.06308367125131928
0.8775874798296209, -0.11226443981908185, 0.09225102033503296
0.9173254110359662, -0.11226443817714069, 0.08611198131073586
0.6241808597252314, -0.11226448094030542, 0.24599888357374938
0.6857353982099397, -0.11226451843367616, 0.38618262856001223
0.5175724682855085, -0.11226451601885586, 0.3771538507767241
0.49589226163336975, -0.11226445858063736, 0.1623984399606122
0.7981864353611589, -0.11226444018389482, 0.09361500757569641
0.6218947958262164, -0.11226454007855441, 0.46711052530957153
0.5359361122102402, -0.11226445132194765, 0.13525897379048835
0.47428889807582786, -0.11226450459844979, 0.3344541581624162
0.536915167831214, -0.11226458108279289, 0.6204210144150931
0.6850827022984664, -0.1122644685065945, 0.19951056435908257
0.7143365197948374, -0.11226449327641684, 0.29212230720371046
0.8915918810859477, -0.11226444056432733, 0.09503741589441823
0.7017097976100839, -0.11226448582826734, 0.2642744644390138
0.48408064627655356, -0.11226452208452606, 0.399832744384742
0.5018608809528845, -0.11226459009721726, 0.6541249869714413
0.7164822032253321, -0.11226447292379474, 0.2160260115574052
0.49329311301239276, -0.11226451476254645, 0.37245664021061003
0.6441111652393638, -0.11226447413038394, 0.22053731173561048
0.6394577538410691, -0.1122644850830426, 0.2614881405242116
0.7168061557678419, -0.11226446281350143, 0.17822469697339396
0.628142022464276, -0.11226444290390056, 0.10378479972554455
0.5288576764284704, -0.11226446541404957, 0.1879478475633324
0.7547080890339518, -0.1122645054178518, 0.33751784996480616
0.5734175782497275, -0.11226456002000207, 0.5416694775176847
0.5780493460319586, -0.11226452189623179, 0.3991287436351469
0.633600836822348, -0.11226445498298653, 0.14894722193428828
0.7228030571638794, -0.11226445988200985, 0.16726416163291752
0.5863722860738813, -0.11226456689192889, 0.5673628847701603
0.6019209567882269, -0.13401482487044372, 0.2621968578395174
0.7796805395234666, -0.13401482016662336, 0.24680813209009536
0.8416476858033604, -0.1340147850488706, 0.1319192838781026
0.5536009371438669, -0.13401493714059973, 0.6294922297368094
0.5115851060215675, -0.1340149624761765, 0.7123783767978838
0.6530867916906379, -0.1340148115669739, 0.21867412749559212
0.662627446266588, -0.1340148771474402, 0.4332226944651005
0.47893085900530735, -0.13401486012425232, 0.37753082685085215
0.5133430199018859, -0.13401481943368262, 0.24441033636144596
0.6643860107755353, -0.13401484470711267, 0.32709313720295846
0.6194944439663765, -0.1340148384597572, 0.306654723545726
0.688099728146924, -0.13401482989174435, 0.27862418758577284
0.4802613625156098, -0.1340149241400512, 0.586960536114109
0.7068021051622039, -0.1340148723958733, 0.41767778599697536
0.48716225342797675, -0.13401483971729455, 0.3107688181158197
0.6052811107097567, -0.13401475928021353, 0.047616345936328464
0.544441647449492, -0.13401494473257966, 0.6543296335539189
0.4593800397108722, -0.13401491581246322, 0.5597165721624824
0.7049829164224669, -0.13401478490122082, 0.1314362651147901
0.8220002547262204, -0.13401478528542293, 0.13269317550960794
0.6698827428100986, -0.1340148185980514, 0.2416765170204914
0.5469546986656534, -0.13401489703067523, 0.4982713449396525
0.5121756531008609, -0.13401487336872994, 0.42086054871234846
0.7161839475385572, -0.13401483748278475, 0.3034585117316646
0.6203068678737269, -0.1340147978317036, 0.17373876190799242
0.5544068282058716, -0.13401494308585432, 0.6489423179332601
0.5256550381333774, -0.13401492550319638, 0.5914201013430409
0.5381174297869081, -0.1340148456570213, 0.330200813622954
0.4858959521831622, -0.1340148440591083, 0.32497319931183954
0.615882714985865, -0.13401478128208763, 0.11959617080292731
0.5128578225219033, -0.13401487784491833, 0.4355045403584745
0.6690615861924627, -0.13401484007883002, 0.31195156342914343
0.6387905666931912, -0.13401475807858315, 0.04368516875080854
0.7151006351154561, -0.13401483675227624, 0.30106863013417107
0.5654097387943215, -0.1340147660009973, 0.06960360885743101
0.6751404776793921, -0.13401483808471995, 0.3054277683132481
0.8426956119031848, -0.13401476199746964, 0.05650589690134697
0.7112889801268119, -0.1340148042158947, 0.19462483014235848
0.6851116324899905, -0.13401475983779268, 0.04944047083574596
0.7387399573147789, -0.13401480771596286, 0.2060754092557035
0.7271758490053312, -0.1340147854403467, 0.13320002883611815
0.5666786789214634, -0.13401482353818256, 0.25783832895226116
0.8133779160036279, -0.134014809593838, 0.21221892505040252
0.47885708831955076, -0.13401479568703925, 0.16672244754419138
0.5915425896317732, -0.13401483221815574, 0.28623513154012387
0.6435419764335781, -0.13401479762702284, 0.17306913853581354
0.5162944856147892, -0.13401482401540846, 0.2593995967844707
0.8131944701844354, -0.13401475989542927, 0.049629010104674465
0.6263609249936473, -0.13401485030117555, 0.34539429685648454
0.6463336749401731, -0.13401483100388445, 0.2822625958085331
0.6182215305035019, -0.13401480865794815, 0.20915716350435862
0.7902387200891499, -0.1340147863227316, 0.13608676867261307
0.5672025328632866, -0.134014913463191, 0.5520308365122567
0.6194781842601241, -0.13401486783984756, 0.4027726178486489
0.49416228628345704, -0.13401481061129136, 0.21554760758215616
0.925612533106443, -0.13401475834664192, 0.04456208516466801
0.4960847528609391, -0.1340147951292889, 0.16489774683175756
0.5754269879651714, -0.13401491704255003, 0.5637408212855199
0.7665451808992823, -0.13401480649338185, 0.20207569243692008
0.5204455697062282, -0.13401488141123702, 0.4471718634510041
0.8530837740367776, -0.13401476441268817, 0.0644073589349808
0.6892821376598381, -0.13401480555530984, 0.19900677263661842
0.6440128876889342, -0.13401477524814506, 0.09985593241932122
0.6379033504751065, -0.13401477911930465, 0.11252055438085054
0.8340605684779763, -0.1340148020277529, 0.1874662352049978
0.6202063936902604, -0.13401480460735593, 0.19590552272725403
0.4909609933103742, -0.1340149728968079, 0.7464698051206812
0.6409442406805331, -0.13401483640920922, 0.29994628752697405
0.48126204543868834, -0.13401482887148983, 0.27528642615935617
0.7370012286054634, -0.1340147663916789, 0.07088170839376881
0.6621088342268477, -0.13401481263571338, 0.222170541024271
0.6604598811556592, -0.1340147775003141, 0.10722397191303058
0.8756024911091441, -0.13401476218673164, 0.057125068178633706
0.8536696916778606, -0.13401477721952657, 0.10630533547776203
0.621537032673937, -0.13401488003214013, 0.4426600880647371
0.5909814553017059, -0.134014834418645, 0.2934341019147931
0.4653102597151211, -0.13401484872297617, 0.34023119375349464
0.6949824187043142, -0.13401481360719109, 0.22534875573994256
0.6454313846840051, -0.13401484295152577, 0.32134968216242493
0.5774932925423609, -0.13401480547495778, 0.19874391643472533
0.8281677156567195, -0.13401480011805195, 0.18121858912269795
0.7811619903033813, -0.13401479344090728, 0.1593741068499573
0.5016235780042909, -0.13401494546917447, 0.6567394336155097
0.6113130025605711, -0.13401486019498599, 0.3777622129114713
0.6801541079297386, -0.13401482043885465, 0.24769876140982985
0.4975076119368918, -0.13401475957553854, 0.04858252850544201
0.4686532605341019, -0.1340149329144947, 0.6156664073163424
0.49701356972455446, -0.13401476198810275, 0.0564753086535983
0.5973047465578134, -0.13401489375271713, 0.4875473933335873
0.5805068984454969, -0.13401484941789304, 0.3425046176554612
0.8014352862594583, -0.13401478791478805, 0.14129522994090546
0.8565073556255909, -0.13401478107596843, 0.11892180643424806
0.46316609530238, -0.13401491493200185, 0.5568361144173912
0.7914926208442544, -0.13401482216890578, 0.2533586604017707
0.7937841714511434, -0.13401482282820798, 0.2555155879735503
0.8152426354345963, -0.13401499256014315, 0.8107993326592915
0.6201394717619597, -0.1340149868633436, 0.7921619005951954
0.8117643707389551, -0.13401486769312135, 0.4022926594354673
0.5543547101276247, -0.13401498348444252, 0.781107657735745
0.6441644524301031, -0.1340149346557466, 0.6213630071310734
0.5124207943601927, -0.13401498737587692, 0.7938385820908914
0.9215388243156378, -0.1340149141843179, 0.554390266073139
0.8868792325354785, -0.13401484686710752, 0.33415971500612734
0.5580424299165101, -0.13401496123706924, 0.7083246292777555
0.9328818058424397, -0.13401494857089669, 0.6668871268490596
0.6520691796963339, -0.13401493126676767, 0.6102758548774156
0.859392635137098, -0.13401487461049802, 0.4249231295820065
0.6751106030477696, -0.13401496392852807, 0.7171299237678549
0.933354628576257, -0.13401497048523692, 0.7385806298760186
0.9116231665531147, -0.13401490076060302, 0.5104741223641156
0.8053126667695325, -0.1340148466671134, 0.3335053606308559
0.7198271309857409, -0.13401492483683194, 0.5892401590822576
0.9252659284423871, -0.13401497953431982, 0.7681850029762899
0.8849452367076548, -0.13401479551047762, 0.16614476790433702
0.9129262479313327, -0.13401486329063309, 0.38788985386983643
0.8777651410167341, -0.13401484933021177, 0.3422178361741741
0.5973967752971784, -0.13401498623101166, 0.790093186639043
0.9342939886562439, -0.13401494075903828, 0.6413303699578929
0.715701629394377, -0.1340149085304544, 0.5358932918995382
0.8543951852136673, -0.1340148570168799, 0.3673650108651485
0.8828289843054385, -0.1340149789401501, 0.7662411218013961
0.6533226567882213, -0.1340149097345149, 0.5398323653779693
0.9189366962401102, -0.13401477360547903, 0.09448185465086625
0.8925087679972777, -0.13401497788823336, 0.7627997487040519
0.9118833256879731, -0.13401479595287963, 0.16759212312022698
0.5951144949344518, -0.13401495121231247, 0.6755283300820935
0.7239744971432, -0.1340148996651377, 0.5068901164169816
0.7160825267873597, -0.13401491728093426, 0.5645207821168037
0.9547881154270861, -0.13401493300632825, 0.615967134693869
0.916763370493264, -0.13401496035793958, 0.7054488217001466
0.8678641314127024, -0.13401480387294767, 0.19350285644211968
0.7720070554799725, -0.13401487995553701, 0.44240953299238955
0.9516410840122033, -0.13401491142219177, 0.5453539020749552
0.7000794340764771, -0.13401489571750547, 0.49397528485626685
0.7101021219464518, -0.13401492562519252, 0.5918192993048363
0.7690065466493261, -0.13401486878170085, 0.4058539489133063
0.9471937150492116, -0.13401493222912644, 0.6134244865174172
0.8106092706821402, -0.13401494067768852, 0.6410641298227018
0.7792030404122299, -0.1340149479902832, 0.6649875040745878
0.6615948223340454, -0.13401492509901314, 0.590097845882684
0.6904769021382805, -0.1340149541215778, 0.6850461680408606
0.755203529377542, -0.13401498536273324, 0.7872527141484814
0.7677784916767182, -0.13401488007289433, 0.4427934679799744
0.6643532837092753, -0.13401497433184334, 0.7511647114385209
0.8975798775685457, -0.13401484434314817, 0.3259025058557464
0.7609111518860774, -0.13401497737716742, 0.761127671126098
0.9367658590621433, -0.13401491369901164, 0.5528025829078447
0.5388833442454251, -0.1340149622826606, 0.7117453010097491
0.5550284922823377, -0.1340149474052807, 0.6630734644205175
0.9486681584376185, -0.13401489250220472, 0.48345652437466696
0.7059508638623734, -0.1340149681435443, 0.7309195168057198
0.5837431624262626, -0.13401497722106848, 0.7606168425935469
0.5768402360811605, -0.13401497717110747, 0.7604533878942067
0.7377051396818107, -0.13401487931367628, 0.44030963579272303
0.8453676637984552, -0.13401495426109966, 0.6855027457961038
0.9316803573853798, -0.13401484019293478, 0.3123249709290631
0.682901147350695, -0.13401495620598103, 0.691865357203299
0.8366520616383434, -0.13401495359735574, 0.6833312780083436
0.7949852002486799, -0.13401489502188646, 0.49169962188314276
0.6191798450900577, -0.134014968164326, 0.7309874336105211
0.8998197774451114, -0.1340149531094515, 0.6817351347717745
0.5056445640693779, -0.13401497171313936, 0.742597402817878
0.8809434055047194, -0.13401490623726267, 0.5283911737493845
0.8889821201674373, -0.1340149205211124, 0.5751212761848505
0.7906529936126212, -0.13401498674484041, 0.7917743534468358
0.7837404539475092, -0.13401495132488447, 0.6758967681960639
0.5578297859480931, -0.13401495244332712, 0.6795556054289361
0.7799370331915664, -0.1340148882850339, 0.4696597693863845
0.6514521542801999, -0.13401496885137973, 0.7332351794359822
0.6379446814130778, -0.1340149240645498, 0.5867135447232094
0.5841756166904244, -0.1340149858171843, 0.7887393256674334
0.9563830930648379, -0.13401478772591693, 0.14067737393287164
0.8813809144423455, -0.13401479346541006, 0.15945425759529186
0.8839628053410943, -0.13401495473894404, 0.6870660614907329
0.9517658532057783, -0.13401487698812295, 0.4327016855434702
0.7880632787053952, -0.13401484345191145, 0.32298670478595354
0.8694171794093334, -0.13401484507924213, 0.328310638841676
0.9482613202392071, -0.13401496990587253, 0.7366852320416959
0.9477276157986031, -0.13401478155089058, 0.12047556008498855
0.7117294321369887, -0.1340149718681981, 0.7431048519811955
0.8268945376906102, -0.13401486365300794, 0.3890753047101026
0.895392963528415, -0.13401496337619298, 0.7153231219349474
0.7314464991564285, -0.13401497715787894, 0.7604102372214245
0.8087661791383975, -0.13401492567573714, 0.5919847388350161
0.7352853382512787, -0.13401491351684441, 0.5522064511399036
0.6593058165891038, -0.1340149897535377, 0.8016173001667867
0.9028259860454939, -0.13401491510763058, 0.5574108993411011
0.899740008337925, -0.13401492889409383, 0.6025137759771035
0.5894672406736368, -0.13401495006142577, 0.671763160891438
0.5475966890709725, -0.13401497871779153, 0.765513392827639
0.9321556075511263, -0.1340149658578594, 0.7234420074094463
0.9452801265728106, -0.13401484265592878, 0.3203827498877419
0.7119180624441273, -0.13401493811427873, 0.6326777672678509
0.8387340564453964, -0.13401485287440135, 0.3538127397392957
0.6010174996011621, -0.13401497635493356, 0.7577832673080072
0.47074659526376994, -0.1271657948876021, 0.043960929218171116
0.46803794235520674, -0.12930993651908218, 0.13328031901728757
0.4588106181435224, -0.12055436438287033, 0.4375566496836063
0.4568220359283655, -0.11961232693051851, 0.5031312936188487
0.4506119168232816, -0.12585420344971993, 0.7079205987704702
0.46374289940116326, -0.13065806502973348, 0.2749148995372499
0.4479445680990257, -0.1186996649849327, 0.7958740711261996
0.450496882820671, -0.12622005965051142, 0.7117142563423758
0.8957291454058816, -0.12154646611711614, 0.03330020662882188
0.9237712936230458, -0.12715119240878878, 0.03330020296119326
0.48622791781502783, -0.12550153360048866, 0.033300260187429834
0.6764713166606035, -0.12679035916073925, 0.03330023530552246
0.9587854921459895, -0.12147198002469822, 0.5292566182978724
0.9587853322880133, -0.11810735467537961, 0.7616925101132794
0.9587855660225122, -0.1203738206861811, 0.4218390476674312
0.9587856525899795, -0.11752153567608008, 0.2959686535029349
0.958785750412244, -0.1216295891202455, 0.1537336156715873
0.9587856688110027, -0.12810923144425135, 0.27238304279520015
0.9587856351859209, -0.1277831796500761, 0.32127441541934654
0.46864358061366107, -0.11662858971017613, 0.8171101304064722
0.6948902414571784, -0.11877692802044229, 0.8171102366185121
0.9249808503134241, -0.13181907589635156, 0.8171103446351693
0.5866495257694007, -0.1277248108945754, 0.8171101858045369
0.943150023094667, -0.1295717523042177, 0.8171103531647407
0.9578540181113908, -0.11242214081400535, 0.35600431327256155
0.4632824048194012, -0.11264440549264423, 0.30889937874623835
0.6771417626524867, -0.13370558648601732, 0.034033732388032235
0.7909367064142621, -0.13369971320981267, 0.8163872467917099
0.45698398544546176, -0.13318552676166318, 0.5052936981190176
0.9587108343241433, -0.11355485680034863, 0.6415344377412675
0.9583447397744058, -0.13355049118743248, 0.5828502271541209
0.6566194798784313, 0.15056638193813687, 0.011606265531848313
0.8474241691183261, 0.07409547208742015, 0.01160630515906736
0.7911499253603921, 0.2881970376224085, 0.011606251093263511
0.8354998912341053, -0.30715272763688667, 0.01160638808813258
0.8475058554813155, -0.13418521497626684, 0.011606351249289947
0.8306848741822089, -0.059423407384627036, 0.01160633270686589
0.7522115829939036, 0.0017174866037287517, 0.011606309840415201
0.8513748000164202, 0.1470917852499259, 0.01160628947937859
0.8228353275405331, 0.13690882614893546, 0.011606288335654968
0.9030077868516229, 0.2892888410361824, 0.011606264164472663
0.5264064139750675, 0.2273192606847894, 0.011606233053557262
0.7094337823968824, 0.08032151629117174, 0.011606287358678458
0.6985861853249812, 0.21606217363024482, 0.011606256036074982
0.6553719328879392, 0.12606384923983835, 0.011606270804368497
0.5640060718518307, 0.14110796149910176, 0.01160625660206729
0.8724044410940139, -0.01708992010399671, 0.01160632830616114
0.9039016383684104, -0.4104949131222256, 0.011606419092629841
0.7710787392377598, -0.026135987515608194, 0.011606318248256614
0.5883280973422654, 0.22618813410301497, 0.011606240673418845
0.6254074628291683, 0.2596514094991511, 0.01160623768292675
0.8808698930942355, -0.2437876382203596, 0.011606379468804034
0.9245830353405655, -0.42414229187199465, 0.011606424573403716
0.7389737127609995, 0.27672905574312345, 0.011606247420714911
0.588559799241956, 0.17966654512212735, 0.011606250993538734
0.8766070084482589, -0.20396583447773664, 0.011606370151188945
0.9116530701545533, 0.24383072686868196, 0.01160627525064923
0.8065622637495504, 0.006571900292979077, 0.011606315234959221
0.7506059621487511, 0.10384945967217706, 0.011606287053408434
0.786295426134473, 0.23949644126856662, 0.01160626129013785
0.8072974089736198, 0.08552891359367179, 0.011606297853820375
0.7957424780646484, -0.11269274737200335, 0.011606340333628888
0.6637230186129407, 0.1427071886376049, 0.011606268116062
0.9060459285197917, -0.17398211105572123, 0.011606367021193439
0.9163112159269193, -0.29681647137844736, 0.011606395419074348
0.716792869643902, 0.2323211944731758, 0.011606254605759975
0.8501017778646377, 0.16474493330866952, 0.011606285422246584
0.8835665476869521, -0.12005639179074834, 0.011606352415159366
0.8395861488590567, -0.1648255339573354, 0.011606357085661146
0.6679688709237568, 0.045328813435677906, 0.011606290165598908
0.856622586431163, -0.14078967861680539, 0.011606353795504393
0.46099140332826355, 0.27981381187204213, 0.011606213654174571
0.6246062436073421, 0.14928292324165812, 0.011606262005748689
0.8785324025141705, 0.24146782810592074, 0.011606271831566487
0.8071192837631493, -0.18251242839801832, 0.011606357134706934
0.5994993365614293, 0.1791967435683491, 0.011606252399447639
0.9532854436331093, -0.4340301841441743, 0.011606430177040694
0.8678406683996085, -0.3455296072262396, 0.011606400427759405
0.9443662591109618, -0.2572430309325049, 0.011606390002725587
0.9412538179255052, -0.044668865990756146, 0.011606342601898773
0.5602802443996593, 0.17080964678125932, 0.011606249587368458
0.8423773962886512, 0.21033359101479976, 0.01160627441678937
0.7642869996656445, 0.0459723182150803, 0.011606301486529547
0.7343278101970415, -0.14330995828967807, 0.011606339798185329
0.9291277523394655, 0.008286821260997085, 0.011606329442676535
0.7970184000507592, -0.13817818932230963, 0.011606346123940823
0.903829046891413, 0.15900235345283964, 0.011606293087098611
0.7903630135928899, 0.048966429203836426, 0.011606303927542047
0.6184696069320669, 0.11631934967593213, 0.011606268568334155
0.6614299169289934, 0.08665242017042116, 0.011606280244835083
0.7077370196248043, -0.006043446560349691, 0.011606306264322283
0.9465144439122455, 0.1516939463019536, 0.011606299784229602
0.913573231850858, -0.0334735593572377, 0.01160633683061858
0.9277136436361033, -0.10762472353468455, 0.011606354918914524
0.9279593826595021, -0.3053024800812284, 0.011606398682844977
0.8833172133466066, 0.20346018687013875, 0.01160628080992911
0.6810326423206448, 0.27616764154276086, 0.011606240649067573
0.767331441387301, 0.2808551204846503, 0.0116062498828496
0.8370192085388908, -0.08689230252861788, 0.01160633953802849
0.8329158860231776, -0.18627967660563385, 0.011606361038363995
0.644558781317745, 0.223699914658531, 0.011606247916212557
0.9422369517533742, -0.2719455121908747, 0.011606393002117032
0.9419207506706311, -0.13455538300752606, 0.01160636256797458
0.7002740274988584, 0.15129282776614222, 0.011606270566673307
0.8889943598134877, 0.06347228650229525, 0.011606312456841324
0.8124736783297856, -0.1092061837713047, 0.011606341553517129
0.8225741868680039, 0.01867536343048032, 0.011606314462819924
0.8578728517208155, 0.023425399871570135, 0.011606317612981126
0.8551957161724072, 0.19866062849718039, 0.011606278524914795
0.9352099973988652, -0.06048789776283656, 0.011606345382432694
0.806808132333138, 0.025930796830571562, 0.011606310981214245
0.7508833439011082, -0.14416776787755703, 0.011606341958325782
0.8979754659776441, 0.284099431384096, 0.011606264713668029
0.761223856250915, 0.15509571982428955, 0.011606276979255934
0.929214605535279, -0.35950460506829574, 0.011606410824038746
0.8906398456550639, -0.3053383836367679, 0.011606394249204042
0.856042545770166, -0.1311284967662225, 0.011606351589008652
0.6075423258708105, 0.2463584939862591, 0.011606238497663011
0.8260272039706356, -0.13285782160531964, 0.011606348399332875
0.7612501977459044, -0.15436692416759604, 0.011606345448621705
0.8635512930223936, 0.06307456214899237, 0.011606309516728443
0.7794531569325103, 0.06711049648765258, 0.011606298614870177
0.939006380230617, -0.10859287662758757, 0.011606356477115883
0.6920762902321054, 0.03846872777482324, 0.011606294552484384
0.7051759464828311, 0.19029240421921162, 0.011606262521718695
0.8537131177400519, -0.22623351421397234, 0.011606372353025713
0.8227941787134057, 0.0730951029980546, 0.01160630244905327
0.6792058115645908, 0.28429453037861085, 0.011606238633635656
0.5569501938392791, 0.17695542112439194, 0.011606247831337204
0.8884940529385591, 0.15778175495445368, 0.011606291532052494
0.8127262568087652, -0.16278287041101216, 0.011606353437007758
0.8830696173345607, -0.09665016631268494, 0.011606347177569771
0.5018585653150077, -0.35825817020288775, 0.011606361693334916
0.558209812783712, -0.32999995145701533, 0.011606361738225305
0.6262707810373666, -0.3474626971323796, 0.011606373390118765
0.7924948430016733, -0.28007138863621844, 0.01160637711119121
0.5838099677631643, -0.19870125406994932, 0.011606335129548697
0.6542316538330637, -0.38161100364702244, 0.011606384240546871
0.8603597017676828, -0.44244713427759236, 0.011606421316059955
0.4639017627853767, 0.25741117125521035, 0.011606218987053826
0.4807938160539456, 0.05150760188378056, 0.01160626719008366
0.5738003351251801, -0.021072144441394963, 0.011606294063688186
0.6594330806019413, -0.336927477737909, 0.011606374786537688
0.6554985403383952, -0.4895838928798311, 0.011606408655774423
0.4811201399092101, -0.3515131572817019, 0.011606357822845718
0.728815291531838, -0.4452568599926113, 0.01160640701448589
0.6686299597176106, -0.4105673981983672, 0.01160639238422737
0.45646549667803094, -0.10819731429694457, 0.011606300328623417
0.6780812338930353, -0.20667845263825046, 0.011606347624613947
0.4845135057465594, 0.0829925486593, 0.0116062605347957
0.4548705034097732, -0.28902401159913793, 0.011606340795895377
0.4840225530951615, 0.17355951959782168, 0.011606240120359438
0.48830357072078434, -0.36418700795830244, 0.011606361487299044
0.7669627498509752, -0.4389298079720332, 0.011606409922790772
0.6443005295066353, -0.4764213822952318, 0.011606404425731489
0.5612655130947176, -0.27980946794098804, 0.011606350802710781
0.6324659371175502, -0.32748572677754817, 0.011606369602748013
0.4664398746930045, -0.06956515499704777, 0.011606292776745852
0.8246397844409566, -0.32312180408869734, 0.011606390437723024
0.4974550470071605, -0.1888497408362605, 0.011606323111831997
0.7364489694928079, -0.4179917640286235, 0.011606401752108874
0.6277536799890733, 0.0053733610990729375, 0.011606294243846876
0.4632538393059192, -0.054997283140714476, 0.011606289140324405
0.5650893010620337, -0.06803901489745029, 0.011606303632556809
0.5151701438653449, -0.4616732268319522, 0.011606386451336421
0.5575361599237155, -0.4937585781835838, 0.011606398473329208
0.6211152589562299, -0.030817918328078703, 0.011606301625739252
0.48384564327854773, 0.1868609919360062, 0.01160623711021586
0.4674681538165218, -0.20886309967134836, 0.011606324206498347
0.7352168428403774, -0.24571677705766773, 0.011606362886250174
0.6504021489691377, -0.2555566397121185, 0.011606355469840669
0.7496952896685933, -0.1873147263903549, 0.011606351401575982
0.66452634111391, -0.10371612792042509, 0.011606322940761306
0.628415951402259, -0.2980940209155367, 0.011606362535974564
0.555519232634036, -0.3807948533689813, 0.01160637285105721
0.4638675539022723, -0.0566846914974839, 0.011606289589309851
0.45170800231179953, 0.23683226487957204, 0.011606222228761565
0.9080112536845878, -0.47673391757873157, 0.01160643443294065
0.7216168042965612, -0.18621265737793707, 0.01160634796631581
0.9168337114195023, -0.48993774841763343, 0.01160643840259463
0.6065033385580529, -0.03429071482682386, 0.011606300747621444
0.6568707557757414, -0.23135197211324965, 0.011606350763161372
0.5290291559499367, 0.15020486583142828, 0.011606250479528511
0.47533233155066, 0.17055244111426593, 0.011606239809794854
0.6373725901960046, -0.14196788628531143, 0.011606328456892108
0.6373333474836096, -0.14850396109623643, 0.011606329921692495
0.5205426264358457, -0.3342683961080297, 0.011606358421684003
0.6940638994680635, -0.17306533387976164, 0.01160634188304746
0.5675051808564635, -0.2305198427915991, 0.011606340431151904
0.5556812034895875, -0.4617478599804272, 0.011606391067007539
0.5728944524964069, -0.41722678383004674, 0.011606383013121111
0.5302247523947397, -0.09559190921119057, 0.011606305868327147
0.7350418919390178, -0.1985633444320034, 0.011606352266689648
0.5090959177869284, -0.43083265268854526, 0.011606378829073723
0.4829426424130531, -0.4779631325836494, 0.011606386454643262
0.6502378103403007, -0.41497286079180706, 0.011606391286626213
0.5891334153307963, -0.37158685978733424, 0.011606374597124117
0.6604938671027836, -0.253798192193718, 0.011606356220187733
0.4527419885193524, -0.32529141166214975, 0.011606348706872344
0.8687327130873465, -0.40537782488761226, 0.011606413933707805
0.6570282051027058, -0.3681177948190021, 0.011606381524855604
0.5077828236459577, -0.413422148412996, 0.011606374766272064
0.7779915480069285, -0.4640580650385651, 0.011606416823424719
0.6084259358235984, -0.30205669758082365, 0.011606361157445934
0.46849085202959917, -0.26427041091533593, 0.011606336777700114
0.5305928663260777, 0.044211332257888786, 0.011606274483509383
0.8464003663849377, -0.40300401360772864, 0.011606410864883366
0.46179667063043034, -0.4969590287984665, 0.011606388324231049
0.6184447132968894, -0.38406933614398636, 0.01160638073055656
0.46788092613685633, 0.07300622423683903, 0.011606260891475675
0.7471505861221328, -0.47759762244693654, 0.011606416365878773
0.6671589061705412, -0.12766025502078437, 0.011606328622055979
0.6053900545015988, -0.4111950470681444, 0.011606385346200699
0.8093049570272474, -0.4096154979420219, 0.011606408139947145
0.4735983510400078, -0.012804736485012957, 0.011606280830119654
0.7852553170031462, -0.43496314461385066, 0.011606411107725584
0.5430909085063046, -0.4417266276714154, 0.011606385137126161
0.851831347050001, -0.48536654324388645, 0.011606429995830989
0.6267135418076971, -0.3026450857623418, 0.011606363365755271
0.4533281960476165, 0.22440254563130868, 0.01160622520678669
0.6936642590073346, -0.3286916362889002, 0.011606376821178866
0.5199407966605256, -0.043601171628858376, 0.011606293013786798
0.5559505974043744, -0.26438520152350947, 0.011606346732104327
0.5872773633439519, -0.2819211369744647, 0.011606354230312215
0.490331073730183, -0.2411161218804979, 0.011606334052152778
0.49493751589403323, -0.41607890575417733, 0.011606373905264738
0.5131086395905569, -0.2254849729598354, 0.011606333124153947
0.5736933822118924, -0.011118095135321998, 0.011606291813959129
0.6281913551117697, -0.004357912211752885, 0.01160629648104197
0.5349900424909048, -0.4775175434433312, 0.011606392263000516
0.6177168331982993, -0.3820215174392768, 0.011606380187593572
0.5865959543526365, -0.10737625715948604, 0.011606314916719006
0.6655796264540073, -0.2976206209795099, 0.011606366648450796
0.646953861622412, -0.057348060599386214, 0.03431688250525863
0.6103117701361065, -0.3773099571695045, 0.034316957755225
0.7160443792763199, -0.49107841803269847, 0.034316995819257054
0.6474673322291256, -0.22435603581628905, 0.03431692365277699
0.8138928582651994, -0.41788870150941565, 0.03431698712449459
0.8866966239064868, -0.4459889257621062, 0.03431700097139985
0.6597351861819292, -0.08388497526387613, 0.03431689025260403
0.5720650186572326, 0.0913979186155925, 0.03431683877037748
0.45262298270893925, -0.10545661976390212, 0.03431687584158457
0.5602666839163758, -0.048700987947213975, 0.03431687212367167
0.5355777232950103, 0.1434575147421266, 0.034316822485121204
0.7637969877388096, -0.39172146288958215, 0.03431697591533455
0.7015315670931617, -0.18346221119594341, 0.03431691873686099
0.7653200295998994, -0.47056197223746277, 0.0343169954620359
0.5332564909116548, -0.3679906641691404, 0.0343169481252838
0.6257068935434014, -0.4325596284235596, 0.03431697281729497
0.5857721756550796, -0.17332430706530438, 0.03431690522037895
0.763293776814518, -0.44715513044103267, 0.034316989508973744
0.6786279845354299, -0.3454272566538136, 0.03431695641379448
0.5253915286269625, -0.4274204634511255, 0.03431696200139632
0.4533052038511883, 0.054735936945735295, 0.03431683648510179
0.6142653535069654, -0.07644926091232981, 0.03431688409349779
0.5128087390584718, -0.15410896239069144, 0.03431689354473184
0.6118340694917551, -0.4418419327997588, 0.03431697378069968
0.4580639512518564, -0.36200255301161893, 0.034316939492460806
0.6169088616288997, -0.11131058029795692, 0.03431689292413748
0.5555827001234644, 0.04845196837562253, 0.03431684776954085
0.5073954102921246, -0.23383391862939235, 0.03431691264866004
0.5095552503165182, -0.12219467467514918, 0.034316885381243376
0.8706491216360098, -0.3775608971278127, 0.03431698260418234
0.48619849588794267, -0.01982444411159777, 0.0343168579653356
0.5401289196029464, -0.3791419039779395, 0.03431695152380492
0.7553792695825687, -0.39591347369593755, 0.03431697614547076
0.5873359980189612, -0.003450536069006971, 0.034316863565406065
0.49628709035376894, -0.3209842770643448, 0.03431693303765863
0.6259529543494239, -0.21753167558451308, 0.03431691992496101
0.5693647843126228, -0.2476665273119541, 0.03431692195291618
0.7169514047072725, -0.16025699845381797, 0.03431691449449205
0.465984590860211, -0.2528468708749869, 0.034316913384714924
0.48949232956423544, -0.31445765038291423, 0.034316930784593414
0.4831198652153411, -0.46579423045627544, 0.03431696741994948
0.7615133195587539, -0.35769552993615483, 0.03431696732453431
0.5305717017105862, -0.1793013885863469, 0.03431690143552604
0.7022237493613825, -0.28458832931395966, 0.03431694368867171
0.4583233733477309, -0.3911709791465462, 0.03431694669515549
0.7115984373051808, -0.18254863804089422, 0.034316919470527216
0.4691868059121487, -0.256594570913669, 0.034316914611867144
0.5431173287461616, -0.21616564001353872, 0.034316911701862116
0.7242410018986665, -0.26634362890066193, 0.03431694129517664
0.8789135201147135, -0.3843459403368309, 0.03431698506076765
0.47309376547351434, -0.034910861153428736, 0.03431686043019341
0.5701035932430748, 0.06162874373135192, 0.034316845909458105
0.8151197957129731, -0.3243053906389003, 0.03431696421159988
0.4825338822092073, -0.44270411542056015, 0.0343169616819607
0.9060170349514822, -0.4733298973250617, 0.03431700953921247
0.7364533622344704, -0.47242908835288344, 0.03431699317306129
0.7595869146545338, -0.42170641974022505, 0.03431698289341855
0.6727875262343119, -0.28671428196506493, 0.034316941409165164
0.48195765305225796, -0.04213698498141836, 0.03431686305240178
0.47083605371110543, -0.2248883243413091, 0.03431690696637375
0.6800341423546109, -0.09460788038857307, 0.03431689482408188
0.49877299186907353, -0.2917918179653062, 0.03431692609043708
0.806125034016811, -0.40249284953349285, 0.0343169825961738
0.4985336011187611, -0.4724179532797559, 0.03431697051753756
0.5534958741092477, -0.2120984770920355, 0.034316911689143456
0.567019406550442, -0.030419436682194684, 0.03431686826774373
0.47720662846043166, -0.04838220455087801, 0.0343168641369204
0.5057790929162037, -0.38249817809369285, 0.034316949079232155
0.6383005959519978, -0.17004795061751604, 0.034316909415436234
0.6993129407524658, -0.1517191541963065, 0.0343169107140415
0.44843521927169977, -0.10218884164958668, 0.034316874638699396
0.5150456569909304, -0.04059048163639602, 0.0343168658221966
0.5808642253095245, -0.10625555655529018, 0.03431688824828072
0.7116157745894243, -0.14715502526056531, 0.03431691076224065
0.509070297426959, -0.3773638994469413, 0.03431694812911039
0.6174517335451886, -0.057957431194377046, 0.034316879846264754
0.5670229708521558, 0.008819618738467372, 0.034316858611829176
0.7413334691382691, -0.17570260961347606, 0.03431692061693071
0.4815398100024098, 0.07866508610619194, 0.034316833284698874
0.610174338164909, -0.47703173761005246, 0.03431698228245619
0.5543533378114187, -0.24216944725078937, 0.034316919170883906
0.7068194094962187, -0.4554109102484732, 0.03431698616359098
0.536203961786864, -0.3088306176217248, 0.034316933847350635
0.678901144031898, -0.33791888882041005, 0.03431695459208458
0.5400299565912884, -0.3872126493220499, 0.03431695350049466
0.5443600770613952, -0.03486132480805647, 0.03431686720340137
0.7433083190882503, -0.41668356641170545, 0.03431698010744009
0.7626321382784158, -0.4438184953552824, 0.034316988624872626
0.47425418808402214, 0.1348227921604857, 0.03431681877129334
0.6849214333511024, -0.27058366058199795, 0.034316938594907476
0.6627461138270885, -0.05596523264706038, 0.03431688366857124
0.4988598461279858, -0.05454975476015792, 0.034316867716322606
0.5185684257521824, -0.3387892837392146, 0.03431693954070149
0.5146255576530259, -0.07632959110192838, 0.03431687457715798
0.5079586840012517, -0.1648749078390174, 0.0343168957323172
0.8071811839214159, -0.4246743095898276, 0.034316988155319125
0.6969942136940627, -0.2524731454018382, 0.03431693528760203
0.643096480513006, -0.26976748114034504, 0.034316934411824
0.5641000403169134, 0.05657266653820105, 0.0343168465820877
0.645503280320141, -0.2877170233224413, 0.03431693905814374
0.8075478538856949, -0.2965612645861818, 0.03431695666316949
0.8613252307556712, -0.1483958423256247, 0.03431693102819321
0.8765309122221324, -0.36090452136260487, 0.03431697940579927
0.8130810602934695, -0.12141506958534302, 0.034316918441203444
0.5713749700042995, 0.2821738277249659, 0.034316796947889264
0.7715296945530237, -0.11217282782905642, 0.034316910647110954
0.7662665152750734, 0.07443809811496604, 0.03431686929082229
0.8025439517876775, -0.14209154712165661, 0.03431692147602536
0.8168532702906828, -0.1742358741463308, 0.03431693046484661
0.899747394457635, 0.10325960652760319, 0.03431688159124672
0.6299153537774387, 0.2712754217850892, 0.03431680746664069
0.9507531902389498, -0.07404193778898051, 0.034316927286307634
0.931372219198965, -0.15564811153181277, 0.0343169423544193
0.7150013446960928, 0.11927432254806619, 0.03431685239643603
0.7683085078627222, -0.04860497105690409, 0.034316896360588316
0.915708042038046, 0.15328120827641672, 0.034316872922915666
0.5883391737608696, 0.11268338476596328, 0.03431683620543688
0.5752488066565989, 0.15825127810252557, 0.034316824464024065
0.8921944409274553, 0.19038416688128482, 0.03431686157380414
0.7354356569237812, -0.04870337319036799, 0.03431689180755561
0.8540831707708271, 0.031386079175208866, 0.034316890883157675
0.7893728898257137, 0.09513070973476628, 0.03431686800157677
0.9457990106189339, 0.1758076640038186, 0.034316872206403295
0.6083695951294468, 0.26921999826240406, 0.03431680491587053
0.9389255552046977, -0.21927932328462557, 0.0343169572575784
0.5714140268504446, 0.15910621626987062, 0.03431682374427746
0.8332368382548705, -0.05815628251629232, 0.0343169074750078
0.6308057920190824, 0.11593697811695006, 0.03431684140663685
0.6598616860026503, 0.03257610306526301, 0.03431686359701462
0.7291385262781902, 0.12361230192256152, 0.03431685341936196
0.6505513045747963, 0.004182099805789263, 0.03431686848259401
0.7391529324005395, -0.07198294516134968, 0.0343168973926358
0.8807563432763925, -0.10350543858023939, 0.03431692395982385
0.57836211750173, 0.14646650196257766, 0.034316827462722785
0.7039853862091876, 0.0821252645409103, 0.03431685895058799
0.8262145134048213, -0.16822064947649987, 0.03431693045804758
0.8543620118261883, -0.20033583165900837, 0.034316941366189846
0.9259329785798133, 0.15554836203680789, 0.03431687385223343
0.9070645098873441, -0.20010367513752345, 0.03431694864951936
0.956925104504364, -0.2997780286911626, 0.034316977286325365
0.9098233255030008, 0.09591639276862524, 0.03431688459193887
0.9378963200005501, -0.17116237512348528, 0.03431694663963306
0.8850090811347393, -0.038651380951472296, 0.034316910433345726
0.5254864406833849, 0.20611756166767953, 0.03431680711913952
0.9153277039965344, -0.3296440276914724, 0.03431697799941574
0.9237351732989322, 0.11557010268947489, 0.03431688224938145
0.7208818601460715, 0.05823187312050185, 0.034316866503256785
0.6951649530188624, 0.2560157906735031, 0.03431681986842769
0.8098938311732751, -0.2422859491008132, 0.03431694431042153
0.9305150612602525, 0.28398919524445276, 0.034316846529191904
0.6106993218334604, 0.04252873362959658, 0.034316854589159444
0.7859988782317323, -0.09395343766227578, 0.034316908694351486
0.8129376662629165, -0.11892794102683991, 0.034316917879818915
0.9013929535068304, -0.021829697889834472, 0.03431690905129766
0.9125437107398736, 0.2840871264039884, 0.034316844007051886
0.7207946000937677, 0.14768651756904516, 0.03431684701746726
0.7713739616656909, -0.007151687110854607, 0.034316887763076294
0.9484293491092531, -0.26426076663175974, 0.034316968372232026
0.6594249755535855, 0.18104521199544904, 0.03431683121556324
0.8825707460311027, -0.2380336940904094, 0.03431695349816366
0.9251491963256006, -0.2775908847412932, 0.03431696803453222
0.9411110864475286, 0.15504775114094382, 0.03431687607333754
0.5611864667324045, 0.2698362991565937, 0.03431679821589116
0.8392315166923292, 0.23513499125264925, 0.034316844461756285
0.6066044409551117, 0.17678304988636417, 0.0343168247931121
0.8376927742996217, 0.03758253074824795, 0.03431688725341189
0.5734891791659437, 0.20344355127459135, 0.03431681438112143
0.8938615565792267, -0.2869727169160878, 0.034316965723028565
0.6715378830695624, 0.00985182918678687, 0.03431687016874195
0.9062773698372314, 0.09569740821409159, 0.03431688414616929
0.9380211719716895, -0.12759657523032236, 0.03431693717303881
0.7713482179026334, -0.050337492021755956, 0.0343168971607398
0.7863326702148259, -0.16755110827988956, 0.03431692476249575
0.6819455546280723, 0.16951958700265712, 0.03431683685848422
0.6767695691441414, 0.048445361137923, 0.03431686249522202
0.9305329319140827, 0.25897380445081974, 0.0343168519773533
0.8501062922994241, 0.08603476065320967, 0.03431687843311772
