-0.9289750855714716, 0.2099948301887844, 0.11898363493698935
-0.9289750757746633, 0.08799362683498627, 0.00941307307916242
-0.9289750650188815, -0.04532965494494351, -0.11088295121843644
-0.9289750626391569, 0.04607657382331154, -0.13749855502679348
-0.9289750871022961, 0.4241843831345708, 0.13610481964834814
-0.9289750527726343, 0.2314513515001237, -0.2478488804426961
-0.9289750608731475, 0.2767229053057411, -0.15725019971199702
-0.9289750627898943, 0.030972183173989892, -0.13581265909617452
-0.9289750600495043, -0.1214081747107432, -0.1664620144798648
-0.9289750817065325, 0.3458257205014277, 0.07575691880545218
-0.9289750861007109, 0.26708586781506916, 0.12490280321858613
-0.9289750642859498, 0.3594885665028322, -0.11908036035891655
-0.9289750530322333, 0.162291085945925, -0.24494543234707422
-0.9289751007112981, 0.40427456020558067, 0.2883121823019025
-0.92897509678435, 0.3652121066158139, 0.2443919667703327
-0.9289750737644883, 0.31811360868824695, -0.013069398331679777
-0.92897508236082, 0.3738443149609155, 0.08307467070814759
-0.9289750684429423, 0.4622277529930471, -0.07258726702635943
-0.9289750609964788, -0.20338591583572557, -0.15587074042711246
-0.9289750515921085, -0.19657203530109577, -0.26105217722853796
-0.9289750735364334, 0.32931342486180487, -0.015620037624083594
-0.9289750477374563, 0.0024988889077957287, -0.30416385346795927
-0.9289750499107782, -0.4478925299543467, -0.2798566587063557
-0.9289750493277034, -0.09370449509484678, -0.2863780140799328
-0.9289750628349244, -0.03483176262246809, -0.13530901627719033
-0.9289750648564556, 0.3654132204880757, -0.11269964431117512
-0.9289750630202336, 0.26256574804223465, -0.13323651246858614
-0.9289750469436128, 0.3352917371895202, -0.3130425068783032
-0.9289750504314183, 0.12110282191727761, -0.274033757199615
-0.9289750755832619, 0.4191005468000477, 0.007272320883543487
-0.9289750483033555, 0.05113294630807097, -0.29783466729536096
-0.9289750859573472, 0.3263275124845509, 0.1232993690878536
-0.9289750633922316, 0.04986447052647763, -0.1290759315777375
-0.928975059488307, -0.09542092654550952, -0.17273862657272301
-0.9289750701018066, 0.01907698880374184, -0.05403392901783016
-0.9289750530224634, -0.17884324906492727, -0.2450546400778844
-0.9289750751466354, 0.0065162196248268744, 0.002389024394517991
-0.9289750516349546, 0.05669312829443105, -0.26057301724509807
-0.9289750468414922, 0.3684501691505497, -0.31418466264726275
-0.9289750719151004, 0.0522401518094508, -0.03375348563496469
-0.9289750502167846, -0.16815369828913362, -0.27643423713751286
-0.928975087679895, 0.4469834320438457, 0.14256486363981305
-0.9289750882535472, 0.4616726154609995, 0.14898077027332357
-0.9289750571571767, -0.021099884970440783, -0.19881073324224108
-0.9289750952219347, 0.43120524623283885, 0.22691740937587226
-0.9289750750648964, 0.4598654690529788, 0.0014747502356054765
-0.9289750697318504, -0.017808812990091544, -0.05817162796310593
-0.9289751010994454, 0.4240632347157912, 0.29265334079973193
-0.9289750603717954, -0.08649915487967079, -0.16285741400686954
-0.9289750606464576, 0.07895084919651106, -0.1597855361141512
-0.928975068959764, -0.021188563195163573, -0.06680688541943974
-0.9289750506557531, -0.15980934889109435, -0.27152467272838154
-0.9289750851213274, 0.14313162686148614, 0.11394909447520515
-0.928975050338775, -0.3904448205801753, -0.2750698188442189
-0.9289750683990187, 0.3119393873206272, -0.07307849717037793
-0.9289750812808476, 0.44784697867389756, 0.07099590564219868
-0.9289750492067148, 0.38650720888461904, -0.2877312725152624
-0.9289750961864237, 0.39265721827809624, 0.23770456642009066
-0.9289750743385212, 0.05262007873480501, -0.006649185525349072
-0.9289750521223634, -0.3440346470082963, -0.2551216115474908
-0.9289750645093686, 0.09815692439368845, -0.11658152753026647
-0.9289750670278897, 0.3941032153717855, -0.08841364788560928
-0.928975066788617, 0.16501500506776973, -0.09108970921101081
-0.9289750605604514, 0.07183290792287662, -0.1607474564278646
-0.928975069185763, 0.10946552002498468, -0.06427926455023161
-0.9289750553480746, -0.34928865056169117, -0.21904424363543343
-0.9289750512293459, 0.46558249263693235, -0.26510954453809354
-0.9289750763650979, 0.08591349930647166, 0.016016679827870972
-0.9289750556394545, 0.2523348284075219, -0.2157854655065441
-0.9289750533291381, -0.12277452224972119, -0.24162470093865696
-0.9289750854259118, 0.3224775636436857, 0.11735562874192645
-0.9289750530670783, -0.1657119203819694, -0.24455565520552036
-0.9289750901991793, 0.26612770281545906, 0.17074136500469972
-0.9289750572856059, -0.19293649248741016, -0.19737431054470383
-0.9289750840930241, 0.21266182522625499, 0.10244821276027763
-0.928975079965286, 0.23357348961800745, 0.05628228870057672
-0.9289750828587049, 0.27164756834355125, 0.08864318769913318
-0.9289750763094029, 0.19306971581931232, 0.015393749160846626
-0.928975070643603, 0.43530388530456177, -0.04797438194202383
-0.9289750520154044, -0.11899222819193178, -0.25631791452170566
-0.9289750608429057, -0.23722201388935465, -0.15758834348359954
-0.928975087913041, 0.33672159406047214, 0.1451724607273639
-0.9289750690957603, 0.2429978276715212, -0.06528590555365918
-0.9289750602549237, -0.010770776380475341, -0.1641645579355782
-0.9289750611002533, -0.18841038200228896, -0.15471009570689734
-0.928975055999974, 0.23793298631711657, -0.21175329912786361
-0.9289750522738279, 0.4664620273156244, -0.2534277283914383
-0.928975050261207, -0.427145724065862, -0.275937356633524
-0.9289750598913786, -0.16136738774439927, -0.1682305354052161
-0.9289750537640643, 0.00019730039080642636, -0.23676037274630915
-0.9289750851055171, 0.3776888820229981, 0.11377222379612682
-0.9289750874788839, 0.2432163173546901, 0.1403167287754909
-0.9289750940418223, 0.4159875445628016, 0.2137186659126714
-0.9289750489725299, 0.09561338616800817, -0.29035041825946284
-0.928975052130931, 0.24139837281616802, -0.2550258924414379
-0.9289750677413426, 0.23353771886388533, -0.08043413792200485
-0.9289750577560414, 0.22839306274596763, -0.19211288701040063
-0.9289750661728761, 0.04160646139436813, -0.09797632773776664
-0.9289750601358209, 0.44206909458659943, -0.16549672127716064
-0.928975087649018, 0.2702181799284952, 0.14221955728774452
-0.928975046113236, -0.43688033966612244, -0.3223295678342971
-0.9289751016720897, 0.4778558305973344, 0.29905796622269265
-0.9289750595851533, 0.44042251167557345, -0.17165556183928032
-0.9289750566877517, 0.17220433547263578, -0.20406096437851606
-0.928975055279352, 0.2837370198743546, -0.21981297078682419
-0.9289750748819386, 0.1065755484733589, -0.0005714449397020427
-0.9289750566766254, 0.38204359595809156, -0.2041854426880254
-0.9289750744948562, 0.02891151060731978, -0.004900682568263037
-0.9289750787376105, 0.06580921565536929, 0.04255160953871995
-0.9289750547648754, -0.30999583233517686, -0.22556693279128423
-0.9289750605757497, -0.03441826065146823, -0.16057633457227316
-0.9289750580779348, 0.15723418557919538, -0.18851271879114734
-0.9289750799452988, 0.07206374227552872, 0.0560587740922843
-0.9289750833896402, 0.23041661751091053, 0.09458134439537735
-0.9289750470635708, -0.27038086648138776, -0.31170075167410766
-0.9289750600958148, 0.20307969876518817, -0.16594412036854095
-0.9289750610039673, 0.1562683390620032, -0.15578704815512467
-0.9289750466074747, 0.26821261022736026, -0.3168019716981482
-0.9289750563436403, 0.19987385998178447, -0.20790961984085216
-0.9289750571812454, -0.0012451493525963558, -0.19854154503237048
-0.9289750469842117, 0.1676625780687917, -0.31258840672811633
-0.9289750967956719, 0.4419979130678401, 0.24451858159231685
-0.9289750787610883, 0.23391314923649553, 0.04281416255227943
-0.9289750738426281, 0.3490427211981858, -0.012195463240437826
-0.9289750765784524, 0.06903947984180583, 0.018402905191750946
-0.9289750510204702, -0.0903058695608358, -0.26744557724849355
-0.9289750709254643, 0.23378566261486883, -0.044821919393615434
-0.9289750608775325, 0.21040843529381564, -0.15720114525139303
-0.9289750735625832, 0.3864714074485863, -0.015327580140697156
-0.9289750606051838, -0.006417533554441107, -0.16024714057282646
-0.9289750751295329, 0.032206202747813856, 0.002197740307188084
-0.9289750547882367, 0.13130697922834325, -0.2253057305662807
-0.928975058865305, 0.3084784939355786, -0.17970654860848084
-0.9289750705277414, 0.3193926691249384, -0.04927019286661777
-0.9289750894644216, 0.4612665954211128, 0.1625235693811296
-0.9289750505700174, -0.28390470048637373, -0.27248354852083695
-0.9289750738623987, 0.056078734408500946, -0.011974290499574936
-0.9289750557094334, 0.4099581993489067, -0.21500282599535886
-0.9289750465447945, 0.047193413961511214, -0.31750296700024094
-0.9289750841710587, 0.47738046140196744, 0.10332093181723816
-0.9289750495170164, -0.28396767311375526, -0.2842606426682098
-0.9289750458308321, 0.41641601329059835, -0.3254882114986606
-0.9289750563074691, 0.09337178120292483, -0.20831415108361617
-0.9289750460578924, 0.19790702332103938, -0.3229486600664347
-0.9289750914819492, 0.3305793815685622, 0.1850882549318023
-0.9289750556385419, 0.28354489205693134, -0.21579567528426374
-0.9289750580459003, -0.10416927232680732, -0.18887095534459336
-0.9289750488953045, 0.3191795523503426, -0.2912141718093933
-0.9289750673251274, 0.3239443128233562, -0.08508923665109139
-0.9289750518038355, 0.021604794036622715, -0.2586841930104895
-0.9289750590814336, 0.4757432161815184, -0.17728932618973667
-0.9289750749730359, 0.155012868350801, 0.0004474071329555185
-0.928975061919485, -0.12095412531466598, -0.14554756323344592
-0.9289750970939827, 0.35371635211186087, 0.24785499843457032
-0.9289750644076606, 0.45822723282094135, -0.11771912681889705
-0.9289750962806745, 0.39565975927359365, 0.2387586961769217
-0.9289750498012153, -0.08636340568608912, -0.2810821083710052
-0.928975066260664, 0.3647804932017295, -0.09699453913044585
-0.9289750593025654, 0.3529952788078904, -0.17481609740975315
-0.9289750797393503, 0.15147155902111892, 0.053755366780483343
-0.9289750938603276, 0.3033894165679676, 0.21168879216657463
-0.9289750728987229, 0.21244124202870054, -0.02275237224894522
-0.9289750563962369, -0.03347198493588406, -0.20732132164289777
-0.9289750550246272, 0.2610278019319273, -0.2226618887954691
-0.9289750551618221, -0.18838972684660293, -0.22112737639479513
-0.92897507039292, 0.18098636496197426, -0.0507780527621734
-0.9289750531679588, 0.10196541531798761, -0.243427421658862
-0.9289750579219381, 0.14299976902305922, -0.19025743034422998
-0.9289750643856949, 0.037921410590976395, -0.11796472443966927
-0.9289750478077395, -0.44095431060055684, -0.3033777061768701
-0.9289750479196364, 0.38524541021533115, -0.3021263627867391
-0.9289750881071235, 0.4697360925686283, 0.14734311745378587
-0.9289750495230149, 0.29397577152101934, -0.28419365499694327
-0.9289750666166793, 0.06635635036681439, -0.09301269753656694
-0.9289750575545288, -0.14210518191171997, -0.19436660120206456
-0.9289750973574702, -0.07611919402814504, 0.2508019897595165
-0.9289750891686925, -0.5138774562757858, 0.15921619163054268
-0.9289750939431356, -0.20396776173352366, 0.21261501748696593
-0.9289751052657065, -0.2758070001927158, 0.33925021621321566
-0.9289750757781925, -0.2513111660414667, 0.009452597173385563
-0.9289750909071883, 0.08266771916296137, 0.17865998835500835
-0.9289751028237994, 0.14808962674994242, 0.311939096668234
-0.9289750796896903, -0.12746712006006267, 0.053199997305223595
-0.9289751029717226, -0.08675407056842101, 0.31359355250332815
-0.9289751010464596, 0.14472351073057418, 0.2920607717702951
-0.9289750999446613, -0.3551479258164769, 0.27973798858219173
-0.9289750654504058, -0.28250114672053506, -0.10605660858402544
-0.9289750637592176, -0.5281108204823257, -0.12497135133471812
-0.9289751003803202, -0.04281231570067311, 0.28461048631744823
-0.9289750942368858, -0.024387575029478414, 0.21590038600446046
-0.9289750854091838, 0.056564225390058565, 0.11716858301664242
-0.9289750899743432, 0.06318545953586593, 0.16822675773858764
-0.9289750887388777, -0.266362315902648, 0.15440897143588017
-0.9289750849163734, 0.12222101862086379, 0.11165682641289046
-0.9289750782006554, -0.09605461866317191, 0.036546158704543835
-0.9289750823461442, -0.32688055962810203, 0.08291064236828405
-0.9289750502395313, -0.5308905132820351, -0.2761797679604693
-0.9289750956967517, -0.2770945698605449, 0.23222802166322604
-0.9289750835659961, -0.4926430827164523, 0.09655387366245861
-0.9289751011615104, -0.42022456777930284, 0.2933476183199187
-0.9289750879851768, -0.3689932478418462, 0.14597935929035383
-0.9289750636400809, -0.49593824029847816, -0.12630381872687693
-0.9289750916757947, -0.3284048387481826, 0.18725638481760998
-0.9289750884039365, 0.11631922086466318, 0.15066282867703845
-0.9289750757383837, -0.07829784322429911, 0.009007338441795326
-0.9289750942086941, 0.21231190419344556, 0.21558504587507282
-0.92897510285122, -0.3866929790313394, 0.31224585695652346
-0.9289751005520543, -0.5256956835199085, 0.28653128907716724
-0.9289750939261205, 0.04568525092796408, 0.21242467969084652
-0.9289750787920656, -0.40897178006952656, 0.043160724816867196
-0.9289751023168746, 0.09730538307224215, 0.3062695002022668
-0.9289750917472384, 0.17542424807155588, 0.1880553577600283
-0.9289751010075828, -0.16758702335737985, 0.2916260074012374
-0.9289751030239581, -0.18521932100888236, 0.31417778494373405
-0.9289750987985121, 0.2440448134979905, 0.2669190065791893
-0.9289750964901224, -0.25540072306348605, 0.24110132509644183
-0.9289751021951963, -0.19871212339744784, 0.3049086555521844
-0.9289750939440509, -0.2797549079654848, 0.2126252662879655
-0.9289751039511527, -0.018003517747849876, 0.3245477949790749
-0.9289750760135738, -0.33997444022694134, 0.012085187627542487
-0.9289750713527101, -0.1933656343672246, -0.040043397645966705
-0.9289750841966146, -0.29599193728079576, 0.10360687835064457
-0.9289750703138564, -0.3959059563162993, -0.05166223219114674
-0.9289750937193673, -0.3931266606568755, 0.2101123507248282
-0.9289750711679087, -0.4656316562816095, -0.042110234512164946
-0.9289750764074202, -0.5181794631363684, 0.01649011586994839
-0.9289750705688239, -0.44920527022391266, -0.04881058773256375
-0.9289750996166688, 0.039371498675537554, 0.27606955880594486
-0.9289750862818813, -0.45540547467437464, 0.12692918042519025
-0.9289750910007668, -0.480799015817301, 0.17970668203163498
-0.9289750633648453, -0.25349376689849157, -0.12938217585979706
-0.9289750603061637, -0.30318361406055877, -0.16359142285642686
-0.9289750836692738, -0.33133986746404365, 0.09770894063827255
-0.9289751034763669, -0.07370128276927136, 0.31923765201872845
-0.9289750865138917, -0.2206248544171246, 0.1295240233102049
-0.9289750991920305, 0.1862332519921966, 0.2713202490896612
-0.9289750973239577, -0.5117195152987868, 0.2504272387776099
-0.9289750795131471, -0.2334665026456411, 0.05122549908581392
-0.9289750960541523, 0.037902775861211296, 0.23622525451038454
-0.9289751040964912, 0.3363211137267685, 0.32617325497017
-0.9289750749527286, -0.46634320516610783, 0.00022038176838265477
-0.9289750847166044, -0.23751058219431956, 0.10942260045554966
-0.9289750821966061, -0.07753579142578798, 0.08123812609428382
-0.9289750950906422, -0.0356695994853968, 0.2254490673780204
-0.9289750956629474, -0.14835523300143508, 0.23184992571885538
-0.9289750855266341, -0.4764518265912412, 0.1184822631509763
-0.9289750877670578, 0.09575989959856623, 0.14353978054003275
-0.9289750922820028, 0.031459561393693616, 0.1940363525973562
-0.9289750898311073, -0.021607535246806142, 0.16662477569607725
-0.9289750669217349, -0.5017444200269167, -0.08960076910844493
-0.9289750780615603, -0.5207006191505519, 0.034990539166957574
-0.9289750954297039, -0.16947331298172696, 0.22924125816482685
-0.9289751052120582, -0.17037624366280107, 0.3386501808018088
-0.9289750911734244, -0.5262387399536618, 0.18163774569493568
-0.9289750734003114, -0.29946701129316766, -0.017142364859732945
-0.9289750797061411, -0.2347109092929349, 0.05338400571235141
-0.9289750675907791, -0.23773957172339819, -0.08211800751694838
-0.92897508822538, -0.12944062896431646, 0.14866583273813336
-0.9289750588345898, -0.5019277072449678, -0.1800499405016896
-0.9289750968364908, -0.07294252147696931, 0.24497519124612052
-0.9289750960901215, 0.17807341530250725, 0.23662752595362313
-0.9289750731600973, -0.47081082309528666, -0.01982896972975473
-0.9289750916235524, -0.12319221514384984, 0.18667205910692822
-0.9289750753180533, -0.05191383868631472, 0.004306226710447586
-0.928975095475982, -0.4212327389933279, 0.22975888594345276
-0.92897509216702, -0.34563339729811504, 0.19275040355585016
-0.9289751047696184, 0.4158735756819478, 0.3337017102541109
-0.9289750656671742, -0.2578652549238716, -0.10363220407796034
-0.9289750893506713, -0.04454391952074399, 0.16125143093700514
-0.9289750975100712, 0.288406628093159, 0.2525086719385331
-0.9289750970736481, 0.1292811186393717, 0.2476276034380382
-0.9289751025379438, 0.3673067805690661, 0.3087419656231431
-0.9289750788901561, -0.3068540925545196, 0.044257782944007534
-0.9289750787696723, -0.09571675223900081, 0.042910224261150876
-0.9289750993400034, 0.20018520575967233, 0.272975222079945
-0.9289751032943849, 0.25011561042927055, 0.31720226007460545
-0.9289750665563474, -0.38779371883329394, -0.09368739387732723
-0.9289751036834771, -0.5177303928443324, 0.32155410120642636
-0.9289750997583976, -0.3685657796300725, 0.27765475829867936
-0.9289751041723248, 0.41980141876415245, 0.3270213894599716
-0.9289750750424459, -0.14910921048039455, 0.001223761213872382
-0.9289750977738113, -0.16682175802128985, 0.2554584922048175
-0.9289750660529085, -0.3893664430782149, -0.0993180136738958
-0.9289750696328395, -0.14758927653409173, -0.0592789755871207
-0.9289750625772313, -0.27832742873184807, -0.13819109509824365
-0.9289750794769001, -0.5056905521771382, 0.05082013912511671
-0.928975056502097, -0.517112946643801, -0.20613726859042794
-0.928975087388237, -0.42894631124762783, 0.13930300604306614
-0.9289751021172715, 0.10067562520393751, 0.3040370763969967
-0.9289750824832581, -0.26047311950988483, 0.08444415713471246
-0.9289750816669171, 0.027590388464696747, 0.07531390133975421
-0.9289750718611077, -0.3965812126374674, -0.03435728878071789
-0.9289750578906846, -0.4485574978817992, -0.19060687852920633
-0.9289750716446548, -0.3100193308604269, -0.03677817812013104
-0.9289750900903986, 0.02688617923448955, 0.16952476162054353
-0.9289750924771318, 0.0356207920962861, 0.19621873702249037
-0.9289751025192894, -0.11754269010152227, 0.3085334005967639
-0.9289750707357919, -0.21168666660792146, -0.04694320047674905
-0.9289750920870429, -0.44334891305338897, 0.19185592766991794
-0.9289750881084382, -0.1094259139314541, 0.147357916261872
-0.9289750690412915, -0.2686680354911235, -0.06589501731765629
-0.9289750715769663, -0.40954795305800895, -0.03753521239712829
-0.9289750740263124, -0.4796215581667507, -0.010140947079809087
-0.9289750790006008, -0.468789435478752, 0.045493055748701106
-0.9289750856984141, 0.10454620332305098, 0.12040341836069471
-0.9289750840321044, 0.029292675711713956, 0.1017668981729092
-0.9289750889390389, -0.44255263707388987, 0.1566476622421036
-0.9289750764557705, -0.4083413890468688, 0.017030865174520293
-0.9289750836961252, -0.41460136174046125, 0.09800926720241418
-0.9289750841739963, -0.09901532336678252, 0.10335388108886094
-0.9289750537312148, -0.45344272556473575, -0.23712769399074488
-0.9289750965063185, -0.07886018903619565, 0.24128244107170854
-0.9289750909486598, 0.2196173383601942, 0.1791237971570473
-0.9289750941015696, -0.06230372223208848, 0.21438697221663117
-0.9289750681501789, -0.3663550304860751, -0.07586148453650698
-0.9289750964891065, 0.15343104457473572, 0.24108990153489038
-0.9289750835708656, -0.5296783513606527, 0.09660834078959601
-0.9289751018641751, -0.49389023831350637, 0.30120645316935823
-0.928975091666355, 0.04212780380243461, 0.1871507521859276
-0.9289750794740702, -0.47620905854875784, 0.05078848702006092
-0.9289750995966832, 0.07057239768963686, 0.2758460283678805
-0.9289750948150647, 0.1421948975654665, 0.22236689474553134
-0.9289750876431146, -0.34037998524761365, 0.14215362623689903
-0.9289750671812858, -0.5234385042963405, -0.08669786810673802
-0.9289750692500441, -0.5027971865235772, -0.06356022649237672
-0.928975086145876, 0.0009724393124142527, 0.12540798765544586
-0.9289751041247425, -0.29351730283918576, 0.32648931872194425
-0.9289750676533274, -0.28060468113298365, -0.08141844189717362
-0.9289750907225656, -0.0212061995069025, 0.17659512384634524
-0.9289750870196133, -0.17106545869696077, 0.13518016449546671
-0.928975104997544, 0.32749240173287897, 0.3362509138827466
-0.928975091420148, 0.24098709142903446, 0.18439706570029418
-0.9289750973151782, -0.5075519241955152, 0.25032904682117274
-0.9289750754310957, -0.3222561199507487, 0.005570567540385124
-0.9289750677334013, -0.31396083129171487, -0.08052286335820269
-0.9289750613506744, -0.40283948902727446, -0.15190927308030053
-0.9289751040382842, -0.22588861245836872, 0.32552233203310943
-0.9289751036854094, 0.03539634405097511, 0.32157562991550565
-0.9289750809383805, -0.3332541612321924, 0.0671657722110931
-0.9289751001035267, 0.22632548054576537, 0.281514703709549
-0.928975102780462, 0.17769532038565095, 0.31145439399247027
-0.9289750629506026, -0.3452656327437847, -0.13401518220748543
-0.9289750768225113, -0.024135773892135448, 0.021132552752106765
-0.9289750915354705, -0.295364878260697, 0.1856869481357255
-0.9289751046329889, 0.03590345050635749, 0.3321736591299193
-0.928975082273584, -0.45323137778185385, 0.08209912572245537
-0.9289751022207929, 0.0699989053137096, 0.3051948964297757
-0.9289750760907751, -0.3312401564225548, 0.012948631386053289
-0.928975055413896, -0.4781964249769341, -0.21830805550161125
-0.9289750553349385, -0.4041878951125935, -0.2191911522069605
-0.9289750898145644, -0.31114857746619257, 0.16643979617915633
-0.9289750951923827, -0.44066829008846126, 0.22658702523299204
-0.9289750952744008, -0.06782587397452364, 0.22750428558188496
-0.9289750599217929, -0.43137224099653715, -0.16789032903656043
-0.928975075171868, -0.3200709176204609, 0.00267128228743152
-0.928975072523129, -0.4439046763961959, -0.026953025717734003
-0.9289750964088896, -0.27752573108696044, 0.24019279586882064
-0.9289750854573392, -0.15517870293815628, 0.11770719889693411
-0.9289750745793335, -0.2906017529056635, -0.003955813872806607
-0.9289751023920639, 0.3736354195384489, 0.3071104012173408
-0.9289751047222229, 0.3069828494783917, 0.33317164015381984
-0.9289750977046959, -0.07143815140695821, 0.2546854684341478
-0.9289750544543566, -0.5148990347386023, -0.22903984159642798
-0.9289750945203669, -0.24505536823733004, 0.2190709607814691
-0.9289750792668652, -0.37538151763792493, 0.04847102742606274
-0.9289750753709047, -0.11201156915154892, 0.004897342702044033
-0.928975062961329, -0.48695969757825297, -0.1338951936181121
-0.9289751000066445, 0.21935513545266214, 0.28043114359219456
-0.9289750645104812, -0.2626410546101917, -0.11656902277473791
-0.9289750957416201, -0.15613941504275308, 0.2327298253139765
-0.9289750775746739, -0.4306283992515373, 0.029545035715105472
-0.9289750933340846, -0.3552947499602728, 0.2058032213477718
-0.928975082886057, -0.5191483723878878, 0.08894922379528049
-0.9289750892946198, 0.19966637559900735, 0.16062449807375118
-0.928975073999597, -0.13429940276429855, -0.010439790591790316
-0.9289750838024851, -0.20357197115204476, 0.09919879663871248
-0.9289750952242566, -0.06171537772391314, 0.22694345531719462
-0.9289750811255044, 0.050937732562255145, 0.06925856915609879
-0.9289750886977766, -0.5257220746166303, 0.15394932148768894
-0.9289751037097294, -0.14706593958669478, 0.32184766063809706
-0.9289750668734658, -0.365039784731915, -0.090140645987108
-0.9289750965379697, 0.2805810765840879, 0.241636385203309
-0.9289750618582582, -0.4194909387142061, -0.14623229435763654
-0.9289750654455915, -0.5027870595426915, -0.10611041890698143
-0.9289751042251938, -0.0832611520386273, 0.32761276733518835
-0.9289750601962957, -0.2989822597934337, -0.16482022247661438
-0.9289751019855595, -0.43585150847499365, 0.30256404516040053
-0.9289750798722729, -0.2520835472530843, 0.05524207846034901
-0.928975089034866, -0.33497824687144073, 0.1577194091713811
-0.9289750884900869, -0.04783876298520859, 0.15162638574095377
-0.9289750772015681, -0.05806034885910227, 0.02537204911524235
-0.9289751033759175, 0.06693924885316815, 0.3181141728314876
-0.9289750843860421, -0.023293568777635, 0.10572545679810887
-0.9289750873856712, 0.1371585292068928, 0.13927422691588875
-0.9289750581056739, -0.3953833729876246, -0.18820237789081712
-0.9289750624286979, -0.5169282099158166, -0.13985230479602445
-0.9289750714999723, -0.3953354005582933, -0.0383963408187038
-0.9289751017216832, -0.4635436502450752, 0.2996127737421726
-0.9289750772804954, -0.40682184186760617, 0.026254846770678436
-0.928975067796237, -0.45324485018298877, -0.07982007017842427
-0.9289751022928922, 0.15362380970761444, 0.3060012643967447
-0.9289750597754967, -0.3412409434266596, -0.16952656417721051
-0.9289750781732785, -0.2501457981124367, 0.036239990138358796
-0.9289750740540108, -0.107452979547074, -0.009831212648226534
-0.9289750683925995, -0.46963131006870074, -0.07315016210758526
-0.9289750861611099, 0.012610682400259282, 0.12557836712900394
-0.9289750959424357, -0.08573871800502442, 0.23497580037284355
-0.9289750797081439, -0.2800190214688335, 0.053406411501116774
-0.9289751001803657, 0.28086933320923657, 0.2823740859233145
-0.9289750738165035, -0.09641881618381587, -0.012487572965009602
-0.9289750914654926, 0.0001655280323666769, 0.18490424970428623
-0.9289750894928733, 0.048495476598935466, 0.16284184980080252
-0.9289751046004682, -0.04494172480717057, 0.33180994843895906
-0.9289750498938054, -0.5031971382190282, -0.2800464783739055
-0.9289750901163781, 0.05478836315676322, 0.16981532241499225
-0.9289750984137348, -0.056080693619148206, 0.2626155818130184
-0.9289750732243218, -0.3226380452356504, -0.019110684294723235
-0.9289750808419563, -0.25122549818395845, 0.06608732118390162
-0.9289750961158524, -0.40140090082891944, 0.23691539402916925
-0.9993723034858704, 0.05879497966202632, 0.0710762336645343
-0.9993723034858704, 0.23141815777403316, -0.10915264489154572
-0.9993723034858704, -0.015518336768026705, 0.22143307410938387
-0.9993723034858704, 0.45399670772830913, 0.17819162541416275
-0.9993723034858704, 0.3148182331173597, -0.19913459826556867
-0.9993723034858704, -0.06594530866199493, 0.17562703372933625
-0.9993723034858704, 0.09197828644055885, 0.22710107782312489
-0.9993723034858704, 0.45560112327958135, 0.12374321050478382
-0.9993723034858704, 0.4762610872907223, -0.2464604709793991
-0.9993723034858704, 0.4338046981239011, -0.007528098994119242
-0.9993723034858704, 0.15542933415520777, 0.14338959553313063
-0.9993723034858704, 0.21623129160201862, 0.055968849332150156
-0.9993723034858704, 0.47619155456427054, -0.1510207917506548
-0.9993723034858703, -0.14513785170794538, 0.1629079360741495
-0.9993723034858704, -0.2130645006295271, 0.18798006819190727
-0.9993723034858704, -0.3302105885849326, 0.27607937417850603
-0.9993723034858705, 0.23930217252035507, 0.3161345580900134
-0.9993723034858704, 0.19618508019135897, -0.1376999204199318
-0.9993723034858704, 0.4761432611482235, 0.08145560693621634
-0.9993723034858705, 0.09713649960735088, 0.29071238535352284
-0.9993723034858704, 0.15179517614052893, -0.002583328791975842
-0.9993723034858703, 0.19943260449982658, 0.1890751571919658
-0.9993723034858705, 0.4462470237655928, -0.13480529479697473
-0.9993723034858704, 0.2557054431733987, 0.1865094221780249
-0.9993723034858705, 0.3870660973212925, 0.1193642635687143
-0.9993723034858704, 0.0709069756414486, -0.05504841047315673
-0.9993723034858703, 0.18706642616821445, 0.28843784453797083
-0.9993723034858704, 0.4714262486399981, -0.010199101493153534
-0.9993723034858704, 0.38074663388451396, 0.031126187191323818
-0.9993723034858703, 0.09888441144546699, 0.2700427762242259
-0.9993723034858704, 0.09851753479740438, 0.12217731284275934
-0.9993723034858704, -0.10944319376493528, 0.13332011967982627
-0.9993723034858704, 0.3164773830141709, 0.19877880839933143
-0.9993723034858703, 0.20600520700022362, 0.1837508545379788
-0.9993723034858704, 0.3941847205269621, 0.3281564461506371
-0.9993723034858704, -0.2808947675741663, 0.21494835109256047
-0.9993723034858703, -0.39225080416409364, 0.3083152917905151
-0.9993723034858704, -0.07366851932730911, 0.12639275075415635
-0.9993723034858704, -0.23360978874340543, 0.26209439391779865
-0.9993723034858704, 0.4430560245223, -0.10133203312269401
-0.9993723034858704, 0.07476406880180086, 0.04931665024059234
-0.9993723034858704, 0.09158263620608907, 0.33385915090374374
-0.9993723034858704, -0.03625563430572601, 0.06016675033457061
-0.9993723034858704, 0.2433763792383185, -0.08648108075655625
-0.9993723034858704, -0.024970061250140563, 0.13966647089155979
-0.9993723034858704, 0.10911566788931316, 0.22313498475585342
-0.9993723034858704, 0.3702351809898252, 0.12052662020778317
-0.9993723034858704, 0.3107155868880858, 0.24816776047680816
-0.9993723034858704, -0.24017386143845193, 0.25366683554719577
-0.9993723034858704, 0.22350278094689432, -0.026578819576632495
-0.9993723034858704, -0.042700804316831736, 0.03202458597231164
-0.9993723034858704, 0.39140501935312877, -0.15594982560470266
-0.9993723034858704, -0.2222806031675124, 0.23841336050202078
-0.9993723034858704, 0.4388476202182672, -0.22884566432554698
-0.9993723034858704, 0.3056153955891106, 0.33559478327576925
-0.9993723034858703, 0.4606429498953428, 0.07365015559069601
-0.9993723034858703, 0.25985728068730196, 0.13287526333622748
-0.9993723034858704, 0.39744047826779993, 0.0231485524869722
-0.9993723034858704, 0.2534753042256108, -0.15369091354759867
-0.9993723034858703, 0.4786745332217186, -0.26469095387716524
-0.9993723034858704, -0.16698381447360597, 0.13678740200776757
-0.9993723034858704, 0.13011565310724776, -0.02636988247633479
-0.9993723034858703, -0.13514347928512505, 0.2954427846944486
-0.9993723034858704, 0.4396675767698873, 0.2863544912376943
-0.9993723034858704, 0.36404800170074414, 0.2710361797112731
-0.9993723034858704, -0.040807552959397905, 0.2197112899383046
-0.9993723034858704, 0.3179450336697403, 0.2978433603268542
-0.9993723034858704, 0.1957779277240747, 0.304976349044637
-0.9993723034858704, 0.4776583400336255, -0.09913419901599886
-0.9993723034858704, 0.4516567676799015, -0.2488265017141616
-0.9993723034858704, -0.060451146695596675, 0.06184481504106301
-0.9993723034858704, -0.27846931338542036, 0.27096738464462494
-0.9993723034858704, -0.01887433809952046, 0.2903508901141119
-0.9993723034858704, 0.07557901003738177, 0.07520101982447627
-0.9993723034858704, 0.3856649939512028, 0.08434277747044303
-0.9993723034858704, 0.17792355108178834, 0.20333403960448782
-0.9993723034858704, 0.22448250837876357, 0.14086201829752515
-0.9993723034858704, 0.4293617272448986, -0.27703916195248496
-0.9993723034858704, -0.2421450916376069, 0.290804683988757
-0.9993723034858704, 0.10024858182823342, 0.1846734884499729
-0.9993723034858704, 0.16254631321131754, 0.17091579741597956
-0.9993723034858704, 0.4724360359604377, 0.32428547975114025
-0.9993723034858704, 0.1753954483465727, 0.03799558337617098
-0.9993723034858704, 0.33919668329242686, -0.0006179311232491491
-0.9993723034858704, -0.32024760918004497, 0.25279341007331996
-0.9993723034858704, 0.2611953217461077, 0.057448643086863316
-0.9993723034858704, 0.3103533123126358, -0.12258467114719274
-0.9993723034858704, 0.46967527697343847, -0.16018813544144814
-0.9993723034858704, 0.46046651202492894, -0.17613905692942775
-0.9993723034858704, 0.44899052652553817, -0.060233725891521206
-0.9993723034858704, 0.12076958040307184, -0.054124034959449924
-0.9993723034858704, 0.402509340433595, -0.03314073796006184
-0.9993723034858704, -0.07026940976545151, 0.048790631687387315
-0.9993723034858704, 0.026947590338809585, 0.12627209654037336
-0.9993723034858704, 0.30144443125690845, 0.035233340170519156
-0.9993723034858704, 0.4286240771635117, -0.18912538089328304
-0.9993723034858704, 0.10926641128570216, 0.32084355084766775
-0.9993723034858704, 0.37920765296761705, -0.1753173284853494
-0.9993723034858703, -0.35819509916657294, 0.30077559593390596
-0.9993723034858703, 0.2856755688646644, 0.16424676679110245
-0.9993723034858705, 0.12982910719378388, 0.31021527410132926
-0.9993723034858705, 0.29021199803048203, -0.11543762470738618
-0.9993723034858704, 0.2523487874385517, 0.16022114633902468
-0.9993723034858705, 0.4698401947179203, -0.06978799579322845
-0.9993723034858704, 0.13443178965454863, 0.13666659369454004
-0.9993723034858703, 0.47698224595854644, 0.03947311874745554
-0.9993723034858704, 0.27139320289409286, 0.10596060470883657
-0.9993723034858704, 0.36522339661005754, 0.11870837194587976
-0.9993723034858704, -0.04335205972904407, 0.05554750625337895
-0.9993723034858704, 0.25400764632216444, 0.19497294823025924
-0.9993723034858704, 0.36445904920957023, 0.19060793286796007
-0.9993723034858704, 0.29153614548419093, 0.3390480243766836
-0.9993723034858704, 0.40505777591726505, 0.14656765899782934
-0.9993723034858705, 0.20145839204446042, -0.050885744779922026
-0.9993723034858704, 0.20281381753996203, -0.057581224738403824
-0.9993723034858704, 0.13830604205345629, -0.10238885938177852
-0.9993723034858704, 0.24239700802877545, 0.13386870562341652
-0.9993723034858704, 0.19920110747625186, 0.25628790051695644
-0.9993723034858704, 0.3319834537206919, 0.2927100323463382
-0.9993723034858705, 0.05694692918986417, 0.1749209374545237
-0.9993723034858704, 0.24244707022249157, 0.07138317755148188
-0.9993723034858704, -0.3255932657450748, 0.3242885218688505
-0.9993723034858704, -0.08885002143321616, 0.24868211525252332
-0.9993723034858704, -0.3411829227647743, 0.25452336111542195
-0.9993723034858704, 0.22779678519012161, 0.01721822040146087
-0.9993723034858704, 0.23369386712571882, 0.031442639964459895
-0.9993723034858704, -0.0016479219297724501, 0.10633661235501639
-0.9993723034858703, 0.17407259179788917, 0.12011179455109225
-0.9993723034858704, 0.10386734639057894, 0.2466138758356039
-0.9993723034858704, 0.2874333557983386, 0.11172801299576662
-0.9993723034858704, 0.42339470295623016, -0.12964230664852172
-0.9993723034858704, 0.28027464713411104, 0.07962656980266519
-0.9993723034858704, 0.013315393359098052, 0.1862433064833067
-0.9993723034858704, 0.03107014110230974, 0.13622736219538975
-0.9993723034858703, 0.3508702052915863, 0.15144060860727088
-0.9993723034858704, -0.09182108581172033, 0.15957174721703038
-0.9993723034858704, 0.3207176135542237, -0.08665812448930815
-0.9993723034858704, 0.4224692545599597, -0.19175413310901646
-0.9993723034858703, -0.0651785864089586, 0.14235806495298986
-0.9993723034858704, 0.09524664178315606, 0.2628772791232159
-0.9993723034858704, 0.27532639733146047, 0.20794390320954637
-0.9993723034858704, -0.08789477012091607, 0.19338400703487296
-0.9993723034858704, 0.2654992077853724, 0.0881480110600261
-0.9993723034858704, 0.4523241043915933, -0.25459535016129964
-0.9993723034858704, 0.26269977970531266, 0.3267736887760348
-0.9993723034858704, 0.3569945269442325, -0.2303994129235974
-0.9993723034858704, -0.01969702983079008, 0.019826703331959905
-0.9993723034858704, 0.4354575222153625, -0.15062682920423193
-0.9993723034858704, 0.2640381221864732, 0.2035771991936105
-0.9993723034858704, -0.4488506216382531, 0.30571809131881067
-0.9993723034858704, -0.051575738178794225, 0.2645822655527843
-0.9993723034858704, 0.43352457769247227, 0.10655498856456068
-0.9993723034858704, 0.1219839343848508, 0.29508277962114254
-0.9993723034858704, 0.4099972038102548, 0.28213081404107937
-0.9993723034858705, 0.22334039979550044, 0.3317240405218976
-0.9993723034858704, 0.14745885825492475, 0.21892666140676353
-0.9993723034858704, -0.1224865400679474, 0.13205334119876988
-0.9993723034858704, 0.11579813544643926, 0.19382745378777344
-0.9993723034858704, 0.2838489311540968, 0.002991437092213306
-0.9993723034858704, -0.1741489080011817, 0.3104293816521635
-0.9993723034858704, 0.12185573027112367, -0.059771573964721714
-0.9993723034858703, 0.45688012889678886, 0.08521464981389777
-0.9993723034858704, 0.4334668576110954, -0.12021309872982873
-0.9993723034858704, 0.25056120897716216, -0.0018142077352548414
-0.9993723034858704, 0.30558982198013573, 0.076704311190223
-0.9993723034858704, -0.07053538184680067, 0.05383892054206679
-0.9993723034858704, 0.4202580122017853, 0.021123260564036822
-0.9993723034858705, -0.07607555082209772, 0.31953898793756713
-0.9993723034858704, 0.2594076531892425, -0.05572391765622123
-0.9993723034858705, 0.34724733781335887, 0.3137143410370186
-0.9993723034858703, 0.33684486924236545, 0.24552056874570688
-0.9993723034858705, 0.3736718222329136, 0.2013597580788794
-0.9993723034858704, 0.45105043257709376, 0.19382480743743336
-0.9993723034858704, 0.25543173361349303, 0.018658566074218508
-0.9993723034858701, 0.4523555809702935, 0.09074371469560795
-0.9993723034858704, 0.2996443594035473, 0.08993843921454286
-0.9993723034858704, 0.024811003375713625, 0.22549864472822673
-0.9993723034858703, -0.30340639091956717, 0.2115059860650972
-0.9993723034858703, -0.13677177145453073, 0.23822957055903743
-0.9993723034858704, 0.2585348831961215, 0.2097846299354334
-0.9993723034858705, 0.09220140420895306, -0.042391597320092345
-0.9993723034858704, 0.4359403942235805, -0.01535766170225597
-0.9993723034858703, -0.05207307959290697, 0.14662009018473063
-0.9993723034858703, 0.4559489044404151, 0.29705999489103296
-0.9993723034858704, 0.06794642041028752, 0.10794993699340022
-0.9993723034858704, 0.4767032381315738, 0.1186813823413
-0.9993723034858704, -0.03492531894857295, 0.3206724084787593
-0.9993723034858704, -0.30979703685662774, 0.2818473622464542
-0.9993723034858704, -0.19485616208172857, 0.206591224351169
-0.9993723034858704, 0.26443041412633844, 0.13324651257202302
-0.9993723034858704, 0.308845140650648, 0.2627134697372427
-0.9993723034858704, -0.34666605342994034, 0.30307833172802584
-0.9993723034858704, -0.4320398460422552, 0.3068106493159034
-0.9993723034858704, 0.26729314872277854, -0.05759151321253131
-0.9993723034858705, -0.008462349784458034, 0.06128478752507591
-0.9993723034858704, -0.17034967350041955, 0.2765628292395942
-0.9993723034858703, 0.3772568145738081, 0.16746229255124118
-0.9993723034858704, 0.3893752922312795, 0.29962482185026296
-0.9993723034858704, 0.1262422776059996, 0.2048085156512728
-0.9993723034858704, -0.4296319730209936, 0.27813211869179444
-0.9993723034858704, 0.10339923618374838, 0.017345123451331657
-0.9993723034858704, 0.4268464368965623, 0.06810130113346288
-0.9993723034858704, -0.00012530110955891183, 0.1038212466123833
-0.9993723034858705, -0.24009582849227462, 0.27700940679420855
-0.9993723034858704, 0.31198369148003424, 0.12629937444630285
-0.9993723034858704, -0.04520284879062958, 0.12845419571075561
-0.9993723034858704, 0.2602146504557754, 0.13571285061747185
-0.9993723034858704, 0.4776529839688629, -0.22782422521083665
-0.9993723034858704, -0.08183224723658263, 0.3122997335615455
-0.9993723034858704, 0.4484015175605059, 0.06823693986290066
-0.9993723034858705, 0.43145702893186594, 0.0791189885180833
-0.9993723034858705, 0.35715282656144154, 0.29053794983448805
-0.9993723034858704, 0.21506951267147145, 0.3055229948087817
-0.9993723034858704, -0.08004329334892077, 0.1107340828698361
-0.9993723034858704, 0.4710880281944735, 0.1837691681308321
-0.9993723034858704, 0.08003385858556428, -0.005151131231968198
-0.9993723034858703, 0.3058783149862292, -0.06962121100070928
-0.9993723034858704, -0.15304853848287558, 0.13918206683760864
-0.9993723034858704, -0.2252576050659118, 0.17942989148577076
-0.9993723034858704, -0.4025643237236287, 0.29564877783285626
-0.9993723034858703, 0.2880085004865287, 0.2947582522650461
-0.9993723034858704, -0.03488462339782711, 0.06820431306603836
-0.9993723034858703, -0.31934906035849137, 0.3120166183710965
-0.9993723034858704, -0.16072037091147776, 0.22459449860391545
-0.9993723034858704, 0.4504664950716568, 0.061607569205084034
-0.9993723034858704, 0.12668906486165313, -0.04725836252944807
-0.9993723034858704, 0.19489583981090658, 0.09988759946749635
-0.9993723034858704, 0.3807258845684505, 0.06315080788872424
-0.9993723034858704, -0.20735500121579453, 0.32529141258759653
-0.9993723034858705, 0.2699589850034664, 0.036987730350483305
-0.9993723034858704, 0.2715649888112764, 0.24985934409613575
-0.9993723034858704, -0.18506604492195647, 0.1095400870738824
-0.9993723034858704, 0.3506062482620975, -0.060966102200008726
-0.9993723034858704, 0.25402911575016757, -0.14164053662437498
-0.9993723034858704, -0.4435944178103428, 0.3382446171029314
-0.9993723034858704, -0.15297959131488986, 0.11137500764450098
-0.9993723034858705, 0.3051695114619505, 0.2492866574260531
-0.9993723034858704, 0.36812419016734355, -0.03215157943200425
-0.9993723034858704, -0.09444239308403891, 0.2006430986108878
-0.9993723034858704, -0.224172847441662, 0.28777099351666974
-0.9993723034858705, 0.05160855928129972, 0.29574412542773976
-0.9993723034858704, 0.23479436925414773, 0.2288700038826733
-0.9993723034858704, 0.35371022447777767, 0.3169282528795915
-0.9993723034858704, 0.10515387284932214, 0.08741276007335604
-0.9993723034858703, -0.472069782236916, -0.1634587557673087
-0.9993723034858704, -0.37926410143305234, 0.05731105504363479
-0.9993723034858704, -0.13601865728077306, -0.07205534758938259
-0.9993723034858704, -0.17878121808818329, -0.22749857626350112
-0.9993723034858704, -0.4973448918022534, -0.23190589625129618
-0.9993723034858704, -0.270409644837165, -0.2055313231720186
-0.9993723034858704, -0.41691624916207437, -0.0604023949931938
-0.9993723034858705, -0.3245376160799128, -0.3018273408443835
-0.9993723034858704, -0.14652148607473064, -0.29747544050250946
-0.9993723034858704, -0.16352269672875597, -0.13856443064452612
-0.9993723034858704, -0.29929181981825875, -0.19159684736633095
-0.9993723034858704, -0.1396718659459773, -0.27646116015497935
-0.9993723034858704, -0.2564543768231919, 0.046704493546630754
-0.9993723034858704, -0.10083239942265414, -0.28842269721291275
-0.9993723034858704, -0.37893010183028875, -0.028036575103759176
-0.9993723034858704, 0.10326698308336629, -0.20469383610267772
-0.9993723034858704, -0.22780258886505866, -0.06404258236377841
-0.9993723034858704, 0.27158043306715784, -0.32530952055470663
-0.9993723034858704, 0.06467738207822313, -0.11733621544539487
-0.9993723034858704, 0.2276745906366319, -0.3113185606816283
-0.9993723034858705, -0.3949583708148721, 0.09094459230558338
-0.9993723034858704, -0.4201810518249611, 0.2252509323132078
-0.9993723034858704, -0.0027009441998002842, -0.25695751560693586
-0.9993723034858704, -0.39738003971022945, 0.03388358338439734
-0.9993723034858704, -0.43916886733865174, 0.23606640587611846
-0.9993723034858704, -0.45502561852676326, -0.05430571272983384
-0.9993723034858704, -0.1272192406722399, -0.11976795035100214
-0.9993723034858704, -0.2572862272155618, 0.0955691330714964
-0.9993723034858704, -0.20472709647525952, -0.08472055914366315
-0.9993723034858705, 0.05030246210328117, -0.3127947504467105
-0.9993723034858704, -0.44517379054971473, -0.24256519337227084
-0.9993723034858704, -0.3761435729394009, -0.030779360656419175
-0.9993723034858704, -0.05650306380296072, -0.2012164178390284
-0.9993723034858705, -0.469013259530371, 0.10569075701170828
-0.9993723034858705, -0.3895498353180036, 0.23600402052133798
-0.9993723034858704, -0.3389688816119221, -0.026042905403224542
-0.9993723034858704, -0.3619435969819298, 0.0846698837418137
-0.9993723034858704, -0.0397507764311783, -0.05677512872795737
-0.9993723034858704, 0.006799816556073576, -0.19930645932543578
-0.9993723034858704, 0.052133609129931265, -0.29007565696651244
-0.9993723034858705, -0.40965427468079524, 0.15822534608088512
-0.9993723034858704, -0.46953881670883035, 0.017956905599470357
-0.9993723034858705, 0.29218442997879124, -0.31511194084904004
-0.9993723034858704, -0.18074842251360237, 0.0056954238802719714
-0.9993723034858704, -0.49947199999203007, -0.06453130976508747
-0.9993723034858704, -0.1616497510711014, 0.0048651512560199395
-0.9993723034858704, -0.1821851486457658, -0.11933752804035368
-0.9993723034858704, -0.2552122996081656, 0.11795758865411898
-0.9993723034858704, -0.07212056798296071, -0.2243850649070039
-0.9993723034858704, -0.10463910406852492, 0.0332789711505318
-0.9993723034858704, -0.05696250256028426, -0.13654246899926653
-0.9993723034858704, -0.3202475450140602, 0.026832972698018154
-0.9993723034858703, -0.43204461108459946, 0.13852758180926456
-0.9993723034858703, 0.08610408865298959, -0.2333014660355131
-0.9993723034858704, -0.5194339049001422, 0.17673637396992897
-0.9993723034858703, -0.48751323158406557, -0.141907956850012
-0.9993723034858703, -0.2612741444923197, 0.032196536894704864
-0.9993723034858704, -0.43564890305119675, 0.20125654396224757
-0.9993723034858704, 0.09113954367920368, -0.16842309937296562
-0.9993723034858704, -0.24067964995375574, -0.2636634716370141
-0.9993723034858704, -0.06215937727355905, 0.019518587821300365
-0.9993723034858704, -0.4662895478545186, -0.30046380267372375
-0.9993723034858704, 0.0030877772581074797, -0.2670473800763876
-0.9993723034858704, -0.2554305058318489, -0.21635113217620763
-0.9993723034858703, -0.45617061763189304, -0.117820391503801
-0.9993723034858704, 0.31286061231121104, -0.3072900128385289
-0.9993723034858704, -0.3011967324134607, -0.15864034129349702
-0.9993723034858704, -0.4515780115529564, 0.18465535524467516
-0.9993723034858703, -0.38080319113762845, -0.1929200326867982
-0.9993723034858704, -0.18541215416293744, -0.22285298617411747
-0.9993723034858704, 0.24431778961505146, -0.2400847837511984
-0.9993723034858705, -0.004146084186563405, -0.3059045739152115
-0.9993723034858704, -0.2514243350053385, 0.080038432540885
-0.9993723034858705, -0.3387258748828362, 0.12654673701728392
-0.9993723034858704, 0.08730188780159512, -0.11489639759517117
-0.9993723034858704, -0.3375830269400073, -0.03901058466115245
-0.9993723034858704, -0.41626189340829256, 0.10129380335469106
-0.9993723034858705, -0.2787871157290571, -0.3245167455888026
-0.9993723034858704, -0.30828369523569055, 0.12243912507511012
-0.9993723034858704, -0.1974839607782971, -0.07340438413375788
-0.9993723034858705, -0.21663944040071717, -0.30164856914133087
-0.9993723034858704, -0.21047618751060304, -0.1765672146796991
-0.9993723034858704, 0.18120889262532142, -0.17899915487791102
-0.9993723034858704, 0.1450629465808336, -0.2118349688297414
-0.9993723034858704, -0.42279394811519033, -0.06072382774266549
-0.9993723034858704, -0.2550615448662611, -0.015611029679076627
-0.9993723034858704, -0.1148280912906164, -0.19912943817803436
-0.9993723034858704, -0.38645739491096964, -0.1050798972746664
-0.9993723034858704, -0.39263299787590245, 0.08046702964228736
-0.9993723034858705, 0.3002526331913585, -0.31352014814964585
-0.9993723034858704, 0.13171116611492073, -0.12149871851549324
-0.9993723034858704, -0.2055059580923732, -0.046752104214576845
-0.9993723034858704, -0.14391130409332348, -0.025792270147804136
-0.9993723034858704, -0.18785595270784378, -0.14400706101577782
-0.9993723034858704, 0.18773365920271967, -0.15980491129971616
-0.9993723034858704, 0.1867205825258489, -0.1847569636837984
-0.9993723034858704, -0.30942480106828624, 0.028961649910445253
-0.9993723034858703, -0.1810812296887481, -0.18937693880437997
-0.9993723034858703, 0.0197107672099347, -0.10738464642393307
-0.9993723034858704, 0.1902448936747526, -0.30664727788496743
-0.9993723034858704, 0.25586180515496393, -0.2651954711914075
-0.9993723034858704, -0.26927639104042594, -0.17074500284920657
-0.9993723034858704, 0.06039487677185515, -0.06285198812229004
-0.9993723034858701, -0.2637212761530049, -0.17281814649531946
-0.9993723034858705, -0.47738170848659145, -0.1348515600926601
-0.9993723034858704, 0.07977853347252142, -0.26029262749922666
