0.351776108041111, -0.5192557722637072, -0.5469108335091544
0.23002227463831262, -0.5192556860110901, -0.6447683577516035
0.34104065915585796, -0.5192557792004853, -0.5371951792722706
0.39007925916251185, -0.5192557599397234, -0.5659007652315018
0.28570470863364944, -0.519255735059568, -0.5879020021151767
0.4091103371773287, -0.5192556771957866, -0.6719898432173235
0.5355767420750979, -0.5192557855162443, -0.5467183490434702
0.37247498468238116, -0.5192557344657599, -0.5964523582943208
0.46646326402656674, -0.5192556805079669, -0.6729681188509528
0.2001185868826088, -0.5192556814081565, -0.6478862039485687
0.200815242423742, -0.5192557255681718, -0.5922428115725238
0.008019502557017444, -0.5192555207080958, -0.8333315287702949
0.21164604371601134, -0.5192556768234771, -0.6547059906453669
-0.046565225282153046, -0.5192557010103681, -0.600980121765392
0.13494617150195512, -0.5192556266064184, -0.7111568386961645
0.22794580815836832, -0.5192557326972016, -0.5856890754894709
0.24391606720349013, -0.5192555788685945, -0.7811733249889867
0.2680227060500925, -0.5192557587130303, -0.5564743976258054
0.20453987860489042, -0.5192556939767003, -0.6324290143347078
0.23104924009862046, -0.519255666443817, -0.6695439924860616
0.2024785871269897, -0.5192555624360512, -0.7981767594835687
0.0023675141268402994, -0.5192557451263317, -0.5497290809962878
0.11916774651563694, -0.5192556563360825, -0.6722355035478214
0.23927359163933956, -0.5192555779593764, -0.7819028729126616
0.29792390275426406, -0.519255699049405, -0.6344259246745922
0.02435954547396108, -0.5192556105715809, -0.7214415625273272
-0.05052727869315962, -0.5192556538046693, -0.6601719339137366
0.22124886407026692, -0.5192557538788176, -0.5583672408688868
0.020059041205641275, -0.5192557183596418, -0.5850847490942472
0.18316131470740593, -0.5192557491688906, -0.5608842649469423
0.6992515581313004, -0.5192557908181985, -0.5547457344758449
0.16557244172958288, -0.5192555440145848, -0.8180965386662511
0.7076404214550431, -0.5192557858748024, -0.5617358447182776
0.48484430747803314, -0.5192557002371377, -0.6497331807353621
0.13958697919569388, -0.5192556627251118, -0.666011848763857
0.1828613186572464, -0.5192556042484415, -0.7436684261233335
0.3019332256479686, -0.519255629495998, -0.7225251293760758
0.5809003098094673, -0.5192557774341042, -0.5609885583946477
0.16627131234387205, -0.519255647782511, -0.6872604393454546
-0.05697608722251285, -0.5192554756614504, -0.8843124169796799
0.553417609732384, -0.5192557923510301, -0.5397005767567682
0.23476983300763155, -0.5192556741239225, -0.6601903671359157
0.22019056350259955, -0.5192556585914029, -0.6784732115573928
0.23288296594075064, -0.5192557630014993, -0.5479053485166179
0.09337187100177083, -0.5192555061996009, -0.8593072045205947
0.3314975273951277, -0.5192556329177471, -0.7208667851137845
0.20513243357852698, -0.5192555624162133, -0.7984403847533199
0.08885417477579619, -0.5192556600815378, -0.6647853520752753
0.35636681552665256, -0.5192557321036728, -0.5979837891323115
0.0209060505560068, -0.5192556379581058, -0.686584102808069
0.10879639915887067, -0.5192557335451167, -0.5739070495801085
0.11042142085833966, -0.519255747563463, -0.5563695888389624
0.023010840298133377, -0.5192556301708049, -0.6965966959797748
0.024581875163441028, -0.5192554973139596, -0.8643313411959888
0.39878617589275034, -0.5192556510152315, -0.7040873082853094
-0.0324879819576843, -0.5192554651593599, -0.8997620306930222
0.18101807323045588, -0.5192556887488576, -0.6369089360971785
0.2607044118813816, -0.5192556006464797, -0.7552108234325126
0.4796476190903066, -0.5192557841589432, -0.5434020846876109
0.20332544923426024, -0.5192556331163247, -0.7090926664588435
0.4582960220275778, -0.5192557190010172, -0.6236764376660817
0.0026760726122335605, -0.5192555682357523, -0.7728969483561468
0.42804561487153936, -0.5192556810701217, -0.6688049523369319
0.12049997838633192, -0.5192555243474448, -0.8388534707497945
0.26354016539984737, -0.519255771634074, -0.5397720235800799
-0.03525768610294554, -0.5192556354707558, -0.6846722548465767
0.08332826360007939, -0.5192557291720331, -0.5771337387242964
0.04894137685489139, -0.5192555796554645, -0.7626510493981586
0.02815711769031366, -0.5192556875559893, -0.6246703555817608
0.027198490206020304, -0.519255504336821, -0.8557075459792959
0.18413068792577772, -0.5192556393494694, -0.6995040617149912
-0.03392490321910448, -0.51925564297714, -0.6753230899100556
0.228030330709213, -0.5192556632507116, -0.6733005401462846
0.16154173525801374, -0.519255513283204, -0.8565005098646435
0.055862156277123105, -0.5192556952396674, -0.6174686030733727
0.5087609552921817, -0.5192557941083604, -0.5334688127764406
0.3035224659370803, -0.5192556775837716, -0.6620072829650778
0.09837544287129679, -0.5192555192713204, -0.8432676310854127
0.31958423399568714, -0.5192557279212295, -0.599952740738077
0.1669818762671581, -0.5192556389231406, -0.6985000524120718
0.061837320644986885, -0.5192557115469347, -0.5974348737003365
0.4336960843016756, -0.5192557136657328, -0.6281949606357888
0.03240938381546579, -0.5192556500372675, -0.6723809765748149
0.04308156905667543, -0.519255516533447, -0.8417500150332717
0.13240806488080506, -0.5192555228076963, -0.8418664248617513
0.4045614063247491, -0.5192556869092115, -0.6593277780460833
0.0790101915015316, -0.5192555023430313, -0.8628808853656773
0.030564812354691044, -0.519255509220692, -0.8498494027994055
0.07886517789429949, -0.5192556173581379, -0.7177810632872215
0.04755582273297671, -0.5192555161748129, -0.8426046857176687
-0.04744331576248199, -0.5192557299818198, -0.5643548909318612
0.10485874183984745, -0.5192556145249311, -0.7236920504138424
0.05052222486050326, -0.5192554565722455, -0.9180575528252005
0.09664688922212676, -0.519255683574156, -0.635851011920213
0.09988456208122451, -0.5192557137916181, -0.5980240282439555
0.7372478545368312, -0.519255623473964, -0.7381133304410317
0.48395899421701455, -0.5192555968857632, -0.7668618301200218
0.6540687813436895, -0.5192555392958428, -0.8291309480178608
0.4959292995142734, -0.5192555065768134, -0.864508407869264
0.7239035585065633, -0.5192557011066841, -0.6541729296815035
0.7539510105862702, -0.5192554631623755, -0.911450281321591
0.6141132047262335, -0.5192554464825463, -0.9294853513323255
0.6373014908282584, -0.5192554849075348, -0.8879383215696313
0.7742251332839676, -0.5192554203530537, -0.9577378726244645
0.6235280794066312, -0.5192554101117295, -0.9688113074876569
0.41712966787639216, -0.5192556174424909, -0.7446348624576675
0.1877628209093344, -0.5192554843168797, -0.8885769676219193
0.5985090131041655, -0.5192556962343211, -0.6594411734470806
0.5391216910091138, -0.5192556033378561, -0.7598855028365661
0.565194195541455, -0.5192554346812414, -0.9422455158014653
0.7534816182772643, -0.5192557115804165, -0.6428482034284653
0.306150972394236, -0.5192555339617724, -0.834898413144965
0.742842243773079, -0.519255546763759, -0.8210562615030736
0.6883524684822131, -0.5192554838137842, -0.8891209398289852
0.5882898487672142, -0.5192554103583195, -0.9685446820018372
0.21589738813459367, -0.5192555069933708, -0.8640580052090812
0.41597659587117175, -0.5192554429251942, -0.9333317393621731
0.28417302763737445, -0.5192554858804321, -0.8868863760283241
0.6610929208790524, -0.5192555142871234, -0.8561716331313446
0.7742847337536557, -0.5192557254617789, -0.6278389764336847
0.5725622187826523, -0.5192554942573153, -0.8778288687223885
0.31837201000662996, -0.5192554993454065, -0.8723273686511783
0.40924585994049123, -0.5192556288239416, -0.7323286656185892
-0.026330869779446688, -0.519255411883844, -0.9668952080852471
0.4987556728532414, -0.5192556538756568, -0.7052414915052095
0.20593384748125204, -0.519255480380318, -0.8928333760027032
0.2951732470242361, -0.5192555375254292, -0.8310452083001533
0.573179238218394, -0.519255642981383, -0.7170209280017306
0.5260047218616913, -0.519255530319447, -0.8388366784867393
0.1706465963188376, -0.519255403719908, -0.9757224662638051
0.6684829871039514, -0.5192556155982564, -0.7466289415254156
0.5871097651106995, -0.5192556183786502, -0.7436226398976091
0.22441017589262713, -0.519255422435565, -0.9554861568362645
0.34763344694130816, -0.5192554700505838, -0.9040024041116376
0.5620353409798605, -0.5192554416843265, -0.9346734279469676
0.6474642273967577, -0.5192554344466849, -0.9424991299883884
0.7221669458527282, -0.519255718009932, -0.6358962880626227
0.599682488310994, -0.5192556340135852, -0.7267173620379177
0.636068461223598, -0.5192554850204403, -0.887816242402262
0.7226643488155042, -0.5192557498021204, -0.6015209751678426
0.5903960541277284, -0.5192554253568443, -0.9523275227053332
0.7727681875676253, -0.5192556796582455, -0.6773640600275329
0.697193523464802, -0.5192555951577607, -0.768730233336324
0.3379932054510521, -0.5192554360532984, -0.9407619786217727
0.4960951036077251, -0.519255647357749, -0.7122889810413237
0.4654917020253507, -0.5192555395795104, -0.8288242324091328
0.487702149724557, -0.5192556668116146, -0.6912544833886185
0.26170781405414323, -0.5192555009047712, -0.8706413051304317
0.38127590033543357, -0.5192555321982565, -0.836805215212172
0.6434938311063239, -0.5192554129273197, -0.9657669497362336
0.6892653951752216, -0.5192554464967264, -0.9294700191489544
0.5990816498401117, -0.519255510677888, -0.8600741198393194
0.6602793881273706, -0.5192555416992651, -0.8265322469613521
0.06705605913328974, -0.5192554234739226, -0.9543634323508337
0.695504231477288, -0.5192556806766413, -0.6762629192886145
0.7638438145264422, -0.5192557756552867, -0.5735672318093005
0.16023100677264276, -0.5192554303503938, -0.9469282458910422
0.7286036194962662, -0.5192557174206142, -0.6365334881396556
0.7203056273656303, -0.5192554054461181, -0.9738560010808833
0.3546132190782221, -0.5192554920283671, -0.8802389196928031
0.39132905900384557, -0.5192555862998809, -0.7783078183701287
0.7723865965053236, -0.5192557086523515, -0.6460141746070864
0.3255998944272519, -0.5192555059288586, -0.8652090092802206
0.6998512148427215, -0.519255521043475, -0.8488663258839133
0.6821849531005377, -0.5192555755052217, -0.789979546815199
0.6163823572346985, -0.5192555518810982, -0.8155231369575755
0.5626395890601982, -0.5192555228610598, -0.8469010618734132
0.20882277220601025, -0.5192554207308172, -0.9573294157768875
0.605744780622156, -0.5192556145905485, -0.7477185260056327
0.16090763013107726, -0.5192554990994078, -0.872593354793456
0.4652428250108554, -0.5192556218901372, -0.7398258437051172
0.28596809746583407, -0.5192554442873114, -0.9318589497072449
0.7392355340599497, -0.5192556622130259, -0.6962267086954932
0.459913560721645, -0.5192555584468215, -0.8084239469138007
0.7094979450906864, -0.5192556141416927, -0.748203851411894
0.7046764576421274, -0.5192554768822558, -0.8966156567655184
0.2983540898490432, -0.519255562035699, -0.8045434720191724
0.18959734567055359, -0.5192555011282732, -0.8703996435350891
0.7061838715075621, -0.5192554259565854, -0.9516790525304724
0.5200343268719777, -0.5192556225401592, -0.739123007145898
0.2584507483804397, -0.5192554365144717, -0.940263334970554
0.3977595116026732, -0.5192555051625589, -0.8660375709635858
0.5622807945612155, -0.5192554905020608, -0.8818892387191914
0.7359429880851027, -0.5192556796817822, -0.6773386109784909
0.5485365119199923, -0.5192556284778546, -0.7327028723251753
0.4380656228275246, -0.5192554733082454, -0.9004800565382864
0.49414974030564884, -0.5192554629920084, -0.9116344907146319
0.3669961695781732, -0.5192555824257841, -0.7824966866533416
0.1733718187475698, -0.5192554508762103, -0.9247347009313885
0.6422017215782935, -0.5192556173033959, -0.7447852589854353
0.16842698391869512, -0.5192554314795428, -0.9457073532460538
0.7370735551236718, -0.5192557313744532, -0.6214458956873181
0.5118779536933367, -0.5192555337213846, -0.8351583325871155
0.45425977061257483, -0.5192554718455048, -0.9020616452490497
0.5550598542623012, -0.5192556847694891, -0.6718375264054991
0.7718620812180886, -0.5192557685598248, -0.5812392019243079
0.6614366638697026, -0.5192554216367147, -0.9563499140006193
0.7116343949359857, -0.5192557732485217, -0.5761695470754986
0.2585720583644346, -0.5009833997153568, -0.8047803131730635
0.11975839680418551, -0.5009834212283151, -0.7651621977515481
0.21735885831068766, -0.5009834159074631, -0.7806492570797107
0.5196074278290769, -0.5009835510815706, -0.6373071247786399
0.5765377627677393, -0.5009835711425501, -0.6171194942553768
0.38094208146759156, -0.500983610481109, -0.5499099816745044
0.0563917635890576, -0.5009834879287566, -0.67532519243124
-0.02728283819844696, -0.5009834420836078, -0.7256339788782483
0.2625031555937131, -0.5009834715802329, -0.7144791635077922
-0.019228088986064852, -0.5009833770333956, -0.8084163290917662
0.08081503477433977, -0.5009834010527382, -0.7871115538086533
0.08452334080282091, -0.5009834650492936, -0.7067159364582348
0.4345117244455417, -0.5009835463138319, -0.6356706803756218
-0.03634344422427519, -0.5009834101605768, -0.7650889520700923
-0.029724581143289755, -0.5009835612731318, -0.5750617658868098
0.08859822191843493, -0.500983427217357, -0.7548057310256496
0.21122266575173937, -0.5009834142924292, -0.7821348656056384
-0.043047815558275665, -0.5009832622276843, -0.9510974369311554
0.03742431465660414, -0.5009834612775339, -0.7072392956082161
0.28072614148594643, -0.500983432630909, -0.7652505182915719
0.3019878725079598, -0.5009834563586582, -0.7372305301950474
0.3784327852851903, -0.50098353711247, -0.6422358969118023
0.6095588909975619, -0.5009835887912786, -0.5978251997801824
0.1572529095468797, -0.5009835311441984, -0.6298788739601827
0.37734754675282617, -0.5009834968714986, -0.6929006559287498
0.03875487831892223, -0.5009835251344218, -0.6268060860031737
0.3736603225285756, -0.5009836243142476, -0.5318053609546536
0.08041373015898089, -0.5009835490034037, -0.6004417946903079
0.5771441358791669, -0.5009836230191286, -0.551733841891402
0.5672889279022854, -0.5009836054764187, -0.5729771905669772
-0.02627086053033815, -0.500983512398847, -0.6370251816517348
0.1040643103453149, -0.500983485442444, -0.6827476978063967
0.02436100755790143, -0.5009835399068259, -0.606877187624514
-0.009682047930512722, -0.5009834486038733, -0.7189913771119825
0.5017547505853233, -0.5009836163884405, -0.5533201034440243
0.17412005093458566, -0.5009833701756112, -0.8344506095045425
-0.012801218236468924, -0.5009834483029948, -0.7190904857745667
0.5364609598987725, -0.5009836230741371, -0.5480067241471116
0.10078584220666152, -0.5009834830318034, -0.6854938625160236
0.4408823113871548, -0.5009835930952343, -0.577230629677318
-0.004523033298002785, -0.5009835816587433, -0.5516119663393867
0.6418826969440683, -0.5009836265825288, -0.5530592479548069
0.7409490912539347, -0.5009836471726337, -0.5359924996196941
0.035048546142015136, -0.5009833652442931, -0.828167679075139
0.34410103155533583, -0.5009834515252913, -0.7471139166944798
-0.024715593606194016, -0.5009834606125011, -0.7024913570348972
0.3594055601861981, -0.5009835553143278, -0.6175643099380128
-0.05656830790125895, -0.5009834789807192, -0.6764568043338937
0.37683910583633057, -0.5009836222644769, -0.5346768591463498
0.15228923525391114, -0.5009835755807793, -0.5733776829244699
0.18273664346479265, -0.5009834653916616, -0.7151141759162136
0.3201690998412244, -0.5009835114453733, -0.6693755355243033
0.1852484218443183, -0.5009834749658173, -0.7032626001791894
0.5385089478605494, -0.5009836228652433, -0.5484543646705281
0.4167359475763998, -0.5009834815445886, -0.7157762391119326
0.05341001385400764, -0.5009833036034052, -0.9075759592220592
-0.05767596350086745, -0.5009833631591297, -0.8224613886881555
0.10975576227062811, -0.5009834353659354, -0.7464288583207533
0.30988900607129893, -0.5009834621127897, -0.730682301976092
0.19928553749082134, -0.5009835498469118, -0.6100652229511612
0.5232808043427529, -0.5009835362221766, -0.6563819035463123
0.4612430494463796, -0.5009835225712241, -0.6680243528392924
0.36550095534904287, -0.5009834817439032, -0.7109183968288083
0.069075828907732, -0.5009833284902772, -0.8775906696517868
0.35996622825439006, -0.5009836245995126, -0.5302143075697237
0.058483516301106375, -0.5009835500952381, -0.5970927975461545
0.06991391017129815, -0.5009833162510464, -0.8931053056752852
0.5177911902309132, -0.500983572571639, -0.6100349939900582
0.15035405495016083, -0.5009833455180751, -0.8634183334028936
0.3256058070963827, -0.5009835774469042, -0.5866061204944706
0.00877193569087182, -0.5009832903495058, -0.9202819053769609
0.4534907290579009, -0.5009834932898997, -0.7042645466394772
0.27299355783558765, -0.5009836131187507, -0.53687731216012
0.12426109600054115, -0.5009833968290858, -0.7963456486436136
0.15290022226025357, -0.5009834360058059, -0.7495007029926647
0.3243718852796099, -0.5009835872915392, -0.5740765793144621
0.15421015133465277, -0.50098346639622, -0.7112822181069536
0.11459510518186841, -0.5009834453109838, -0.7343186825898763
-0.05700695362486691, -0.5009833585878443, -0.8282880261867921
0.5339045793141518, -0.5009835937836996, -0.5847255682446755
-0.03357375201813469, -0.5009833524486, -0.8381392531727235
0.3113829233750205, -0.5009836175268776, -0.5347681373137807
0.5062950827787294, -0.5009835509463979, -0.6362807586359576
0.6680907405025074, -0.5009836283294691, -0.5532118570047591
-0.0033164863531451524, -0.5009834299141843, -0.7431399633751017
0.032345513471960595, -0.5009832846932492, -0.9295364843506023
0.1765621391812367, -0.5009833952387084, -0.8030541056815483
0.10196608218633804, -0.5009833809354995, -0.8143902628409077
0.1549441559932352, -0.5009835104335079, -0.6557969835809699
-0.0536299866882871, -0.5009834444600504, -0.7202673855167653
0.03340101271869374, -0.5009833840081173, -0.8043497609422274
-0.05653098813515939, -0.5009833764508808, -0.8057973334122797
-0.031114959894982884, -0.5009834002942944, -0.7780049419493362
0.3370748043653682, -0.5009834944558853, -0.6923270272168213
0.20637919176853906, -0.5009833961331521, -0.8046065814130816
0.6897876817407872, -0.5009836311343713, -0.5516243082338154
0.5795543902777551, -0.5009835647560114, -0.6254470680124296
0.030730920609119868, -0.5009835411088954, -0.6059335298367874
0.032041453449418444, -0.5009835088116801, -0.6467929654720332
0.40452078983430473, -0.5009835508489435, -0.6272534106549222
0.077361394946314, -0.5009833867803614, -0.8048050615629507
-0.049080488043584905, -0.5009833359243475, -0.8575897447132169
0.20688521920801103, -0.5009834834533601, -0.6945012266649626
0.6255721110281495, -0.5009833676478164, -0.8401210590062804
0.3585406407633414, -0.5009833514613908, -0.8576226362766792
0.6363115179101766, -0.5009832694355963, -0.9463130499450702
0.2784931615655781, -0.500983392340525, -0.8134220606881766
0.6811491069903646, -0.5009834883043509, -0.7096611466466448
0.7688460070058323, -0.5009835999692588, -0.5889234329625299
0.38090145540135634, -0.5009832663559521, -0.9496429161619337
0.7080247497512834, -0.5009833406177397, -0.8693473370726832
0.7066784735053959, -0.500983338338471, -0.8718117970047048
0.538407744441206, -0.500983480768167, -0.7178096475340989
0.6655743335490162, -0.5009832915480001, -0.9224040069215595
0.4962791759126719, -0.5009832844616592, -0.9300661151688012
0.3989140477538772, -0.5009832757064031, -0.9395327382355294
0.49678953383738855, -0.5009834707228638, -0.7286711345648048
0.4446895351480815, -0.5009833077226943, -0.9049151143482868
0.5887777702029664, -0.5009833491831793, -0.8600859530087397
0.5120631645006092, -0.5009833660969669, -0.8417979154436017
0.5250625312129098, -0.5009832948715439, -0.918810424375758
0.5529743279383735, -0.5009832561289909, -0.960700820929755
0.47921091972002994, -0.5009833192219026, -0.8924815920500336
0.7140654712832696, -0.5009834616504788, -0.73848065335806
0.539829650331402, -0.5009834923506259, -0.7052861105896132
0.5898171079452456, -0.5009833396311365, -0.8704141020633139
0.10823410477047005, -0.5009832430371055, -0.9748564257061516
0.3738053699749633, -0.5009834410504075, -0.7607544863649359
0.23571003365795526, -0.5009833640171156, -0.844046755178747
0.6844675646197481, -0.5009833508790728, -0.858252267814966
0.6615406927723828, -0.5009834155677452, -0.7883076222983763
0.754102000884851, -0.5009834720231365, -0.7272652141825172
0.17286805363165159, -0.5009832688260492, -0.9469721229447449
0.7088897557460652, -0.500983338642187, -0.8714834040149502
0.5813272287516495, -0.5009834186374701, -0.7849884813790988
0.5634281540987476, -0.5009834779566192, -0.7208496343566531
0.7742170317587338, -0.5009834962462846, -0.7010739284960487
0.4932456120634588, -0.5009833527295672, -0.8562514202532137
0.47558734127217683, -0.5009832540053095, -0.9629970519885245
0.15287047004351925, -0.5009832965259091, -0.9170216415334156
0.7301923098814035, -0.5009833892385248, -0.8167760992865422
0.4190959979854972, -0.5009833509025264, -0.8582269085450807
0.39345721487698443, -0.5009834322923779, -0.7702241084795869
0.6868417143200574, -0.500983465139898, -0.7347077179035895
0.4046163847063087, -0.5009834342270079, -0.7681322892210896
0.7370320053743374, -0.5009833056017274, -0.9072084104033646
0.7196612951500714, -0.5009833919244515, -0.8138719403155947
0.19056957064315638, -0.5009832809415985, -0.933872181854465
0.18665768411871753, -0.5009832474218321, -0.9701154387925972
0.6760093268782584, -0.5009833444122025, -0.8652445731242191
0.1263509301067333, -0.5009832402913414, -0.9778252839266426
0.40812344842988524, -0.5009832913465155, -0.9226218622745908
0.052258254797053594, -0.5009832529505747, -0.9641374843565078
0.7665853729505779, -0.5009832466705589, -0.9709277530984346
0.36355900575028766, -0.5009833268020034, -0.8842856059337387
0.5579551747433585, -0.5009834499038007, -0.7511817524295883
0.7775034804319985, -0.5009833296038619, -0.8812560956175182
0.18233477718774066, -0.500983269858759, -0.9458555052206961
0.366220281801233, -0.500983260307016, -0.9561833300238574
0.159083871545494, -0.500983280197806, -0.9346764077025965
0.42223607248704575, -0.500983273549285, -0.9418651229778798
0.7302855604129381, -0.5009832641605216, -0.9520167259255273
0.7485945897600531, -0.5009833031063462, -0.9099065419946015
0.3024634552711204, -0.5009833630106324, -0.8451350154308266
0.19034139525195454, -0.5009832670467923, -0.9488959449752871
0.23157243625914364, -0.500983311048314, -0.9013192871463094
0.3688187031350654, -0.5009833764685763, -0.8305836097959287
0.7118282150922693, -0.5009835960135108, -0.5932005866221661
0.46990259646780247, -0.5009835013693782, -0.6955345820960146
0.5221471220509936, -0.5009832817752262, -0.9329708216522073
0.4351201714658596, -0.5009834072491939, -0.7973020582778572
0.736746917368332, -0.5009836315588828, -0.554767142949471
0.7783757269031487, -0.500983617840436, -0.5696002174789159
0.7254901933784806, -0.5009835315251643, -0.662928629752931
0.1731237030567714, -0.5009833123321286, -0.8999311622358959
0.5838885793623657, -0.5009834903238123, -0.7074776033828409
0.3145368794505129, -0.5009832879294841, -0.9263165285436804
0.5077225461463957, -0.5009835073340001, -0.6890853329203399
0.4404864755739991, -0.5009832481320866, -0.9693474759346441
0.7739032416395651, -0.5009835544132896, -0.6381808377625859
0.5414513275676052, -0.5009834585803769, -0.7418002020248144
0.3612222619415647, -0.5009833540062716, -0.8548709831535103
0.7680163257763831, -0.5009835869492036, -0.603001371339152
0.4732344553856679, -0.5009833365837454, -0.8737090946545552
0.7746282165250459, -0.5009836177961272, -0.5696481264501163
0.6319359445824092, -0.5009834751028795, -0.723935241189644
0.5560181120305953, -0.5009834131140809, -0.7909606474159199
0.495830196956348, -0.5009833286194885, -0.8823204496032355
0.40881547498221504, -0.5009834493504293, -0.7517800853707883
0.5539877977165625, -0.5009832391925879, -0.9790133114427573
0.576630673371123, -0.5009833189770512, -0.8927463378167907
0.2718594524746324, -0.5009833929548428, -0.8127578293490797
0.5521484602825069, -0.500983394025833, -0.8115998209119342
0.36550249125287054, -0.5009832786271304, -0.936374701036655
0.13782335295141965, -0.5009832901299837, -0.9239372377005215
0.6276643173418434, -0.5009834899916034, -0.7078368043406402
0.4287254906218397, -0.5009832535965735, -0.963438998056438
0.6279321493093768, -0.5009835659392163, -0.6257184261305424
0.5778187306231604, -0.5009835491626609, -0.6438580815992394
0.0760910541723905, -0.5009832886108713, -0.9255797784410812
0.5590795628763854, -0.5009835265874166, -0.6682675708221724
0.5741926936270668, -0.5009835115996433, -0.6844731050558801
0.6973037442453862, -0.5009832630155645, -0.9532547111890713
0.5217262694966256, -0.5009832873425215, -0.9269511818848177
0.612830919275445, -0.5009835408349063, -0.6528624685162395
0.3808527872509678, -0.5009832634910605, -0.95274058102756
0.528559807869551, -0.5036879734818809, -0.9818586707115173
0.7096214418691317, -0.5046392274366909, -0.9818586707115174
0.6439322458113848, -0.505928414701267, -0.9818586707115173
0.08214173054060403, -0.5132022470549573, -0.9818586707115174
-0.04550036654874558, -0.5142831480331072, -0.9818586707115173
0.19386363962112796, -0.5107372098492116, -0.9818586707115173
-0.015103614980027305, -0.5149832982277804, -0.9818586707115172
0.7802869373985166, -0.5028605303577391, -0.8119372732082025
0.7802870423363601, -0.5174066920367185, -0.6133751448362506
0.7802868515215767, -0.5156949196190311, -0.9744325882923482
0.22526381790457506, -0.5044953358077032, -0.5271378755569458
0.13114150083965256, -0.512312666020272, -0.5271378755569458
0.5826525548080146, -0.5051622660675322, -0.5271378755569458
0.2720324594634217, -0.5080261540770722, -0.5271378755569458
0.355629355440642, -0.517154092150844, -0.5271378755569458
0.7504173909585522, -0.5133678788477081, -0.5271378755569458
0.49751198329904944, -0.5141883705175577, -0.5271378755569458
-0.05939285300498909, -0.5066822700913832, -0.7489192887364081
-0.05939291099655312, -0.5048079616232733, -0.9554716765973621
-0.0593928954475402, -0.5151642300141143, -0.8414898533869224
-0.05939281820070073, -0.5064576553494953, -0.52909614289213
0.7786207731213399, -0.5192451081006909, -0.9680302779544124
-0.05782511411183734, -0.5192099428752572, -0.7785978574536199
0.4250855771018654, -0.5010830524647358, -0.9803586628593265
0.5397216305085698, -0.501214064027374, -0.5282531293801155
0.5007209161094062, -0.5017824363315662, -0.9815221474549314
0.7802777976314577, -0.5027811014995714, -0.860500487220252
0.5112879944633306, -0.5015895919323367, -0.5275375039296839
-0.05935546039596573, -0.5026893381387053, -0.9617015769194299
-0.010684532622558113, -0.4121114903110129, 0.9455974407527579
-0.014268080053425695, -0.5076145218033176, 0.9670927333748135
-0.02762807090822743, -0.4709698076937714, 0.9875481184566288
-0.033074243826920126, -0.511702879634988, 0.9915533183661633
-0.04607022948427385, -0.5053798521756646, 0.9966338983852222
-0.06599469750362387, -0.5049877624932539, 0.9985022467360414
-0.07617898745463762, -0.5203637965577612, 0.9986306404492864
-0.13028648885676072, -0.532451092562535, 0.9993127764062255
-0.09467470949997785, -0.4571679177334508, 0.9988638175877711
-0.11306100599235318, -0.4145925809972926, 0.9990956143283142
-0.1137140437987821, -0.4166427123650819, 0.9991038472008256
-0.09025931726654834, -0.4452660084399999, 0.9988081525696229
-0.3389384689233673, -0.46668825699616534, 0.9998758533859232
-0.28783923336226713, -0.4686584170979194, 0.9997969368880342
-0.2467857731830621, -0.4510365803751415, 0.9997335348572991
-0.3400640557395055, -0.41665115384929496, 0.9998775917166169
-0.23661043086240968, -0.416270905395133, 0.99971782028991
-0.3474542041438118, -0.45309868329267633, 0.9998890048938307
-0.35584820431356756, -0.48356604793987046, 0.999901968396893
-0.36535461557162435, -0.42392382177073407, 0.9999166498823545
-0.2747802934839674, -0.4209405914216553, 0.9997767689581223
-0.4006692432233204, -0.47504010416156195, 0.9999711889905805
-0.3830378106635467, -0.5251335735369487, 0.9999439594069065
-0.1673153263103099, -0.44584186958382566, 0.9996108025055523
-0.3636675450922194, -0.5282653646480282, 0.999914044409054
-0.375163164044882, -0.5256492558963372, 0.9999317979816633
-0.17355515661882276, -0.4868866877151714, 0.9996204391576462
-0.36675863434894745, -0.5347538562912781, 0.9999188182170401
-0.2505116630510578, -0.5068796723464578, 0.99973928903692
-0.26374028932824656, -0.47104432866802204, 0.9997597190266492
-0.31141033355859293, -0.5075041164588755, 0.9998333395593942
-0.15972353932304117, -0.5266778509126041, 0.9995990779222944
-0.4283280212693459, -0.4787324337754864, 1.0000001192092896
-0.42217429878799184, -0.41715384194468497, 1.0000001192092896
-0.6112256498246794, -0.513301797934609, 1.0000001192092896
-0.5691899701825083, -0.530741914274813, 1.0000001192092896
-0.44000848313073926, -0.44882909243539115, 1.0000001192092896
-0.5017606673867527, -0.4685222734456749, 1.0000001192092896
-0.5246931584096761, -0.499373175232155, 1.0000001192092896
-0.4772739646873822, -0.444752508455842, 1.0000001192092896
-0.4516547407186248, -0.4601466699317689, 1.0000001192092896
-0.6557172514487265, -0.495647523722614, 1.0000001192092896
-0.594940800658111, -0.49010242797499004, 1.0000001192092896
-0.6605945478048644, -0.4661023030860476, 1.0000001192092896
-0.5957130622160454, -0.4533669783334541, 1.0000001192092896
-0.6048785528772671, -0.484467625395213, 1.0000001192092896
-0.6296395715856306, -0.41380521131395004, 1.0000001192092896
-0.6726606446428776, -0.44495675106413, 1.0000001192092896
-0.5894820423290722, -0.4542883964033177, 1.0000001192092896
-0.44969387796136684, -0.40922793541050584, 1.0000001192092896
-0.6529515735793037, -0.41724716163574, 1.0000001192092896
-0.7851241718845652, -0.4674052650917633, 0.999566605607071
-0.7945973059358049, -0.5388641292709303, 0.998665748940988
-0.8375340039207495, -0.4807584610732172, 0.9524916706649211
-0.8260912424638558, -0.506035893819675, 0.9805604793652044
-0.8333041742056487, -0.5390778619159751, 0.9676232057722787
-0.8215842231015541, -0.519539647272153, 0.9859734478037389
-0.014991269500513965, 0.39166367643608613, 0.92998362226079
-0.34412191940214387, 0.39575524679025065, 0.928623378276825
-0.2716931103825394, 0.39995486431892513, 0.928623378276825
-0.39906800002560805, 0.41346594325322755, 0.928623378276825
-0.3014594880354426, 0.4070782838953738, 0.928623378276825
-0.2115393669796934, 0.3954810415999887, 0.9286233782768251
-0.224987272154915, 0.3998643163342334, 0.928623378276825
-0.33453020854722365, 0.40650586662547983, 0.928623378276825
-0.34037452187686557, 0.4073915168577832, 0.928623378276825
-0.3213125167929401, 0.4706864954965827, 0.928623378276825
-0.3309039186354158, 0.46444121937725386, 0.928623378276825
-0.35512149410111365, 0.4931466421896521, 0.9286233782768248
-0.2980625074042957, 0.4579662877486076, 0.928623378276825
-0.3692116915627221, 0.4988298269185187, 0.9286233782768248
-0.2801557522790595, 0.46855400506327616, 0.928623378276825
-0.27417383775145177, 0.4427142404286231, 0.928623378276825
-0.2249921033616455, 0.461777353337559, 0.928623378276825
-0.4542065246811612, 0.41806230338622125, 0.9286233782768251
-0.47685106476782874, 0.43303752206925783, 0.928623378276825
-0.481585191621961, 0.43865142553193937, 0.928623378276825
-0.5307037794601268, 0.4471388807317414, 0.928623378276825
-0.4478184516744057, 0.4225788245932628, 0.928623378276825
-0.46825528412161577, 0.41337301378341224, 0.928623378276825
-0.5208103220576668, 0.49339105480272905, 0.928623378276825
-0.420028492741546, 0.48476779534793574, 0.928623378276825
-0.48762493257796297, 0.4103282751359461, 0.928623378276825
-0.676795642944896, 0.4867320809037656, 0.928623378276825
-0.612355713896801, 0.41382832735005803, 0.928623378276825
-0.4468429820072842, 0.39085968360077683, 0.928623378276825
-0.5805099423315396, 0.44249389494285285, 0.928623378276825
-0.6677467712354185, 0.48345124885710977, 0.928623378276825
-0.5811642376854862, 0.4367146920466499, 0.928623378276825
-0.6737155989527316, 0.3916987096279676, 0.9286233782768251
-0.05291217620446589, 0.3999092440996181, 0.928623378276825
-0.07658868091675089, 0.4185766355781791, 0.928623378276825
-0.09451777497311747, 0.43459531953489977, 0.928623378276825
-0.08351312784684978, 0.49407260982273277, 0.928623378276825
-0.12479368793161918, 0.4559090721586832, 0.928623378276825
-0.13818796024170993, 0.4443217212538435, 0.928623378276825
-0.09141897610420611, 0.4166229605076866, 0.928623378276825
-0.0402611396500837, 0.4744664574777191, 0.928623378276825
-0.7938129426121745, 0.4518516918368428, 0.928623378276825
-0.8061997652428387, 0.4725781847999147, 0.928623378276825
-0.8238452408229453, 0.4103120601768625, 0.928623378276825
-0.8108853765365813, -0.5428485266031887, 0.9402754219809248
-0.3987124517552707, -0.5428369750598923, 0.9387011905786019
-0.21239259464287422, -0.5428264015171363, 0.9362852432278391
-0.3175083343919188, -0.542875431870696, 0.9638026348185089
-0.2995623210033454, -0.5428754358793576, 0.9535653065072165
-0.4808656103673421, -0.5428754091262817, 0.9510017014169345
-0.5075878452838195, -0.5428754091262817, 0.9600113559920166
-0.49334314551413555, -0.5428754091262817, 0.9607947463545203
-0.479545444292748, -0.5428521468409082, 0.9421305130763227
-0.6359587709709064, -0.5428631324329155, 0.9446070760410503
-0.13348254326149653, -0.5428754687309265, 0.9533165382607267
-0.03560930894605313, -0.5428755283355713, 0.9599849632413703
-0.327859049347959, 0.503038090129558, 0.9841206809776086
-0.19713775950906953, 0.5030131454611215, 0.9895411434182196
-0.21322924750569572, 0.5030512485374757, 0.9644021549268995
-0.26529046152270974, 0.5030512717981287, 0.9757691299050302
-0.5012650660201501, 0.5030513405799866, 0.9729668809857309
-0.6267754809683636, 0.5030513405799867, 0.9667710148422111
-0.6294243073045221, 0.5029944151711088, 0.9940820885021858
-0.596722519862348, 0.5030135666942042, 0.9897645395486263
-0.7862970209297204, 0.5030515255762473, 0.9722929712572319
-0.08486569505295603, 0.503051221370697, 0.9748967168498441
-0.14057476784890366, 0.5030424142031447, 0.982802362932448
-0.4615876188792282, 0.5023377478473721, 0.9995181881834628
-0.5487549870447378, -0.5407401645178975, 0.928708997424843
-0.5192156707263718, -0.5425228266941032, 0.9990718179272096
-0.3603889292256878, -0.5426807369216203, 0.9978475352861762
-0.14526122536037958, -0.5427770923742548, 0.9947915182880858
-0.5305347359396724, 0.5028546778691884, 0.9306337054032875
-0.3462363733182887, 0.5028847644357612, 0.9314635823806642
-0.04846333417714676, 0.502827530704624, 0.9298772390400548
-0.6924134597423661, 0.4233654008685403, 1.0000001192092896
-0.6924658163718264, 0.46391070907114673, 1.0000001192092896
-0.7011664610774668, 0.42579178788423333, 1.0000001192092896
-0.771365865183325, 0.46007239288011764, 1.0000001192092896
-0.7200516188064092, 0.42756404422410765, 1.0000001192092896
-0.7387250099649266, 0.4072789447738544, 1.0000001192092896
-0.7827602243046698, -0.4977072237890393, 0.928623378276825
-0.6923053723417993, -0.5145854383341387, 0.9286233782768251
-0.7256533350719347, -0.4857653885198287, 0.928623378276825
-0.7389579938946426, -0.4887746497904524, 0.928623378276825
-0.7670732852989036, -0.49242911876881446, 0.928623378276825
-0.7109151217121121, -0.40992392589371107, 0.928623378276825
-0.7587215967869199, -0.41823509901679784, 0.928623378276825
-0.7168838673033471, -0.542851469686223, 0.9866456807320507
-0.7661067142685165, -0.5428754091262817, 0.9686911243606119
-0.7260790151274956, 0.5030513943320993, 0.9513081163753563
-0.5983532290173121, -0.5420671730446408, 0.999574577492089
-0.49459199357087213, 0.5013401229341703, 0.9287355295949526
-0.24124095383072552, -0.5427208493622603, 0.9317989618497962
-0.73396899431284, 0.5028282162778525, 0.9298971491012666
-0.15255142968052007, 0.502870924548617, 0.9971313992395178
-0.01182728706535717, 0.44387768813910283, 0.9572647656228905
-0.8383099621831701, 0.4664940626566518, 0.9359552868263741
-0.7864776837290552, -0.5428753910058022, 0.9727533511000935
-0.35240531959228066, -0.542875424072129, 0.9730618119639196
-0.233505883796724, -0.5428754506027555, 0.9730134750194613
-0.2317947468764147, -0.5428754509830438, 0.9737986131439664
-0.35078775338844986, -0.5428203331547505, 0.9935788116095018
-0.21102118649000062, -0.5428416591407254, 0.9885807491957697
-0.6777580439474964, -0.5428435558446131, 0.9884301379870721
-0.42354234855418105, -0.5428754091262817, 0.9745093687068862
-0.5346663000554558, -0.5428754091262817, 0.9705652833968175
-0.4935523942922856, -0.5428754091262817, 0.9772080521610905
-0.11753690095168476, -0.5428439935357309, 0.9875874965344718
-0.13900628942230847, -0.5428754687309265, 0.9703924439446906
-0.40088011454884404, 0.5030513323064237, 0.9556016869329447
-0.3167747066194853, 0.503051294751357, 0.961302788318347
-0.41330200097485426, 0.5030006122300077, 0.9359386573571787
-0.2048483843157265, 0.5030409841910666, 0.9449925515898177
-0.4410387631164655, 0.5030229402900994, 0.9409722148541694
-0.6028680343810653, 0.5030336300718805, 0.9433820911396438
-0.43910474044388925, 0.5030513405799866, 0.9582056830424149
-0.43654447642515987, 0.5030513405799866, 0.9475269125007136
-0.5538429805136242, 0.5030513405799866, 0.9496761302243771
-0.05296416879817127, 0.503038876235631, 0.9441731558175874
-0.07655571990694589, 0.503051221370697, 0.9581060565826922
-0.7793455043583002, -0.5428754091262817, 0.9561723732769517
-0.7432146098454948, -0.5428754091262817, 0.9576892849646572
-0.7370192188226257, 0.5030261210268034, 0.9869615149134281
-0.697232368011742, 0.5030513569158617, 0.9681647109198475
-0.010568945712499831, 0.4709056082848918, 0.9422386298084185
-0.022907375353323347, 0.39261301263968906, 0.9832842749255243
-0.024807896149448692, 0.4378320261280115, 0.9850700081997007
-0.04617045853510781, 0.46017774020685087, 0.9966561274655132
-0.054746788475269086, 0.49777800793624305, 0.9983604475372102
-0.06724529414018458, 0.4021992590961744, 0.9985180166803956
-0.12421068181757193, 0.4209057723824029, 0.999236181520913
-0.13503322532680082, 0.42935476764733016, 0.999372621984849
-0.10988198328383245, 0.4943183740726689, 0.9990555397490464
-0.09522330871064055, 0.48478469416760694, 0.9988707369624054
-0.40584509622409315, 0.45757496348561855, 0.9999791829665914
-0.3222314441114144, 0.4791826709942184, 0.9998500519428491
-0.4057174209291414, 0.44833303977386485, 0.999978985787768
-0.39036206791940664, 0.46356486957113163, 0.9999552713296147
-0.18247291483286732, 0.49237820874007504, 0.9996342120470132
-0.3496522334331309, 0.47050016504084885, 0.9998923999865892
-0.35472638483283037, 0.44214047717995214, 0.9999002363906728
-0.3318544847208765, 0.48840144210177794, 0.9998649135480298
-0.25551228790694, 0.42347348939390456, 0.9997470123445218
-0.19761093645949718, 0.39112439967299106, 0.999657590731015
-0.1878965803549662, 0.400832881337189, 0.9996425881086822
-0.3275236005936589, 0.400343245719294, 0.9998582249883599
-0.16700248190108852, 0.421930745125872, 0.9996103197563979
-0.20906976847183067, 0.44487878199456654, 0.9996752875766601
-0.2328742324433821, 0.42211994232664585, 0.999712050630607
-0.2587407113733015, 0.4005630490194315, 0.9997519982165951
-0.533515442593844, 0.4312969419021041, 1.0000001192092896
-0.6379020046656824, 0.3944218681610145, 1.0000001192092896
-0.4644827681178707, 0.4509184311819716, 1.0000001192092896
-0.6147662312466509, 0.3961579972597552, 1.0000001192092896
-0.46167826639144344, 0.3905023377161229, 1.0000001192092896
-0.5676261233973234, 0.39684915689244193, 1.0000001192092896
-0.5596048414872068, 0.43370172606693097, 1.0000001192092896
-0.44041448124986715, 0.3926127765751667, 1.0000001192092896
-0.6100632051895466, 0.4218899888261171, 1.0000001192092896
-0.5261670957342574, 0.4895518223454647, 1.0000001192092896
-0.6351648773178338, 0.483320310512648, 1.0000001192092898
-0.6589805162055171, 0.4184289286364212, 1.0000001192092896
-0.5279415286268712, 0.462000570272476, 1.0000001192092896
-0.47756398605718337, 0.49854661956407026, 1.0000001192092896
-0.6272338808430442, 0.41699738722127, 1.0000001192092896
-0.6669681198678166, 0.4358432399878746, 1.0000001192092896
-0.7932683417028576, 0.4476042637369003, 0.9988723985278625
-0.801011996832774, 0.45625847013445053, 0.9973179299055648
-0.8373660820248842, 0.4823390639825475, 0.9536574168417132
-0.8317696297699746, 0.442885056707281, 0.970997418161607
-0.8070422327222659, 0.433171701675374, 0.9955662781245181
-0.01863337813669763, 0.008564647925481776, 0.9286588461652109
-0.015604477507236304, 0.19793455898463158, 0.9297605878780455
-0.015563473390248253, -0.010879040555621916, 0.9297755241871681
-0.020734945524710315, -0.29370326986869333, 0.928623378276825
-0.024967956289980782, -0.24786905641082838, 0.928623378276825
-0.02037707331776901, 0.0799769278499957, 0.928623378276825
-0.02091971530143172, 0.02163897222698026, 0.928623378276825
-0.2525088807281091, 0.04210686972291145, 0.928623378276825
-0.41871238928373605, 0.3696473825013885, 0.9286233782768248
-0.32045831502738925, 0.18766958063838407, 0.928623378276825
-0.3190067792902811, 0.20900552816046974, 0.928623378276825
-0.39383496092340126, 0.21261442334753047, 0.928623378276825
-0.2143457606535634, 0.009105343382539828, 0.9286233782768248
-0.3990947590287524, 0.26116698414470824, 0.928623378276825
-0.33772818341348726, 0.19013226838890124, 0.928623378276825
-0.27137575474461456, 0.10887497485441844, 0.928623378276825
-0.4038178931556666, 0.1816537729365166, 0.928623378276825
-0.4189485908301896, 0.030048445013119415, 0.928623378276825
-0.3777405166758526, 0.2732683163284722, 0.928623378276825
-0.34730942148072946, 0.2413656448728857, 0.928623378276825
-0.35293522054896526, 0.10801530079503673, 0.928623378276825
-0.4085484670946232, 0.2981798313864655, 0.9286233782768248
-0.359998671717055, 0.13335840621971398, 0.9286233782768251
-0.27535007540737205, 0.08657345816278707, 0.928623378276825
-0.39888651406338876, 0.16098255808475417, 0.928623378276825
-0.39180284762157724, 0.2487074496076015, 0.928623378276825
-0.3637197666550721, 0.04914208717848823, 0.928623378276825
-0.39958581981012586, 0.2570136208454833, 0.928623378276825
-0.3384564427605281, 0.20798790006231108, 0.928623378276825
-0.37436931677044116, 0.11171480602958489, 0.928623378276825
-0.2705447473780504, 0.028453855621451862, 0.928623378276825
-0.3538722121977631, 0.19309260730156938, 0.928623378276825
-0.37283789827806607, 0.02176834408342674, 0.9286233782768251
-0.41341301519818263, 0.06676140257145305, 0.928623378276825
-0.2788887887559751, 0.15714027309768455, 0.928623378276825
-0.37790344663938646, 0.37068456385786985, 0.928623378276825
-0.27455483770194633, 0.26822646521469184, 0.928623378276825
-0.17704206412428206, 0.2578114949928453, 0.928623378276825
-0.389083637050789, 0.3480361320379003, 0.928623378276825
-0.23572803296790681, 0.14450438838794913, 0.928623378276825
-0.25431485392637937, 0.2443051090945203, 0.928623378276825
-0.17470252180920243, 0.2571966040609687, 0.928623378276825
-0.18590628945488213, 0.053011877605079305, 0.928623378276825
-0.2927564961808837, 0.3660699171930023, 0.928623378276825
-0.23883340088498323, 0.24269698033383888, 0.928623378276825
-0.3548038869530909, 0.3670980320047976, 0.9286233782768248
-0.1829325685867498, 0.06166359377101368, 0.928623378276825
-0.1650680982366275, 0.0874513348617814, 0.928623378276825
-0.2724633223082117, 0.18847566267662455, 0.928623378276825
-0.16217272655028794, 0.11268634924367464, 0.928623378276825
-0.3035214296863232, 0.3112819108499942, 0.9286233782768248
-0.21192843062981956, 0.1873419341323407, 0.928623378276825
-0.1966674334496673, 0.31516895930756716, 0.928623378276825
-0.17321765590352878, 0.33576887786088794, 0.928623378276825
-0.17584048952776218, 0.19633440687632878, 0.928623378276825
-0.1908857592642546, 0.2231675572971096, 0.928623378276825
-0.37572716908834236, 0.33249361644328146, 0.9286233782768251
-0.30480287170277237, 0.24518513501978267, 0.928623378276825
-0.15827952424607522, 0.03854230276843021, 0.928623378276825
-0.28126862723860974, 0.29137762090478747, 0.9286233782768248
-0.20884756194804924, 0.2984101281230547, 0.928623378276825
-0.366619202959998, 0.36470063822337784, 0.9286233782768248
-0.2666788807836107, 0.36964678513062355, 0.9286233782768248
-0.3563509428981431, -0.30444532194369894, 0.928623378276825
-0.3981655624445668, -0.060181597513097825, 0.928623378276825
-0.3737065536089603, -0.35789725843309667, 0.928623378276825
-0.3540033407276212, -0.3359796708895683, 0.928623378276825
-0.3872061103014598, -0.39354949657220895, 0.928623378276825
-0.3021109231122092, -0.3808376964497211, 0.928623378276825
-0.33950839646848496, -0.2195969141929796, 0.928623378276825
-0.277125463673344, -0.2488355687485053, 0.928623378276825
-0.39431875745894596, -0.19162965280662153, 0.928623378276825
-0.3959100577650977, -0.36482512026128616, 0.9286233782768251
-0.3783077817888229, -0.35417663499776475, 0.928623378276825
-0.3724947196131708, -0.40201012682679627, 0.928623378276825
-0.3720130094980995, -0.30369617811771077, 0.928623378276825
-0.35629711103402883, -0.1799701891964117, 0.9286233782768251
-0.18135321564261433, -0.3926988439048988, 0.928623378276825
-0.3691869473197678, -0.18541968463997308, 0.928623378276825
-0.32669558295058587, -0.22730553475308654, 0.928623378276825
-0.41505410865056713, -0.36706985411343823, 0.9286233782768248
-0.34033129931775197, -0.26952770206490295, 0.928623378276825
-0.2802699249501659, -0.3160628300415981, 0.928623378276825
-0.25096574974746144, -0.340689643217333, 0.928623378276825
-0.3878320707093981, -0.40085266085835725, 0.928623378276825
-0.37094663231907354, -0.2952746900328923, 0.928623378276825
-0.3737209455970763, -0.09151045964138416, 0.928623378276825
-0.41268357725278515, -0.25272526436617737, 0.9286233782768248
-0.28358776033958716, -0.2976823305139357, 0.928623378276825
-0.3131031640573867, -0.2130454293843956, 0.928623378276825
-0.25202104229203787, -0.3287327607645654, 0.9286233782768248
-0.31156606235749384, -0.18389030447492247, 0.928623378276825
-0.34055708810163826, -0.14937406990707908, 0.928623378276825
-0.23393014077868485, -0.07200336591599277, 0.9286233782768251
-0.21977832882059428, -0.12364814375277557, 0.928623378276825
-0.278692104169793, -0.10966582288626549, 0.928623378276825
-0.2130970082581631, -0.18045371869931826, 0.928623378276825
-0.19648508413989302, -0.09409280838442692, 0.928623378276825
-0.294114077437892, -0.15287670303071726, 0.928623378276825
-0.26057286185059614, -0.029050596207188365, 0.928623378276825
-0.17365665982937983, -0.05101635515927794, 0.928623378276825
-0.21281455576634306, -0.29371476628247595, 0.9286233782768251
-0.3556280106782625, -0.07763753515771478, 0.928623378276825
-0.35655915624617546, -0.07436080697767168, 0.9286233782768248
-0.34433660002022504, -0.10026063535976408, 0.928623378276825
-0.2172608918499865, -0.10873818292427694, 0.9286233782768251
-0.24321410251960754, -0.18247239677408142, 0.928623378276825
-0.23929892240519515, -0.012230393085652984, 0.9286233782768248
-0.17234117993316467, -0.08718886603965575, 0.928623378276825
-0.19602039221969966, -0.05189858745889575, 0.928623378276825
-0.19949692044897338, -0.05503408069689946, 0.9286233782768251
-0.22870661550454308, -0.026210646401576533, 0.928623378276825
-0.17678248883250952, -0.0819359338672987, 0.928623378276825
-0.22027757453085392, -0.29621384456256866, 0.928623378276825
-0.15362601359570077, -0.19359450958071384, 0.928623378276825
-0.30259218221742223, -0.04185208655485644, 0.9286233782768251
-0.2618407374632958, -0.1515744681096074, 0.928623378276825
-0.28312172569394434, -0.05249526956801795, 0.9286233782768251
-0.3723614594323944, -0.025121349696867468, 0.9286233782768251
-0.2975678704112103, -0.012851032303503786, 0.928623378276825
-0.20335169060010977, -0.29908955068065796, 0.928623378276825
-0.23696723366176758, -0.06586150826971375, 0.928623378276825
-0.3244880826240326, -0.11383578135494067, 0.928623378276825
-0.6178096149656619, 0.0011412092044419814, 0.928623378276825
