-0.7804224784551621, 0.42616599798202515, -0.11773101044012363
-0.9764987955440301, 0.42616599798202515, 0.534878885548067
-0.7342000387349978, 0.42616599798202515, 0.40331009294375875
-0.9645327726926103, 0.42616599798202515, 0.040184663968600876
-0.8566682325688123, 0.42616599798202515, 0.5528069129461204
-0.8056864296066821, 0.42616599798202515, -0.2446745599554499
-0.9484115061135521, 0.42616599798202515, 0.1624198837764907
-0.6310756797785435, 0.4261659979820251, 0.49962874798403967
-0.9589259008903064, 0.42616599798202515, -0.7490786073361325
-0.7433072532873471, 0.42616599798202515, 0.503013553971288
-0.9042108612653673, 0.42616599798202515, -0.27919806332687
-0.8949664205043091, 0.42616599798202515, -0.5270936368645429
-0.9822812973949476, 0.42616599798202515, 0.28379643518094005
-0.8167799960754297, 0.42616599798202515, 0.14201556004536098
-0.8587386630467693, 0.42616599798202515, 0.05763113369223177
-0.8926912173109494, 0.42616599798202515, -0.526357177056788
-0.9001016745084769, 0.4261659979820252, 0.18189208728151507
-0.7261173133783909, 0.42616599798202515, 0.3670503416108274
-0.6612742721647059, 0.42616599798202515, 0.5150684894631009
-0.8999765522683807, 0.42616599798202515, -0.1828877233755618
-0.9366217595988637, 0.42616599798202515, -0.5685380142219099
-0.9064615875407204, 0.42616599798202515, -0.2954118177248095
-0.8850259413901587, 0.42616599798202515, -0.018139021947920664
-0.8695300735060998, 0.42616599798202515, 0.17865075579174122
-0.8877330219556756, 0.42616599798202515, -0.0671360019367892
-0.9521454547999817, 0.42616599798202515, -0.05091070005435716
-0.8189499686861745, 0.4261659979820252, -0.017069015397641774
-0.7899987937462567, 0.42616599798202515, -0.033392376732138296
-0.8954148899076593, 0.4261659979820251, 0.3620166032586269
-0.9639606099354037, 0.42616599798202515, 0.00655944505611189
-0.820953864871488, 0.42616599798202515, -0.08717389744764925
-0.964212281504021, 0.42616599798202515, -0.8344377297100092
-0.724639713092514, 0.4261659979820252, 0.5060048124135685
-0.8370032226536066, 0.4261659979820251, 0.5167395773278899
-0.9731456188330267, 0.42616599798202515, -0.11410486954234017
-0.8165981633839947, 0.42616599798202515, -0.2125523456964632
-0.8239298649595356, 0.42616599798202515, 0.17429484523318062
-0.7749767743999164, 0.42616599798202515, 0.29911659840340643
-0.8560499345468848, 0.42616599798202515, 0.29441897919731297
-0.8162918750984158, 0.42616599798202515, 0.20751107606639035
-0.8106501064386935, 0.4261659979820252, 0.24404480125690817
-0.8719583823926716, 0.42616599798202515, -0.30996800539088876
-0.63890589430451, 0.42616599798202515, 0.4879209975354517
-0.8616429943038655, 0.42616599798202515, -0.46030355400114276
-0.7702573387057047, 0.4261659979820252, 0.3941790136715573
-0.861068299724397, 0.42616599798202515, -0.3565569336512377
-0.7998201537797356, 0.42616599798202515, 0.3156167066605853
-0.8890816242628281, 0.42616599798202515, -0.43557694749900816
-0.8743015281917603, 0.42616599798202515, 0.21118299211840544
-0.9804877713769569, 0.42616599798202515, -0.6537670996804194
-0.9290442815768797, 0.42616599798202515, 0.43530850704413676
-0.8800594903258936, 0.42616599798202515, -0.4966223975400372
-0.9213878485500965, 0.4261659979820251, 0.4397588034144072
-0.9469718356474224, 0.42616599798202515, -0.1338838302654905
-0.9008619997679539, 0.42616599798202515, -0.589418088012549
-0.7380444621044687, 0.42616599798202515, 0.42781870572200476
-0.7360492593867327, 0.42616599798202515, 0.20604491043880133
-0.7077292391993276, 0.42616599798202515, 0.42066574004507457
-0.982963775573503, 0.4261659979820251, -0.9461256329933931
-0.911192908715495, 0.4261659979820251, -0.6378638585796446
-0.8705728308861174, 0.4261659979820252, 0.49389268562184324
-0.9555724556692634, 0.42616599798202515, 0.22555887007293726
-0.7806660460022921, 0.42616599798202515, 0.003815803564945097
-0.9347352179714576, 0.42616599798202515, -0.2128779578411778
-0.8980642765237647, 0.42616599798202515, -0.5296406975969765
-0.8627488932641381, 0.4261659979820252, 0.3266556213771675
-0.7557791891354366, 0.42616599798202515, 0.20218924608279912
-0.9258154552631372, 0.4261659979820252, -0.4321712923273126
-0.9628225020110635, 0.42616599798202515, -0.6331392912654419
-0.819899771451194, 0.42616599798202515, 0.02907771512685048
-0.7967512407102013, 0.42616599798202515, 0.2894586862918689
-0.9452936260403375, 0.4261659979820251, 0.20049715189256592
-0.9585882530688936, 0.42616599798202515, 0.0009125968547358809
-0.9070557313908721, 0.42616599798202515, -0.42053248924450104
-0.7208825756081616, 0.42616599798202515, 0.27797485555083123
-0.8704040407026665, 0.4261659979820251, 0.5574279873172111
-0.7947496805650569, 0.42616599798202515, 0.28533942911728905
-0.8829039199105251, 0.42616599798202515, 0.0957618945523474
-0.9007521083314629, 0.42616599798202515, -0.3640524936916066
-0.7981806373855319, 0.42616599798202515, -0.013164309045863631
-0.8529670296742252, 0.42616599798202515, -0.18684234340753114
-0.9355806851266895, 0.42616599798202515, -0.16980419481635012
-0.8003874995332467, 0.42616599798202515, 0.35704927321887237
-0.889568319699141, 0.4261659979820252, 0.4311618606761715
-0.7232096585325277, 0.42616599798202515, 0.21807752064054572
-0.8623692710274283, 0.42616599798202515, -0.40152249763013426
-0.8503689662599274, 0.42616599798202515, 0.5708860163233679
-0.8963807214879673, 0.42616599798202515, 0.0626125150953436
-0.7676133970460672, 0.42616599798202515, -0.004650233660012604
-0.6501649922313513, 0.42616599798202515, 0.4057616647699265
-0.9481012390293605, 0.42616599798202515, -0.48912416504957124
-0.9319152318793182, 0.42616599798202515, -0.4136675390665558
-0.7635618635403484, 0.42616599798202515, 0.28572089300326664
-0.9117548559741178, 0.4261659979820251, 0.4274374978193326
-0.9705118745079101, 0.4261659979820252, 0.5030678259256387
-0.8971987753302676, 0.42616599798202515, -0.46810116949949165
-0.9055491904521903, 0.42616599798202515, -0.09349156472405451
-0.8452704485750786, 0.42616599798202515, -0.25473822386414446
-0.9767270009825708, 0.42616599798202515, 0.16066615711391352
-0.9925174062142361, 0.42616599798202515, -0.38875487772140727
-0.8631299798141082, 0.42616599798202515, -0.10031806243723923
-0.9096556648657362, 0.42616599798202515, 0.37962715048677426
-0.9505844955671598, 0.42616599798202515, 0.11014247821671097
-0.8504748502742726, 0.42616599798202515, -0.26967987830580253
-0.7476080304344922, 0.42616599798202515, 0.050866998701049104
-0.9793202363283448, 0.42616599798202515, 0.27566611247767364
-0.8829074774749925, 0.42616599798202515, 0.42886084664135465
-0.6881887355459774, 0.42616599798202515, 0.5554994302883604
-0.8172251084599964, 0.42616599798202515, 0.33009439850087197
-0.7122660612899968, 0.42616599798202515, 0.41994247836886267
-0.860824178251844, 0.42616599798202515, 0.0788177344767681
-0.9213728179146338, 0.42616599798202515, 0.3494153024228793
-0.8737896489386145, 0.42616599798202515, -0.37781808045621584
-0.8532909497578182, 0.42616599798202515, 0.5452104579814545
-0.6586246654499938, 0.4261659979820252, -0.3597639552239697
-0.8128026969057398, 0.42616599798202515, -0.4400947653636601
-0.6616090820240286, 0.42616599798202515, -0.010988189031359619
-0.6736937634939432, 0.42616599798202515, 0.20775167421572716
-0.8350355781587133, 0.4261659979820252, -0.7898775455737995
-0.9194786427660502, 0.4261659979820252, -0.7621128536853168
-0.6264144457719835, 0.42616599798202515, -0.5248014549300082
-0.6705379182813423, 0.42616599798202515, -0.5458968938459146
-0.6249880527420533, 0.42616599798202515, 0.07627602237561582
-0.9404942343861604, 0.4261659979820252, -0.8561530140292052
-0.9016393887451765, 0.4261659979820251, -0.8952497845444425
-0.6199957467890052, 0.42616599798202515, -0.08164326331005228
-0.5995617547751361, 0.42616599798202515, -0.07387406743719477
-0.6201868803378501, 0.42616599798202515, 0.12024524533990691
-0.8408411051483177, 0.42616599798202515, -0.4227913116680099
-0.7588701132121656, 0.42616599798202515, -0.6530805830247788
-0.6116134351714646, 0.42616599798202515, 0.3401060336921082
-0.6061943853727157, 0.42616599798202515, -0.5601927771084727
-0.7352797821964431, 0.42616599798202515, -0.5387102771538955
-0.6085730027923661, 0.42616599798202515, -0.5857152516773304
-0.6137785136732566, 0.42616599798202515, 0.30737630252861625
-0.7207539255539787, 0.42616599798202515, -0.5697306061714904
-0.7718998616154008, 0.42616599798202515, -0.5058272732721815
-0.641154452460174, 0.42616599798202515, -0.5506405380885713
-0.6592069997219149, 0.42616599798202515, -0.11757965592229747
-0.7940511156169167, 0.4261659979820252, -0.4345282553364112
-0.7340375895098974, 0.42616599798202515, 0.005090339785913944
-0.6387461511439338, 0.42616599798202515, 0.002454997229404121
-0.7700827344319412, 0.42616599798202515, -0.5331596714772686
-0.6097655192308229, 0.42616599798202515, -0.29599499261072715
-0.819306499242862, 0.42616599798202515, -0.529469055033515
-0.8932566096134089, 0.42616599798202515, -0.681077563354446
-0.6010133502758601, 0.42616599798202515, 0.1832626482153911
-0.7238262174038232, 0.42616599798202515, -0.27441757616033596
-0.598697063027484, 0.42616599798202515, 0.5053643446221543
-0.6357752259209327, 0.4261659979820251, -0.30454094569436013
-0.6737817552902635, 0.4261659979820252, -0.3911366992796417
-0.7416182771409618, 0.42616599798202515, -0.24316548981846783
-0.6820447192861963, 0.42616599798202515, -0.31107663004384617
-0.7020460542646996, 0.42616599798202515, -0.15187557203490504
-0.7510024803750326, 0.42616599798202515, -0.700110830361951
-0.9485164523405776, 0.42616599798202515, -0.8514806075145971
-0.6173381027687019, 0.42616599798202515, -0.3455574263604242
-0.606089497812053, 0.42616599798202515, -0.027627679152956275
-0.8826682886927959, 0.42616599798202515, -0.6067059104644996
-0.7467761208611503, 0.4261659979820251, -0.43888404336683073
-0.8248320308996248, 0.42616599798202515, -0.6133129049332986
-0.8254069280255808, 0.42616599798202515, -0.4066464087814864
-0.6489484923572941, 0.4261659979820251, 0.14569219268842798
-0.7080040808796688, 0.42616599798202515, -0.5050291750165543
-0.9084554995788877, 0.42616599798202515, -0.7585788963092123
-0.7161398830531578, 0.4261659979820251, -0.05938119097101541
-0.6313086227323786, 0.42616599798202515, 0.19489047496757544
-0.6328897700678265, 0.42616599798202515, -0.6218668297531342
-0.9606079353597188, 0.42616599798202515, -0.9014791744531881
-0.6395857357211594, 0.4261659979820252, -0.5816813717965521
-0.5985660606237366, 0.42616599798202515, -0.18374876061339385
-0.624485879718543, 0.42616599798202515, 0.1562967840821502
-0.6133047697390128, 0.42616599798202515, -0.5958106888387867
-0.6194783989242079, 0.42616599798202515, -0.5421205504527866
-0.6057928392479509, 0.42616599798202515, -0.2377848090279576
-0.6813690161010395, 0.42616599798202515, -0.6344226101007042
-0.850124569159234, 0.42616599798202515, -0.623577408436137
-0.6148443683821929, 0.4261659979820251, -0.4579534759292428
-0.7261456561771115, 0.42616599798202515, -0.6448224922849449
-0.686457963182248, 0.42616599798202515, -0.5813893513531015
-0.8224112708850394, 0.4261659979820251, -0.7566828673265342
-0.7108996718875586, 0.42616599798202515, -0.06209655333402514
-0.6533634498241958, 0.4261659979820251, -0.35592748684284686
-0.7891504670866158, 0.42616599798202515, -0.47165439572070705
-0.6410782960777155, 0.4261659979820251, -0.41098095061309226
-0.6332651370181912, 0.4261659979820251, -0.6171459889717501
-0.7753989145822415, 0.42616599798202515, -0.5751645338081163
-0.690647902122945, 0.42616599798202515, -0.39708487701924844
-0.6672132199119062, 0.42616599798202515, 0.2587848694632424
-0.6092758191749605, 0.42616599798202515, 0.01758311328871648
-0.644508051982263, 0.42616599798202515, 0.07196778093905765
-0.6665013983163485, 0.42616599798202515, -0.5478743384991581
-0.688909002416039, 0.42616599798202515, 0.030885391831208753
-0.7335038561260765, 0.42616599798202515, -0.28540138684733957
-0.8225222760496492, 0.42616599798202515, -0.4816539233760647
-0.6607843851474854, 0.4261659979820251, 0.10507353679230325
-0.7063367734902046, 0.42616599798202515, 0.140737717353266
-0.673192180857271, 0.42616599798202515, -0.0116284190269631
-0.7387885240733733, 0.42616599798202515, -0.3702072985493462
-0.6439702962954361, 0.42616599798202515, -0.03873712936795992
-0.6548128226694219, 0.42616599798202515, 0.30946753888206696
-0.7758741263740262, 0.42616599798202515, -0.6148420095396894
-0.6876603293552626, 0.42616599798202515, -0.15117860655698245
-0.8060499401856138, 0.42616599798202515, -0.7462709256789463
-0.690881725990853, 0.4261659979820252, -0.5077586429173252
-0.6148871082075527, 0.42616599798202515, 0.43651549975456544
-0.908546644136774, 0.4261659979820251, -0.7655575467503354
-0.8602846655259089, 0.42616599798202515, -0.5129283621344207
-0.7075267230779835, 0.42616599798202515, -0.305417902375716
-0.6509020082617814, 0.42616599798202515, -0.1326399134389043
-0.7392529219662375, 0.42616599798202515, -0.07902022759204858
-0.7052221805147485, 0.42616599798202515, -0.5464846658175233
-0.7532739665970735, 0.42616599798202515, -0.20107612014134002
-0.6138961958657917, 0.42616599798202515, -0.5047892423619162
-0.7182473269107275, 0.42616599798202515, -0.19284348640527815
-0.7686274451572211, 0.42616599798202515, -0.6454576441166363
-0.647054060728492, 0.42616599798202515, -0.02540467592621415
-0.614415777108082, 0.4261659979820251, -0.44907680542689565
-0.6124747658583954, 0.42616599798202515, 0.05413754810233784
-0.6370379574979388, 0.42616599798202515, -0.39255579780214167
-0.599285061369461, 0.42616599798202515, -0.2601456326361723
-0.6957696121545562, 0.42616599798202515, -0.45377806681542
-0.7923755477077618, 0.42616599798202515, -0.7217069564577241
-0.630474739278061, 0.42616599798202515, -0.6210605801576748
-0.6650636983559235, 0.42616599798202515, 0.06355970297513452
-0.7307664248607428, 0.42616599798202515, -0.2352105611158329
-0.6628113014885977, 0.42616599798202515, -0.07757882131333893
-0.9015545190387637, 0.42616599798202515, -0.889761395451553
-0.6923293692828124, 0.42616599798202515, -0.6366287995551039
-0.6863053825879368, 0.42616599798202515, 0.07238647508004031
-0.747367174273214, 0.42616599798202515, -0.1721387349850229
-0.8988162437298568, 0.42616599798202515, -0.6246348912889524
-0.5996766555486011, 0.4261659979820252, -0.41964789431627364
-0.7316698591558224, 0.42616599798202515, -0.006493925605994932
-0.6361995120856705, 0.42616599798202515, 0.23267870946782143
-0.6506309045450348, 0.42616599798202515, -0.057185128441301136
-0.7435714147543633, 0.42616599798202515, -0.06271384326267221
-0.6610847232364689, 0.42616599798202515, -0.39682475464735767
-0.6414631523259293, 0.42616599798202515, -0.09738803815115443
-0.774849289582757, 0.42616599798202515, -0.3320488837421146
-0.6007629483719911, 0.42616599798202515, 0.10924616173781304
-0.8419223684289591, 0.42616599798202515, -0.6844925841366015
-0.7832955284646188, 0.42616599798202515, -0.6613534462385059
-0.8606553208240652, 0.42616599798202515, -0.6571908963974669
-0.5968784141520374, 0.49978649616241455, -0.22382556873131856
-0.8177682076626784, 0.49978649616241455, -0.43550029890686176
-0.6337376150652889, 0.49978649616241455, 0.21519371800602785
-0.6182122542213007, 0.49978649616241455, -0.26673567291317285
-0.6321485037785177, 0.49978649616241455, 0.1726282394687923
-0.7532316214526892, 0.49978649616241455, -0.3813909537377696
-0.6965219978627741, 0.49978649616241455, 0.10510596269720762
-0.6255344554537348, 0.4997864961624145, 0.11711935959324872
-0.8153524114185366, 0.49978649616241455, -0.6063850018235573
-0.9021200541922629, 0.49978649616241455, -0.6463405320062812
-0.8323622351018519, 0.4997864961624145, -0.48464530053278604
-0.8588147159787745, 0.49978649616241455, -0.49869429030104206
-0.6674608836349718, 0.49978649616241455, 0.28809275594359
-0.6565014709308905, 0.49978649616241455, -0.04669930380554094
-0.7175227251899534, 0.49978649616241455, -0.14784175054884924
-0.7187102968892851, 0.49978649616241455, -0.587137368577632
-0.6714297550090798, 0.4997864961624146, -0.6464961813087954
-0.6038679739969302, 0.49978649616241455, 0.4498383808471379
-0.6827983393721934, 0.4997864961624145, -0.5189304964667859
-0.8064685294317427, 0.49978649616241455, -0.44997619211181583
-0.7311193345633445, 0.49978649616241455, -0.29435077290840383
-0.6834698290975674, 0.49978649616241455, -0.3114359237842892
-0.7260302184572118, 0.4997864961624146, -0.717813495741877
-0.6002851243522254, 0.4997864961624146, 0.03845569686834018
-0.9069256535864554, 0.4997864961624145, -0.7283993991720275
-0.7375190143602843, 0.49978649616241455, -0.7041721187815202
-0.6591706951523801, 0.49978649616241455, 0.12903858815482178
-0.7553461292544854, 0.49978649616241455, -0.18455173990974527
-0.6081807286924497, 0.49978649616241455, 0.42634637445137813
-0.6207677525820535, 0.49978649616241455, -0.4656663539617348
-0.6454357697335815, 0.4997864961624146, -0.3122682612043812
-0.7308751677883157, 0.49978649616241455, -0.20472801117704598
-0.6094084204630803, 0.4997864961624146, 0.19672118712883968
-0.6763021301037898, 0.49978649616241455, -0.13062133348821836
-0.8500032465936966, 0.49978649616241455, -0.6786741179975844
-0.7811460024423859, 0.4997864961624145, -0.7614988952301287
-0.7202869345255865, 0.49978649616241455, 0.041172162616953556
-0.602445174252459, 0.49978649616241455, 0.27124416829864983
-0.8391387692195716, 0.49978649616241455, -0.6011513671351937
-0.680177354930455, 0.49978649616241455, -0.43613724577065194
-0.7812899186985427, 0.49978649616241455, -0.2907177505853308
-0.6577562206913539, 0.49978649616241455, 0.08474601289467926
-0.6100319089810909, 0.49978649616241455, 0.041188144484188144
-0.7696536195407674, 0.49978649616241455, -0.1871667435177809
-0.6386105402044333, 0.49978649616241455, -0.5640588223205811
-0.7023751540090257, 0.49978649616241455, 0.034380920749871924
-0.6314960909381481, 0.4997864961624146, -0.44687770282873057
-0.7535745526610809, 0.49978649616241455, -0.7142838646083811
-0.9181116893445584, 0.49978649616241455, -0.8697585280823976
-0.6789642670828183, 0.49978649616241455, -0.6514564012098442
-0.9450280739760772, 0.49978649616241455, -0.8503453389527774
-0.6299131742513476, 0.49978649616241455, 0.1445138578817005
-0.6527820391302265, 0.49978649616241455, -0.5119862366835755
-0.7120758769949154, 0.49978649616241455, -0.6992841193526013
-0.7914966524597968, 0.49978649616241455, -0.45732641938708807
-0.6688790810082339, 0.49978649616241455, -0.028940999486272906
-0.868967812405288, 0.49978649616241455, -0.7234954293039564
-0.832204812617507, 0.49978649616241455, -0.808033740227715
-0.77833578422533, 0.49978649616241455, -0.29219480931597897
-0.7039315855219026, 0.49978649616241455, 0.11613920509357406
-0.6082135141201063, 0.4997864961624146, -0.4274043781515415
-0.7215642982051277, 0.49978649616241455, -0.6562334774178102
-0.7048359405207286, 0.49978649616241455, -0.028747424139546646
-0.6913421660175061, 0.49978649616241455, -0.5492981130061005
-0.7625186019520294, 0.49978649616241455, -0.7179241860738332
-0.7453527087443308, 0.49978649616241455, -0.1872061683080105
-0.8344105957550005, 0.49978649616241455, -0.511579563481618
-0.6598897896590014, 0.49978649616241455, -0.18374699718846899
-0.6611921527637252, 0.49978649616241455, 0.22430994012966993
-0.7514457989991485, 0.49978649616241455, -0.5134677476386034
-0.8977077918846346, 0.4997864961624146, -0.8151064751918997
-0.7767487465360254, 0.49978649616241455, -0.2877490421556796
-0.6610837711747624, 0.49978649616241455, -0.6326883740870974
-0.6734216656542477, 0.49978649616241455, -0.5698987216272668
-0.6715400641713688, 0.4997864961624145, 0.09444397589895379
-0.9282430064830436, 0.49978649616241455, -0.7480789520756289
-0.6235063210378091, 0.4997864961624146, -0.6061540284134501
-0.8256322640257953, 0.49978649616241455, -0.3655890402197354
-0.8814594315928412, 0.49978649616241455, -0.7404029221426263
-0.7823865253923343, 0.49978649616241455, -0.5410358092415571
-0.7510014640328546, 0.4997864961624146, -0.6540243478528457
-0.7975594793474151, 0.4997864961624145, -0.2901502967005296
-0.8092348016387412, 0.49978649616241455, -0.2896242577671946
-0.6937909178738807, 0.4997864961624145, -0.31669352156715397
-0.8046309050543732, 0.49978649616241455, -0.3624835639712853
-0.818169501698711, 0.49978649616241455, -0.5741311857004068
-0.6886850059916008, 0.49978649616241455, 0.12043754213313576
-0.73516566589646, 0.49978649616241455, -0.006550449455455742
-0.7162399499655803, 0.49978649616241455, -0.20839280955593584
-0.9017827570887571, 0.49978649616241455, -0.6289250065310993
-0.6415612706025826, 0.49978649616241455, -0.36870355757748663
-0.7621985439302417, 0.49978649616241455, -0.5725918863134138
-0.890080221885662, 0.49978649616241455, -0.5976275119709562
-0.8134896821299971, 0.49978649616241455, -0.3640895794085015
-0.806060989947614, 0.49978649616241455, -0.4081288005431304
-0.7405107118313479, 0.4997864961624145, -0.14020797564257217
-0.6901317416495761, 0.49978649616241455, -0.547717393045499
-0.6179270874600367, 0.49978649616241455, 0.20885139836778172
-0.7004453901347761, 0.49978649616241455, -0.5207056276302664
-0.6517028636841904, 0.49978649616241455, -0.4314233594136944
-0.8926779858894551, 0.49978649616241455, -0.6145100282475409
-0.6317609892548002, 0.49978649616241455, -0.2617457063241707
-0.7563037721507143, 0.49978649616241455, -0.5030677373185021
-0.6091818079817595, 0.49978649616241455, -0.35000019240879005
-0.8735800860231282, 0.49978649616241455, -0.6938241483470446
-0.784432380082241, 0.49978649616241455, -0.4829275235111944
-0.7218112674013117, 0.49978649616241455, -0.28411769814286014
-0.6846278783587871, 0.49978649616241455, -0.22979503531648007
-0.6434989784888926, 0.4997864961624145, -0.007245688885057361
-0.7211387875828013, 0.49978649616241455, -0.021142333294523363
-0.9240267641411354, 0.4997864961624145, -0.8638590381164248
-0.755538418005449, 0.49978649616241455, -0.5758131512617485
-0.6203998319995716, 0.4997864961624146, 0.21263423749063481
-0.723185127158462, 0.49978649616241455, 0.0627056938595334
-0.6769942838968843, 0.4997864961624145, -0.14385829249972082
-0.6103203640925435, 0.49978649616241455, 0.14342918974130386
-0.8555013883011882, 0.49978649616241455, -0.6018883576785183
-0.6631412475318985, 0.49978649616241455, -0.041688626736387485
-0.7374138580228482, 0.49978649616241455, -0.6144641289697197
-0.6968495460183106, 0.49978649616241455, -0.5450429152161396
-0.7533902427053175, 0.49978649616241455, -0.26414715451936754
-0.6287072268744389, 0.49978649616241455, -0.2544369210749892
-0.7773017509098162, 0.49978649616241455, -0.2386331576163867
-0.7647404987054534, 0.49978649616241455, -0.5178477209244267
-0.8051498816670406, 0.49978649616241455, -0.4861240511438849
-0.6950224506636046, 0.49978649616241455, -0.1689520254483406
-0.7502067281545612, 0.49978649616241455, -0.37528470247528867
-0.7078409425064203, 0.49978649616241455, -0.4039452969281076
-0.9051720029238687, 0.49978649616241455, -0.6852335962841302
-0.6317170854206635, 0.4997864961624146, -0.35157790260073385
-0.6370478634038362, 0.4997864961624146, 0.08788481692259527
-0.9451299524207194, 0.49978649616241455, -0.5966347476304054
-0.9551889158855473, 0.49978649616241455, -0.24601602557127542
-0.8267458642376357, 0.49978649616241455, -0.2773064356036878
-0.8392683220929166, 0.4997864961624146, -0.2671708324104155
-0.8021672357006034, 0.49978649616241455, 0.3051883169187788
-0.9143832785981987, 0.49978649616241455, 0.271415017303201
-0.8578483447396335, 0.4997864961624146, 0.11301871452267245
-0.6136609798550268, 0.49978649616241455, 0.5457427380166584
-0.7525564068939373, 0.49978649616241455, 0.27472675803777385
-0.9740706151717482, 0.49978649616241455, 0.4758084359453925
-0.6512144305079651, 0.49978649616241455, 0.42489413238853935
-0.8637315189303311, 0.49978649616241455, -0.1815477104266691
-0.9609049044246692, 0.4997864961624146, -0.45873830280455014
-0.8323982071226586, 0.49978649616241455, -0.1684268404957396
-0.9445778563398757, 0.49978649616241455, 0.09778853209339083
-0.7146651996349219, 0.49978649616241455, 0.19052119279342047
-0.9133828763403257, 0.4997864961624146, -0.4364813275109561
-0.8183405951906231, 0.49978649616241455, -0.18506426967595058
-0.8296841076799919, 0.49978649616241455, 0.4826220236346329
-0.8087348170598985, 0.49978649616241455, -0.007301939823391945
-0.9799526832205151, 0.49978649616241455, -0.07363016461167803
-0.8590231304096327, 0.49978649616241455, -0.2659216446012991
-0.945134210737379, 0.49978649616241455, -0.5550151262499898
-0.9177267744780606, 0.49978649616241455, -0.5595508613333998
-0.6787612640604167, 0.49978649616241455, 0.5556048148078325
-0.7993697438496565, 0.49978649616241455, 0.29381092823817184
-0.970914432252442, 0.4997864961624146, 0.1935083052917536
-0.9374780730320343, 0.49978649616241455, -0.1628188974783467
-0.7830083899695324, 0.49978649616241455, 0.4936096385521118
-0.6191811718234638, 0.4997864961624145, 0.5679780418093733
-0.761972243025745, 0.49978649616241455, 0.08868662388214804
-0.8196216905271171, 0.49978649616241455, 0.014380949338590965
-0.9356443337097262, 0.4997864961624146, 0.3865465680439005
-0.8527167574503471, 0.49978649616241455, 0.3287998335137168
-0.8772233313638795, 0.49978649616241455, 0.4193646469010812
-0.8678620466896464, 0.49978649616241455, -0.13064627979360557
-0.9653361669992455, 0.49978649616241455, 0.3059823330379016
-0.7239388317161464, 0.49978649616241455, 0.40798944607967025
-0.9155781477239537, 0.49978649616241455, 0.01872428465285611
-0.6873213976852492, 0.49978649616241455, 0.47232579355280496
-0.9447770764103769, 0.4997864961624146, -0.2524626597406062
-0.9863409156877204, 0.4997864961624145, -0.06469150997454604
-0.8407801341906245, 0.49978649616241455, 0.10701978868081241
-0.7347789110590486, 0.49978649616241455, 0.05382137928532987
-0.9638796965003347, 0.49978649616241455, -0.5747072352766267
-0.8191222466948922, 0.49978649616241455, -0.2766731863680863
-0.9650851386561407, 0.49978649616241455, -0.3765440698968432
-0.7449389200629282, 0.49978649616241455, 0.3758596133209551
-0.9026440299886238, 0.4997864961624145, 0.4934839898767236
-0.9848063096907306, 0.49978649616241455, 0.18438726808103764
-0.8305221120597204, 0.49978649616241455, 0.10439559470873666
-0.8932514972306632, 0.4997864961624145, -0.3286277028149914
-0.8917749626084522, 0.49978649616241455, 0.23820093374449247
-0.6383437876630459, 0.49978649616241455, 0.5041135069615864
-0.8785791693358659, 0.4997864961624145, 0.04690987273327302
-0.9705627157499948, 0.49978649616241455, -0.19534132208325128
-0.9835155932861334, 0.49978649616241455, 0.5095197537694888
-0.8645464867410908, 0.49978649616241455, -0.2601978102722353
-0.7731218274190648, 0.49978649616241455, 0.17467683049064198
-0.9681913121356658, 0.49978649616241455, -0.009427421344084662
-0.8792807093822097, 0.49978649616241455, -0.009778860511384158
-0.8761611765369409, 0.49978649616241455, 0.4301789415400966
-0.9874853512910662, 0.4997864961624145, 0.20972312192711484
-0.8785495042041641, 0.49978649616241455, 0.46202007432848996
-0.9316323176460202, 0.49978649616241455, -0.4752995047975848
-0.921117913413664, 0.4997864961624145, -0.32672024230942387
-0.6653712932836955, 0.49978649616241455, 0.3267255034911748
-0.7955735194159951, 0.49978649616241455, 0.1313192059663817
-0.7967980585957448, 0.49978649616241455, 0.023238014183665445
-0.7408042701069888, 0.49978649616241455, 0.5563213375640335
-0.9754317556163898, 0.49978649616241455, 0.43081471919926856
-0.8773466017168454, 0.49978649616241455, -0.1141002556977476
-0.8858752819826495, 0.49978649616241455, -0.48075794909453784
-0.9146377470177977, 0.49978649616241455, 0.37771310598523977
-0.9185333845901875, 0.49978649616241455, 0.0935377301910717
-0.7309378117511919, 0.49978649616241455, 0.3649934835907316
-0.9805840598218571, 0.49978649616241455, 0.4809192567940058
-0.9775703061535213, 0.4997864961624146, 0.15739302991374143
-0.6483572050504147, 0.49978649616241455, 0.5283927079038447
-0.8372663749170712, 0.49978649616241455, -0.2601495874405939
-0.8197354438530566, 0.49978649616241455, 0.28153519701444396
-0.9652769818913749, 0.49978649616241455, 0.1906112389214624
-0.6794857865605183, 0.49978649616241455, 0.5001303291094014
-0.8764462776759874, 0.49978649616241455, -0.02189417521054013
-0.9699331509741507, 0.49978649616241455, -0.14858044588222669
-0.9176055893863941, 0.49978649616241455, 0.4104560267258483
-0.9770004007208889, 0.4997864961624145, 0.27062617846115117
-0.7852102728390369, 0.49978649616241455, 0.35955437535942614
-0.9820590746060645, 0.4997864961624145, 0.09137455927527574
-0.9820867912507995, 0.49978649616241455, -0.13042734934959196
-0.9705619637433883, 0.49978649616241455, 0.3297474227179627
-0.8053597512884841, 0.49978649616241455, 0.09271628586046021
-0.8685467953007258, 0.49978649616241455, -0.3321303450253156
-0.8584648220420426, 0.4997864961624145, 0.5410570110461885
-0.9382270179308317, 0.49978649616241455, 0.12406907530483213
-0.9899466554901186, 0.49978649616241455, -0.5860963119209617
-0.853766298365626, 0.49978649616241455, 0.5018385489526653
-0.7454268520905238, 0.49978649616241455, 0.26836144218871755
-0.9884392459739298, 0.49978649616241455, -0.6959889396630262
-0.870960150853455, 0.49978649616241455, -0.06437669109726726
-0.7569242827155738, 0.49978649616241455, 0.2502861748227879
-0.7753204712519837, 0.49978649616241455, 0.12161183776395945
-0.8939602747590816, 0.4997864961624145, -0.3039780596764649
-0.6447205915146079, 0.49978649616241455, 0.4242261298763561
-0.7701093932984171, 0.4997864961624145, 0.23630418530230887
-0.962026169513407, 0.49978649616241455, -0.7774796746491391
-0.8502509378755303, 0.49978649616241455, -0.4093483086493902
-0.8629623780678237, 0.49978649616241455, -0.20204275630473587
-0.8666322550788692, 0.49978649616241455, 0.4458385675497373
-0.731251934136455, 0.49978649616241455, 0.4799371275847535
-0.9269580803283967, 0.49978649616241455, -0.5139675804256896
-0.8727827580260432, 0.4997864961624146, -0.38743571617880923
-0.8676692722418875, 0.49978649616241455, 0.006349538402483312
-0.8686929444334157, 0.49978649616241455, -0.14103233807505042
-0.8081020583970713, 0.49978649616241455, 0.264201111364712
-0.9780399137483546, 0.4997864961624146, 0.513850816473045
-0.9015621725930295, 0.49978649616241455, -0.5613139426838192
-0.9509752942483957, 0.49978649616241455, -0.20511440053124347
-0.9703782481974453, 0.49978649616241455, 0.37096193614986034
-0.9255610182950781, 0.49978649616241455, 0.08907201426326432
-0.6750209523894632, 0.49978649616241455, 0.4808304633760081
-0.9709722002587564, 0.4997864961624145, 0.02294411283647356
-0.6858173954527232, 0.49978649616241455, 0.4076645910005554
-0.7711539856522199, 0.4997864961624146, 0.1497597898903435
-0.9265923098266368, 0.4997864961624145, -0.18093104586752515
-0.8574289661010263, 0.49978649616241455, 0.05833935290433412
-0.8771624432737222, 0.49978649616241455, 0.5696858512048874
-0.7410622697265585, 0.49978649616241455, 0.0588590438220446
-0.9859284937050239, 0.49978649616241455, -0.9069993207925948
-0.8392290258334247, 0.49978649616241455, 0.22119592790042522
-0.9116227250919605, 0.49978649616241455, 0.461642725178358
-0.9926675406090774, 0.4997864961624145, 0.5123075859325152
-0.7563401780586457, 0.49978649616241455, 0.0915268113402048
-0.6845564161612063, 0.4997864961624146, 0.31862706404780144
-0.9645664552661889, 0.4997864961624146, -0.30583169269975413
-0.8262255895844818, 0.49978649616241455, 0.01871278484185096
-0.8807282373991984, 0.49978649616241455, 0.3235973386154564
-0.8112534369226534, 0.49978649616241455, -0.12140815777419472
-0.7802860936052409, 0.49978649616241455, 0.02595317945760056
-0.8293313932874564, 0.49978649616241455, 0.5428853459104548
-0.9340416079612226, 0.4997864961624146, 0.11359664199917066
-0.8824640992468961, 0.49978649616241455, -0.22500193480890865
-0.7046513681044917, 0.49978649616241455, 0.44074456282048613
-0.8441545501243007, 0.4997864961624145, 0.5654096091383177
-0.9363859806834566, 0.4997864961624146, -0.5083684854473906
-0.9341736993466672, 0.4997864961624145, 0.10841131754533709
-0.8869301644867157, 0.49978649616241455, 0.10565957541516535
-0.8867875489289352, 0.49978649616241455, 0.5638786379455263
-0.9109917545461056, 0.49978649616241455, 0.05746498317655367
-0.9680862622415147, 0.4997864961624146, 0.44334494709226563
-0.8666175157172281, 0.49978649616241455, 0.3666636510336013
-0.9513827584005745, 0.49978649616241455, -0.09964286016757765
-0.7729970421442951, 0.49978649616241455, 0.29677734306291337
-0.884143829917798, 0.49978649616241455, -0.41874958606563484
-0.9436524689822071, 0.4997864961624145, -0.21564557338536183
-0.8935570188739461, 0.49978649616241455, -0.23612591813123088
-0.904563522380647, 0.4997864961624146, 0.5595395945886137
-0.7007645942247827, 0.49978649616241455, 0.4714027559538097
-0.8231645432791141, 0.4997864961624146, 0.31529198306473716
-0.6505544351466978, 0.49978649616241455, 0.48738299492448894
-0.8394939631103173, 0.4997864961624146, -0.2909442273987627
-0.811534242096302, 0.49978649616241455, -0.06303461687698036
-0.9809016594712539, 0.49978649616241455, -0.00958806012040105
-0.9252917847667912, 0.49978649616241455, -0.4030352135362313
-0.9798340484126647, 0.49978649616241455, -0.5885876640999416
-0.8172293380455361, 0.49978649616241455, 0.21482801966060192
-0.7554437813724699, 0.4997864961624146, -0.035345643441047736
-0.8827443586367469, 0.49978649616241455, 0.20654172680263197
-0.9086389063035276, 0.49978649616241455, 0.3077637860984195
-0.9459899191759604, 0.4997864961624146, 0.13122178410033458
-0.8973237159639595, 0.49978649616241455, 0.45785162673194
-0.8907381312483161, 0.49978649616241455, 0.18213888353931462
-0.871972974906233, 0.49978649616241455, 0.3874182820074039
-0.6801186485974904, 0.49978649616241455, 0.3622846213890049
-0.9351321726637657, 0.49978649616241455, 0.29737895524252
-0.9965833309567089, 0.42616599798202515, -0.4009505035394501
-0.9982575643260603, 0.42616599798202515, 0.044348407072185625
-0.9949265993944778, 0.42616599798202515, 0.4350237339093187
-0.9936015817399738, 0.4261659979820251, 0.08334234334265167
-0.9944203655572021, 0.42616599798202515, -0.26026869920042406
-0.9806338375350327, 0.49978649616241455, -0.9982671023463616
-0.6861918587860809, 0.42752657559007806, -0.9999998211860657
-0.9999998270435818, 0.4980960192742447, 0.49934008378190176
-0.999999929164928, 0.4971833862747553, -0.8507622723502515
-0.999999924475292, 0.4973534280695074, -0.7887626108612298
-0.5807028360821767, 0.44851140865116235, -0.8452711107125835
-0.5807028282957916, 0.4711385962074555, -0.6612320809793233
-0.5807028395999567, 0.48114722942344706, -0.6775809372772513
-0.5807028385582973, 0.4473006990765273, -0.8687691732532432
-0.5807027854734151, 0.4329054471541848, -0.6011635083473017
-0.5807027900365489, 0.4351665293173857, -0.6181754270315196
-0.5807028051153216, 0.4486150693632338, -0.6394104359926255
-0.5807027916577808, 0.4295136416783385, -0.6620057311620082
-0.5807028412818909, 0.4903498965895923, -0.6895666573465471
-0.5807028412818909, 0.475790614686344, -0.7498942642437503
-0.5807028412818909, 0.44953274774719365, -0.8799508952021401
-0.5807028412818909, 0.48207712142907133, -0.8556446020661794
-0.5807028412818909, 0.4696144389644849, -0.8497951562322582
-0.5807028412818908, 0.47321423497063664, -0.9634012608532159
-0.5807028412818909, 0.4663402007470715, -0.8072355346027114
-0.7596360951127363, 0.49813387887890026, 0.5807029604911804
-0.595501045057732, 0.49886229116864955, -0.3888549467518019
-0.948858583193424, 0.49740140009922934, -0.9999998211860657
-0.9999998226692656, 0.46195286800825924, 0.5571710666629991
-0.9999998913754533, 0.48554091911117697, -0.35116388475785654
-0.9999998944023694, 0.4765404219291738, -0.39118143038343167
-0.9999998877681902, 0.4684452512624911, -0.30347379593118445
-0.9999998415130179, 0.4452737530657306, 0.3080459431138798
-0.9999998565847807, 0.4714907202850495, 0.10878863104746456
-0.9999998402727058, 0.46053082885994934, 0.32444356274268504
-0.9999998359140018, 0.44485470574098446, 0.38206812655147354
-0.9999998968727547, 0.4759568134467684, -0.42384133220633524
-0.9999998823462817, 0.47870326713405653, -0.23179308825664346
-0.9999998219297103, 0.43827463899873914, 0.566948428975365
-0.9999998339734226, 0.44969953411027286, 0.4077236821558691
-0.999999926276858, 0.496557857185327, -0.8125803412941132
-0.999999870784898, 0.4931796264220535, -0.07894502499208139
-0.9999998931529231, 0.487110796366507, -0.3746630502103437
-0.9999998633054467, 0.49230639361962414, 0.01993758299065912
-0.9999998857759944, 0.466335763125879, -0.27713583078602033
-0.9999999041468097, 0.47977149215145454, -0.5200084856859986
-0.9999998615544909, 0.48662442440374476, 0.04308621894450326
-0.9999998783738018, 0.48240226781573825, -0.17927464363218293
-0.9999998878145175, 0.4729627764366318, -0.3040862746151445
-0.9999998255670226, 0.4866344009822601, 0.5188610465061261
-0.9999998718499248, 0.4842006373852935, -0.0930252766921788
-0.999999929805424, 0.4939034789994882, -0.8592299907687369
-0.999999848342568, 0.44501810639714257, 0.21775540110607022
-0.9999998467115375, 0.47963892207154823, 0.23931852227665093
-0.9999998242830926, 0.48727531647203626, 0.5358353299277229
-0.999999895305022, 0.48019775635418427, -0.4031150153219639
-0.9999998927352722, 0.4771547070802301, -0.369141457433244
-0.9999998599337552, 0.4892737417894584, 0.06451326883915609
-0.9999998446228237, 0.43485229144046145, 0.26693254376597864
-0.9999998721214267, 0.43584296208560425, -0.09661466313354322
-0.9999999382615978, 0.48613944298355427, -0.971025425789622
-0.9999998546825997, 0.44524408549033134, 0.1339365704005292
-0.9999999368797887, 0.4523092998219439, -0.9527571231174119
-0.9999999175048727, 0.4788878515397942, -0.6966096871721043
-0.9999999337519923, 0.4424171457160145, -0.9114058695220988
-0.9999999141071647, 0.4548266551045242, -0.6516900500502947
-0.9999999144863309, 0.46245277120217076, -0.6567028459393346
-0.9999999256447243, 0.44474298813733426, -0.8042231641899978
-0.9999998706125941, 0.4556201358443647, -0.07666703748086234
-0.9999999267967743, 0.43163461054056607, -0.8194539237540173
-0.999999873002075, 0.44156725344020137, -0.10825733753043165
-0.9999998527079076, 0.44204466950785243, 0.16004312443430535
-0.9999998972717803, 0.4492577191501478, -0.4291166750490133
-0.9999998858170265, 0.4611766909209398, -0.27767829876801325
-0.9999999368091419, 0.4781626198448438, -0.9518231312672791
-0.9999999403328023, 0.48587466555391573, -0.9984079290778209
-0.9999999302559014, 0.4823997501134908, -0.8651855577573565
-0.9999998587680258, 0.44721394209731224, 0.07992490749213776
-0.9999998305092137, 0.43029670633332034, 0.4535225111220248
-0.999999940267159, 0.4459938021973394, -0.9975400882537134
-0.9999998534364498, 0.4460001418968177, 0.15041138015706917
-0.9999999102132706, 0.42938055114794105, -0.6002105509198392
-0.9999999239784638, 0.4490294835821604, -0.7821942531597785
-0.9999999360347391, 0.4742665903930728, -0.9415850838652702
-0.9999999089633931, 0.44865706666714256, -0.5836864582895287
-0.9999998477295101, 0.4316448442732702, 0.22586037726923391
-0.9999998412276345, 0.4321353840512142, 0.311818878831166
-0.9999998801829543, 0.4494877371112216, -0.20319265213230497
-0.5956795389310117, 0.47971199192945085, 0.580400320150417
-0.6851632718755547, 0.4904096891539209, 0.5807029550430438
-0.8929494640287206, 0.4886684614177792, 0.5807029535055441
-0.6220979626942846, 0.4566788247977558, 0.580702925258774
-0.5998610343172487, 0.4637345074174702, 0.5807029314889243
-0.7649348503945581, 0.49589587821795267, 0.5807029598873352
-0.6174458446841848, 0.47725680113296937, 0.5807029434290762
-0.6711129402823995, 0.4732919020997484, 0.5807029399280802
-0.8479064868982467, 0.46875778566321763, 0.5807029385286377
-0.7826336141589831, 0.4438504957315813, 0.58070292868086
-0.9279738315955501, 0.45171867783916725, 0.580702950608471
-0.9470570761807785, 0.47364829757505306, 0.5807029534875774
-0.7893250191862151, 0.4427700047257018, 0.5807029296903985
-0.9032877444506229, 0.43400578675495105, 0.5807029468840585
-0.764672918368988, 0.4485425397553365, 0.5807029259711136
-0.7791769138273159, 0.43046934908049017, 0.5807029281593445
-0.595501036608622, 0.46559182500459184, -0.3063834204480937
-0.5955010553800761, 0.44716921808311544, -0.4896110593061922
-0.5955010272157976, 0.49008789650593354, -0.2147003242887918
-0.5955010631681192, 0.43164273702869616, -0.5656299297285415
-0.5955010505550304, 0.49579329209586376, -0.44251392281074853
-0.5955010111266325, 0.48284167228389663, -0.057654434212052075
-0.5955010583823553, 0.4433712022227921, -0.518916222181613
-0.5955009938924776, 0.47166990902047845, 0.11056766877589422
-0.595501035529891, 0.47511421171938245, -0.295853957213796
-0.5955010444638074, 0.4818363489486473, -0.38305766449941936
-0.5955010084611569, 0.4951185585262487, -0.03163680321276746
-0.5955010123771335, 0.4826843228210945, -0.0698605396462541
-0.5955010571384592, 0.45318852504090507, -0.5067745877681217
-0.5955010533675693, 0.4527862297379164, -0.46996703629151737
-0.5955009925063628, 0.47382853479024417, 0.1240974966896495
-0.5955010405611835, 0.49241604307154185, -0.3449642622385235
-0.5955010120920623, 0.47214835148401313, -0.06707796790248788
-0.5955010001335979, 0.47037726031376426, 0.04964826798740085
-0.5955010476740249, 0.45372611264413765, -0.41439250765797814
-0.5955010249757915, 0.49640832793277345, -0.1928356884046652
-0.5955010391247193, 0.44946817318399473, -0.330942976354757
-0.5955010325244842, 0.47413600729554484, -0.266518265645681
-0.5955010177451431, 0.44233454513944936, 0.11294788772214157
-0.5955009628133995, 0.4835910580905929, 0.47414964087227773
-0.5955010608435963, 0.4305046250530791, -0.5244955486043922
-0.5955010019843655, 0.4488531186186566, 0.3082628499887039
-0.5955009925947813, 0.4540863969070379, 0.40135543751314673
-0.5955009982809907, 0.4664235227112669, 0.0776843440979555
-0.5955010026388321, 0.44648784501229644, 0.3362585680197352
-0.5955009901228082, 0.470619397609219, 0.1646201543051067
-0.595500956444655, 0.48764349909747967, 0.5286246354625631
-0.5955009976153466, 0.4410564505037002, 0.5279522019916038
-0.5955010140019407, 0.45613402102574685, -0.05185049870805908
-0.5955009971424069, 0.4393004444423661, 0.5674546318007401
-0.595501007042029, 0.4486887270448881, 0.21236118536829984
-0.5955010011401993, 0.4445649397934235, 0.3986614974577249
-0.5955009629085181, 0.4801393583496469, 0.5317925437399359
-0.5955009885375662, 0.46280954016653547, 0.3301921264980998
-0.5955010031964252, 0.43650446023789324, 0.49746512095987355
-0.5955010541540219, 0.4320461676881582, -0.42047490269330684
-0.5955010488309498, 0.436954038053821, -0.4011592120676246
-0.595500961854325, 0.4872125255920201, 0.4304464085445422
-0.5955010282180511, 0.4358517764276464, 0.02024521596410267
-0.5955010580164024, 0.42950191295721757, -0.4520186519787233
-0.9574000692792275, 0.4924744338250742, -0.9999998211860657
-0.8396739591865079, 0.4569397020911631, -0.9999998211860658
-0.9525470247633092, 0.49572180368086904, -0.9999998211860657
-0.915340022523628, 0.4515750819264684, -0.9999998211860657
-0.9714729851857157, 0.4838462427111395, -0.9999998211860657
-0.8868713833869318, 0.47929075147574457, -0.9999998211860657
-0.9968261519745202, 0.4670811703559685, -0.9999998211860657
-0.9468072011460457, 0.4724676772843005, -0.9999998211860657
-0.9272298659160181, 0.433245063481411, -0.9999998211860657
-0.5981417330638982, 0.434247387915425, -0.9999998211860657
-0.6941099421713119, 0.4767838246872639, -0.9999998211860657
-0.589529729725159, 0.4916669846707484, -0.9999998211860657
-0.7266169717068691, 0.4657604793509412, -0.9999998211860657
-0.7573267250509074, 0.4527167638055818, -0.9999998211860657
-0.6554037441204228, 0.4771196624595225, -0.9999998211860656
-0.7855333220046321, 0.4487423970783734, -0.9999998211860658
-0.5807028110313204, 0.4287354727197774, -0.7929719211475982
0.27646008133888245, 0.2779487380730158, 0.28355469096007735
0.19066530408710183, 0.2764838481039312, 0.2795334458351135
-0.5338684259038441, 0.2763721620630477, 0.2795334458351135
-0.07146374311204973, 0.2758080950124054, 0.32593220472335815
0.11021349495511762, 0.2718029320240021, 0.2842907259296561
-0.5140264908567995, 0.2718029320240021, 0.283510145685006
-0.4920825134090849, 0.27290025276704066, 0.28008463405368805
-0.5666768746945428, 0.4254834906207192, 0.3258516288648981
0.17387167798289155, 0.27220825749806254, 0.32439730757986573
-0.3410262549788291, 0.4279250072990839, 0.28208233939259764
0.23452008251591583, 0.4279923737049103, 0.322326003361357
-0.09926030964219858, 0.42495362456806623, 0.2795335352420807
-0.22334729642948314, 0.4232211876091853, 0.2795335352420807
0.27450430207513793, 0.33691863746162143, 0.3256672387197737
-0.6698713452116928, 0.3868588511571771, 0.3259324528643117
-0.31313601349476783, 0.4279923737049103, 0.2842410001508463
-0.6479520668393185, 0.4262046891999468, 0.2798546121756049
-0.2429489475045412, 0.2738663387558284, 0.3257030443786493
-0.23389673725534427, 0.2721199174735225, 0.28133336305222595
0.03353771172715653, 0.2720238513649837, 0.2816215613778425
0.036928495037929665, 0.42750532747245695, 0.32464261017051477
0.06606588836406344, 0.2718029320240021, 0.32182581881544714
-0.4256679059406723, 0.3702387456195796, 0.3259323691297429
-0.26291349985634527, 0.3464815074379546, 0.32593228435163574
-0.25264141050991884, 0.413146653929457, 0.3259324333011269
-0.5586946217128612, 0.35693132241790737, 0.32593236434441347
-0.5955445997830268, 0.4164247229414757, 0.32593250603509016
-0.26350890357165474, 0.3727927681075935, 0.32593234402432436
-0.39462881675592876, 0.4180827829061793, 0.32593247151943666
-0.2117010944751432, 0.3848769915217661, 0.32593236151072585
-0.508110656089382, 0.41453155118174595, 0.32593248509587497
-0.5462695678132872, 0.34825712448837964, 0.3259323423425031
-0.46042260807202906, 0.41284958970973507, 0.32593247220525984
0.1959023491423497, 0.41477859337813017, 0.32593235156005496
-0.22615216064636565, 0.3820160675362447, 0.3259323577871465
-0.5205561766116162, 0.4017995051068861, 0.3259324586456058
-0.46456140821575137, 0.37550119344424376, 0.3259323884501801
-0.2889829548255539, 0.3675080945643955, 0.3259323369138174
-0.35777425103985655, 0.38391814175206546, 0.32593238716313533
-0.20148597791620088, 0.3804111545383762, 0.32593234945597105
-0.6181272480518487, 0.35259546256135016, 0.325932365849852
-0.5777482892083665, 0.30815799780271813, 0.3259322575682539
-0.45275358160985013, 0.34234897809266834, 0.3259323111563607
-0.5773298911731168, 0.2977532820731601, 0.3259322339360068
-0.5501580558699584, 0.4168192355916301, 0.32593249828324244
-0.12789013001854957, 0.41908597037487133, 0.3259324229839407
-0.2366862580456387, 0.39141211137782556, 0.3259323810628828
-0.3015678146575268, 0.42102162612683736, 0.32593246044637536
-0.6183249005919158, 0.2864238873637688, 0.32593221609872763
-0.611276957400307, 0.300717410163821, 0.32593224711171087
-0.3979863597572064, 0.40359184293360195, 0.3259324393566522
-0.5086516746710575, 0.3292897313803329, 0.3259322922419414
-0.27018818544022494, 0.38157431265906294, 0.32593236517481816
-0.4759764233751211, 0.3137516723370375, 0.3259322508456019
-0.6001862442212618, 0.3209005571513528, 0.3259322906866601
-0.17991147527940543, 0.4092478577716115, 0.32593241062260325
-0.49578922937641, 0.3501704733723384, 0.3259323370585301
-0.2694536624683064, 0.4220316359557922, 0.32593245661581716
-0.30746909735637074, 0.41025860004368064, 0.32593243720676646
-0.1811020524559264, 0.3918488646421474, 0.3259323714642798
-0.16538562431832332, 0.34782531060645405, 0.3259322773519078
0.16294426380967308, 0.35748359903659477, 0.32593228728956664
-0.03503755531829239, 0.33950810516051566, 0.3259322687940963
0.22662809230173706, 0.27838553313123166, 0.3259322059033727
