-0.1510888426800461, 0.17684867357259998, -0.0008426445034183948
-0.14578282732029843, 0.17139812322696657, -0.038362111006231464
-0.13993515624685715, 0.19406091185276783, -0.05979452917511091
-0.14737232519286436, 0.18864478033801932, -0.03709821522010304
-0.14151796543218498, 0.1884407602212398, -0.055626215369711345
-0.1450585727977035, 0.17788140601875582, -0.043260602917130506
-0.14736305211540363, 0.1907770950440489, -0.037546117186413944
-0.14696623764440042, 0.17422113250665036, -0.033469158405343855
-0.1518323049174358, 0.18703223156826876, -0.006951151618149202
-0.1504931576594306, 0.1848239939231056, -0.020605146427720183
-0.14861656655541738, 0.18344519244157728, -0.029667983546375544
-0.14093480531132557, 0.16498713091214492, 0.05177888974156905
-0.13216187981206778, 0.18262141980379498, 0.0749818550378079
-0.14019799979431136, 0.18638818129109522, 0.05924017099963666
-0.13561263970157952, 0.18662694224232557, 0.06913505306762913
-0.14305973342052192, 0.16895001237895416, 0.046407469037768906
-0.13962180067108404, 0.16940655833632645, 0.05646304635394591
-0.1453152828553746, 0.1724414704708203, 0.040017201255011285
-0.004192333383100587, 0.1866291050084562, -0.15161407358748474
-0.030153225771472805, 0.1999800058974389, -0.14920287150363268
-0.04410992210722579, 0.20297423828616448, -0.145772906197301
-0.031446862657962205, 0.18401611168908644, -0.14810241416669306
-0.03153868495042747, 0.19871373758842711, -0.14890850675765735
-0.02693938059790492, 0.19145704513423153, -0.14931081437997112
-0.03606969027269291, 0.19351182809091835, -0.14788254825545036
-0.09834633682402402, 0.29131095279394414, -0.10353192348308217
-0.10266921943584673, 0.2990349841952198, -0.09718837960213522
-0.133082292085658, 0.2908466120267655, -0.05262567195101266
-0.06286208075540198, 0.3050345717981467, -0.12568846360761707
-0.05135883001395242, 0.2997080240983301, -0.1317994217762718
-0.09168113167591421, 0.29298964535974004, -0.10903316109076755
-0.10143654411653247, 0.2932384576398811, -0.1000254609597099
-0.10603826303188696, 0.29798331603315875, -0.09416315187004835
-0.13863488873536614, 0.2933160861921769, 0.036648800125962236
-0.13967258385089706, 0.29834976123783197, 0.024831059272443595
-0.12936245444339617, 0.297353044063179, 0.06071353257697419
-0.13693405515808912, 0.2893487145150969, -0.04256069774752133
-0.13532039511127242, 0.28818785589423485, -0.04809074589597945
-0.13631550809599674, 0.298383295557353, -0.0387006447241446
-0.13973493812970647, 0.2951344366245955, -0.029949355933788602
-0.13480646124309553, 0.2917997943194838, -0.047478858756453676
-0.14092090893153209, 0.2895901658536566, 0.02787100150631556
-0.14317591159954748, 0.2894489912989484, 0.010452761748898674
-0.1377212155193679, 0.29705904087791335, 0.03754323270497697
-0.14137184347476814, 0.29726956578935954, 0.01420268412994779
-0.06919913692347474, 0.3205148502633523, -0.11700989100693818
-0.09873661376663842, 0.30638008569044595, -0.09864114915196566
-0.08028777637455468, 0.302535196656042, -0.11567024428040999
-0.08426935293476082, 0.3106474862548898, -0.11000675537592265
-0.07427587121072196, 0.3004291066215269, -0.12062113418274144
-0.0785901393922677, 0.3102009724275545, -0.11446100489574029
-0.10077883316916145, 0.307841324485755, -0.09620367948520404
-0.11315127882592774, 0.3037801568733731, -0.08397392613956495
-0.10599196417826703, 0.3135142151289336, -0.08824174149014563
-0.015964300024298356, 0.32039838165038054, -0.13523609581643486
-0.07347192932668654, 0.32214625344897313, -0.11392401484891737
-0.055339658705699346, 0.3136459954394159, -0.1261750283078515
-0.059010714611961765, 0.3060649467357872, -0.1270437258439088
-0.08114979809711585, 0.31148638426390385, -0.11235151906269467
-0.0616667725150879, 0.31799370138737804, -0.12220092451120797
-0.05278723061269647, 0.3147340729691507, -0.12684395286282668
-0.13892775832621385, 0.31130000397239266, 0.00489337747081428
-0.14000747297580723, 0.30576025717862787, 0.006410601651996014
-0.14096922151788016, 0.30418904685873654, -0.0017879080553418437
-0.14159094159431762, 0.29551285752831946, 0.01600088344806115
-0.1419018728341921, 0.3004617668128717, -0.006774424000069809
-0.1373428800984403, 0.3154218556329206, -0.014321291022662391
-0.14186551660138524, 0.3002870719362881, -0.009334454953995432
-0.13708066102073935, 0.31135241734469526, -0.022499594332513848
-0.1366947146529664, 0.3081762028681874, 0.029387257590886638
-0.13367027915035323, 0.3034354162756347, 0.04650599178762648
-0.12954152299151456, 0.31986959490756806, 0.04394472661440446
-0.11724167519081198, 0.3188103601037897, -0.06986286317137018
-0.1264566509036304, 0.30656044036831126, -0.05943372258208441
-0.13366547098960052, 0.3008688433082314, -0.04508091947019433
-0.12748147733244478, 0.2975737187758057, -0.062172194162639596
-0.1262825517033799, 0.31153184468884393, -0.05667497169765406
-0.10587444230851452, 0.3172549959856395, -0.08668552012332932
-0.11560443419907901, 0.31251627329220766, -0.0765026750989027
-0.10860433776172285, 0.3082552318582617, -0.08737741713973006
-0.11549487776888925, 0.3063522722538758, -0.07990648793310486
-0.13580007175744357, 0.3222314467228492, -0.005933183547278546
-0.13786034055915358, 0.304975845249891, -0.027703374945820397
-0.1374600783206444, 0.31618755353534017, -0.003077167577239489
-0.13469592690141163, 0.3140107024432681, -0.030119657894259
-0.13740079550997208, 0.316981163123241, 0.0015321277427081076
-0.1270173696856448, 0.3184756723269485, 0.052328621737178706
-0.12582338832433573, 0.3039971776557256, 0.06413179976910519
-0.12172397978665705, 0.30776917618359734, 0.0692869997390025
-0.12780226341119247, 0.3207397084612907, 0.04911128517811456
-0.12942545948126377, 0.3000630813830509, 0.059467477410607816
-0.12430812596239652, 0.3106196081141276, 0.06296461878798025
-0.1312017857987403, 0.3117331411323638, 0.04655322102280411
-0.1303565341595444, 0.30595855695370694, 0.053395195972987496
-0.03879289964541826, 0.29059395439449454, -0.1374464771120296
-0.021118634274164882, 0.2877400789442835, -0.14197517579624802
-0.014667058624441938, 0.31271488526785185, -0.1372023252343808
-0.014051130964172709, 0.3113997130476661, -0.1376447562200628
-0.011639581369178524, 0.30749247340809027, -0.1390096552142639
-0.025655086965518485, 0.3057760363961714, -0.1371371617771019
-0.02946635696025158, 0.3030752211031391, -0.1370326787516376
-0.037292149568111665, 0.29423772836687867, -0.13717038800181097
-0.03949560000228332, 0.3025566756627332, -0.13465850516303873
-0.04533156671389982, 0.306471400465259, -0.13194531834795686
-0.025951898031390377, 0.29567517121178843, -0.13937688452474922
-0.09684235134264976, 0.2858449850737741, -0.10640845048902751
-0.12951148502717913, 0.28137773325580584, -0.06516852089287946
-0.13136044255623525, 0.26414471153840446, -0.0679701845963916
-0.1326638045662485, 0.2738908249587456, -0.06098375899427309
-0.13379556645615553, 0.26492585797613866, -0.062232460384005026
-0.042968330731637076, 0.2836043343886595, -0.13756809215795146
-0.037402848351148134, 0.27752048763968473, -0.14031502597703313
-0.09415310802872981, 0.28744962104554284, -0.10836233061806633
-0.08768053417505389, 0.2859226149916731, -0.11402419129773705
-0.07008573239408114, 0.26029033095611265, -0.1308634014763363
-0.08161691290194871, 0.2791838565572462, -0.12023041349132743
-0.09313110710429058, 0.27771251016352366, -0.11140774790198947
-0.14036380714853328, 0.28779664620103856, 0.0333875036824631
-0.1247800837023705, 0.28261740861535944, 0.07396497837647137
-0.1323441898130623, 0.26749600821573494, 0.06591717907313104
-0.13133859553064842, 0.2713600049032736, 0.06673663952790296
-0.12294900671843359, 0.27538623389089995, 0.07918780703277532
-0.13916558702565426, 0.28283359148795806, -0.039559029735481484
-0.1351972144930439, 0.2858224985326563, -0.04983403397708383
-0.13844777217925383, 0.2730913440957035, -0.04704073812192159
-0.13499332992809362, 0.27735892146503305, -0.054303193491151695
-0.1418065914533005, 0.27907850517606786, 0.033070581427517565
-0.140881259008959, 0.28567143210061907, 0.032609200282278906
-0.14731027712832734, 0.26926502178424316, -0.005396523655739847
-0.14603667032758386, 0.27502905595675176, 0.0046781499235048615
-0.14238645079786272, 0.27316821182836654, 0.03547721316030602
-0.14785141686316455, 0.2633595850024705, 0.007983517033777985
-0.08376908781814728, 0.2482257977120448, -0.124248402240005
-0.0911107775169977, 0.2562376181620942, -0.11760942263156496
-0.11565910807833321, 0.24427089912394398, -0.09600423154545826
-0.11855686000159571, 0.25260835456221686, -0.09062192575216818
-0.09549390823924492, 0.26889626530763727, -0.11149161981218067
-0.09368354321159067, 0.2708052941895603, -0.11249897723032191
-0.10836904225935767, 0.27093451269563107, -0.09865881500198566
-0.10175421529677231, 0.2713256424346287, -0.10514685835816373
-0.11283572938270235, 0.2704863148673108, -0.09413735681150245
-0.12771576598767798, 0.25745065470865336, -0.07590862014003844
-0.11261490629359341, 0.26498071667889844, -0.09541070027739615
-0.11776693176505591, 0.263765944573901, -0.08919270217586141
-0.11059899699245807, 0.2608440703905215, -0.09858985647345783
-0.008036212228104531, 0.2483747918053551, -0.14937938298838244
-0.015453466047931744, 0.25459923226063974, -0.14793061791524503
-0.029788737981162546, 0.2616670206579687, -0.14482033744844686
-0.010409630080518557, 0.25554586873983043, -0.14821189361312398
-0.014648758047493899, 0.26151578010355625, -0.14713807117104324
-0.005282398493329321, 0.26384227625161183, -0.14768346483733286
-0.05934580879418226, 0.24598059941815553, -0.13772917070488783
-0.06208801905431763, 0.2476741502273363, -0.13627942764043155
-0.060361074322568424, 0.250479130297154, -0.13660068856751048
-0.04443587198000719, 0.26334748277289177, -0.14072485111596766
-0.04255990431244959, 0.2669606589293173, -0.1406433894455529
-0.04435281589784075, 0.2583146897532699, -0.14160717257253097
-0.07771386577623288, 0.26457966616925954, -0.12546926018317026
-0.07615676101033854, 0.27066226528443504, -0.12561336693160033
-0.05807312678995503, 0.2679007601356254, -0.13517785829554543
-0.05784662597430046, 0.26972113080257915, -0.13507319400400364
-0.06295722328109205, 0.26004563841297595, -0.13405459013182625
-0.14960979837245703, 0.24755140648976887, -0.013779300457816236
-0.1473544559157353, 0.26891457724840817, -0.005253309621147917
-0.14891103238607553, 0.2531401654996384, -0.014086952072376941
-0.14957922893975628, 0.2501518966450528, -0.00811983402115297
-0.14327311341174861, 0.2515500143718013, 0.043363972910366824
-0.14606564416467527, 0.27151699852181027, 0.01357141221270123
-0.14655511436166752, 0.264091730541975, 0.020776828029803844
-0.14134502264525453, 0.27727349408652574, 0.037415333263528555
-0.14435742168404023, 0.2706597682160421, 0.026818181014344987
-0.13973049084419387, 0.26632678641440766, 0.04875830775686673
-0.136641030908826, 0.2579385080793619, 0.05945035605873451
-0.13463059421609375, 0.2592925018601977, 0.06326078053586548
-0.13870279422067755, 0.2650992026084641, 0.05268793022199617
-0.14184086763510217, 0.2688624753553146, 0.040824714171527936
-0.13547520411824904, 0.25756311416536415, -0.06146189631902187
-0.12698919298076353, 0.26424814592256657, -0.07539875637825895
-0.12747649162951957, 0.2514024238863866, -0.07789651521190422
-0.1326624056266456, 0.2562888474888519, -0.06764017670193373
-0.11481318766701494, 0.24801689128090337, -0.09634906571356333
-0.14789964446266615, 0.24384972239947214, -0.027891468658788214
-0.1436643981274759, 0.2574191153253492, -0.039335054618122915
-0.14936084492676455, 0.24813542617751028, -0.017277874149090516
-0.14172907647459682, 0.2641937023051075, -0.04178885124139757
-0.13564512654686603, 0.2698578637627118, -0.055946222797010406
-0.14083351228174937, 0.2748864996039281, -0.03845491943825755
-0.13911653357357542, 0.2678547051684054, -0.04779612807707691
-0.14943981442939874, 0.25158105259958996, -0.0055247288891210646
-0.144933034563996, 0.2537182987155035, -0.03599306682547875
-0.1453366279264255, 0.2634517094655834, -0.027496809735865057
-0.14779093988112646, 0.2621360371552093, -0.011765158632923226
-0.14631106216651968, 0.2599949087082896, -0.025021768935600826
-0.14641578073357803, 0.26246140681907987, -0.022835197168530486
-0.13271589347853044, 0.24939659833297795, 0.070704986111006
-0.13048199523891646, 0.25581477074107845, 0.07305890199508445
-0.13097377874913918, 0.2629561213049516, 0.06995894624304831
-0.13884328436206345, 0.25271221145122774, 0.05644336807632398
-0.13116527971734224, 0.2546434463718815, 0.07200661217533597
-0.14463810176566733, 0.25133366693982695, 0.038913009976983354
-0.0325284023594914, 0.2838293703604015, -0.14037595098508004
-0.05011270749894592, 0.2862470192109672, -0.134981771055012
-0.010433483791616903, 0.2712031271557388, -0.14636674598066035
-0.037202150962367106, 0.26558397875842804, -0.1424994195066507
-0.02595950921724562, 0.26414271700323877, -0.14511916715665807
-0.030546207818004815, 0.26759275921724984, -0.14364682784569355
-0.03197485805524369, 0.27693701383648317, -0.1417211342768308
-0.0328059905463233, 0.2756649358488357, -0.14178996258089102
-0.07056755763279297, 0.32817888109012266, -0.11300365336359988
-0.06992655140785134, 0.33197862495662267, -0.11180635417942338
-0.10367559159034571, 0.3215645202335823, -0.08785431434277294
-0.10377093590161286, 0.3437961313462647, -0.0756205536734457
-0.10557479520684304, 0.34171245452314014, -0.07446088120569289
-0.10621494298836753, 0.3294346251303301, -0.0799177888847702
-0.01486019421086463, 0.32526608091207326, -0.13373739626201298
-0.01584876102278054, 0.34121722981091845, -0.12807284464091187
-0.013736974430977347, 0.33980772847769175, -0.12867399564111784
-0.0012720601801138594, 0.33039495964989996, -0.1326111523297224
-0.039633035678117684, 0.3394028115783746, -0.12296588705041193
-0.05642166811016088, 0.3229610273431319, -0.12283101974157085
-0.05868055204346728, 0.33694269850904535, -0.11653899417620367
-0.05820760394833801, 0.3481540378733573, -0.11287551605239078
-0.050445282546023096, 0.3278193566813463, -0.12348607660609162
-0.07684745380400354, 0.3348724091462456, -0.10628299964050796
-0.0727409374349696, 0.3481541882607323, -0.10424651267204148
-0.05086530753436942, 0.3327368128062407, -0.12131485924790422
-0.1340328751611609, 0.3276235988755759, -0.001975916577438598
-0.12747732416663532, 0.3482567949096059, -0.00019554932552882454
-0.12717879428580542, 0.348756191135147, -0.002776648118810183
-0.12566726251496038, 0.34591474557898283, 0.02609449372696713
-0.12809596168975232, 0.3246844443742745, 0.04366648574001573
-0.1263400926681707, 0.3363113166525257, 0.03500840056310733
-0.12317260557902349, 0.34049531271911615, 0.041270747691849935
-0.11643386034400036, 0.34652714417570407, -0.05248211535406733
-0.11071277003917011, 0.324890269162188, -0.07706701919027895
-0.11386305603744903, 0.3494719433832997, -0.05634287710058006
-0.11106852954625615, 0.34850627858921657, -0.061544932388950854
-0.11293367690644919, 0.33110595376859175, -0.06902519796138544
-0.0971841231810612, 0.33247896592447634, -0.08934907149409993
-0.13252939660783655, 0.3277335257192975, -0.01960302175334915
-0.12601339205716752, 0.33421129452124226, -0.03643691043326787
-0.12641384898921204, 0.34816360724678524, -0.01621284070925072
-0.1281068468303052, 0.3391531533606554, -0.022086934589719907
-0.1300835217274724, 0.3320780237239516, -0.023600070440158223
-0.13172854076560503, 0.33054784181536845, -0.018056193600842936
-0.1236784678340298, 0.32481460105986626, 0.05495741561936731
-0.11155049048686096, 0.3493956552986224, 0.06208880153843
-0.11621237583908713, 0.344794087445904, 0.05506154605284806
-0.12006472437130257, 0.3298553092274974, 0.05787640562475245
-0.12862902391708939, 0.32964938572174896, 0.03484219791414392
-0.09339225100966099, 0.03496667141328591, -0.07709742856042395
-0.08358370167151226, 0.03483136152124633, -0.08725338708100155
-0.08266765686415517, 0.03857592993941948, -0.0897062272662417
-0.10343902859497815, 0.026490725746537838, -0.058753456989256866
-0.10566490107679602, 0.02890859009156827, -0.05572251832657822
-0.10981349587832512, 0.03810503007397645, -0.052580488355887856
-0.04201508436160005, 0.04642925846051852, -0.11733759697630472
-0.04076818877728365, 0.04124240003417329, -0.11564992424348194
-0.03400054140077479, 0.043073645322167294, -0.11856441000655542
-0.06305194913209528, 0.02809041786189584, -0.10119594038712705
-0.06525563474839105, 0.02416135273795557, -0.09860844795139327
-0.08907318887518045, 0.03794417368868102, -0.08281489301247424
-0.07411208263197845, 0.03977006753168719, -0.09712973631732542
-0.07877593642455727, 0.042094961018135556, -0.09457437123890099
-0.11686739956691977, 0.03784203681541447, 0.035762137102585634
-0.11826790385484318, 0.03465547436687, 0.025951823736977856
-0.12116209877903752, 0.03905796600663502, 0.017692383603631037
-0.10865716510555537, 0.030740478290995986, 0.0518966482784083
-0.10215514599903736, 0.026251235736560338, 0.06100434477600091
-0.11056678866399208, 0.04263478538228873, 0.055859095198370005
-0.12098827386821054, 0.04712661114971587, -0.03206396680391925
-0.11172856302561142, 0.02703759045644705, -0.04131511264103607
-0.1158342301266211, 0.036915342160726713, -0.036535377565927195
-0.11906924768126942, 0.037574564003717136, -0.026319664799148892
-0.11783235981839577, 0.04507744513638314, -0.03956782274767251
-0.12470633477307262, 0.046839827857730734, 0.009480685244054083
-0.12131677046035928, 0.03507591613382137, -0.003725485141623118
-0.12119311699868573, 0.034646969718841854, -0.001276851617467524
-0.11923696833170264, 0.03784603078885879, 0.025445692904727726
-0.12436313641334623, 0.046415498455851696, 0.012452151771342939
-0.12336024748139982, 0.043907202698964844, 0.014293603079069775
-0.007874759676446597, 0.03133088755741412, -0.11974967908531749
-0.017561300672012718, 0.030529069906193824, -0.11824688249052287
-0.030674053576287927, 0.0360071256446992, -0.11722062319321196
-0.029536171646736373, 0.028981828084820624, -0.11567143320145264
-0.015159653008193275, 0.03861624951315846, -0.12087481790575957
-0.027043427139345856, 0.04247781922593701, -0.12018975873441781
0.05605978432773988, 0.0503339070977904, 0.11359599917595682
0.03985705523127773, 0.06609347034605086, 0.12555016848186387
0.05268191359907208, 0.07136099633711035, 0.12280090348464275
0.0140588577648454, 0.051269004923868294, 0.12633480221116491
0.10112855960139447, 0.06988057711012793, 0.08634873676113122
0.09933493049655817, 0.05625428735934267, 0.08132387263443962
0.07709089172083862, 0.05964510563618221, 0.10450718829836872
0.0500944062632251, 0.05857177055423087, 0.11917380135695373
-0.0657076118109339, 0.05411717318300299, 0.10966968915149541
-0.06763827752646674, 0.056097581353332204, 0.10916504466617978
-0.10219147253460871, 0.05024041401001414, 0.07457451067693517
-0.10301555652834993, 0.056412475743653524, 0.07685183094460613
0.012625960353328754, 0.050648689359768406, 0.12623003396751384
-0.014576727137499388, 0.06761109546214723, 0.13155599496262738
0.004029063659564764, 0.052722857234932946, 0.12741307660518492
-0.05755221081862214, 0.05077776479745816, 0.11306473044997169
-0.051465611405970335, 0.05493056253107256, 0.11726439205157045
-0.047336925482304205, 0.056882628695340026, 0.11976030345099087
0.08652518246585178, 0.07187749251151153, 0.10157052747191145
0.059115626329003954, 0.06362376804949242, 0.11712154423670221
0.07105989496552194, 0.061606424775072784, 0.10916701537714411
0.06840612892708509, 0.06865452266270905, 0.11362697641719943
0.08750062820030388, 0.06448724631151143, 0.0980452025561513
0.048183060351643665, 0.06682171946376386, 0.1229953570265371
0.04736943120896393, 0.06196482530969051, 0.12158895992058236
0.046180750424001896, 0.07439904906115982, 0.1258724033740504
0.12009856940534518, 0.08146466093829169, 0.06332546771484734
0.09837089730959228, 0.07976912830058, 0.09285401483393961
0.10156792597814682, 0.06697545390627758, 0.08430829209399741
0.0796290963741819, 0.06569712174801695, 0.10470479465915472
0.07916613999965083, 0.06576783175534959, 0.1050867336570739
0.09902256568446578, 0.07410359397535807, 0.09013558767712807
0.09395775606529955, 0.06261947337262079, 0.09079663081404298
0.08605310883096498, 0.07981831295972823, 0.104423847663123
0.08953517700902563, 0.07741333205147787, 0.1009493719675631
-0.07375841849594386, 0.057527797865913013, 0.10591142153487146
-0.04966490683168961, 0.06585363069254666, 0.12204692532153938
-0.05724345803201888, 0.06549508248829285, 0.11862477839741253
-0.048606940691672144, 0.05873998427908053, 0.11987819835522753
-0.026643118222733977, 0.06341272234306365, 0.128292337659141
-0.0396811947399469, 0.05892655955667664, 0.12343240269308692
-0.06306321374877101, 0.06262419975453204, 0.1145801961242002
-0.07113399777369077, 0.07398726108052771, 0.11387977190365361
-0.08764923162152671, 0.07556987037737982, 0.10189225610453442
0.03703314076839599, 0.08121566555619422, 0.13052680774119257
0.04265527408590359, 0.07770026227281632, 0.1278616321003013
0.038195755204200765, 0.07281648368043057, 0.1280221979364135
0.016635000090781598, 0.07902545253022122, 0.1343288099278629
0.004231455739311049, 0.06374864927929635, 0.13110502348106778
0.0073430721913258805, 0.066999010789865, 0.13196858909338993
0.0012803396627607449, 0.05957852713321712, 0.12991728917647222
0.03121428850193301, 0.06692192205543408, 0.12850855786519902
0.01956520539759332, 0.07056084100260425, 0.1315792034458217
0.020846293230211622, 0.07635342500867101, 0.13286258846772775
-0.00588892043023463, 0.06437069885465553, 0.13119208623503067
-0.014385001466902234, 0.06679304752402777, 0.13133349095541047
-0.010957928757202928, 0.0752393206281494, 0.13419120258425207
-0.046998453761314105, 0.07012726187999038, 0.12444645954548106
-0.025555407367648553, 0.07568325410166457, 0.1318810319603501
-0.018759883957821903, 0.0772379302609417, 0.1334668138559226
-0.04125515457429645, 0.07883104374393474, 0.1286523436093491
-0.09651756464132993, 0.080730680576359, 0.09504767561314185
-0.09472239268420796, 0.07494431370983887, 0.0948209362419887
-0.09046417369536983, 0.07625106535398898, 0.09962911740205241
-0.10390672854487347, 0.06475949865077908, 0.08021752253357019
-0.10643934364966393, 0.06512787210483792, 0.07723764280186794
-0.10418287969069054, 0.05947724343161216, 0.0770114003377054
-0.07539759845649119, 0.07322763952797413, 0.11056213911320618
-0.10023861350056268, 0.07089478656905683, 0.08771218197179338
-0.09603362236017399, 0.07237176631153266, 0.09255218344679952
0.11745239323166029, 0.059253191854239294, 0.054706558683206154
0.12475046190856147, 0.07482801380409519, 0.04918064659767425
0.12139448345631758, 0.0652885747618651, 0.05024139314642658
0.10862407039662769, 0.06698166606348753, 0.07523308680532306
0.11035319735322374, 0.06161196452942937, 0.06908313631348947
0.11601275585620979, 0.06610897556560484, 0.062314646874053116
0.10216471926204801, 0.05977972232496007, 0.07970824983968566
0.11129917993549329, 0.05717667998005403, 0.06450252760096924
0.03803802099511418, 0.14525162278306586, 0.14283901441567012
0.047786630799127226, 0.14678632410814463, 0.13990785666699812
0.05574671572668503, 0.1330771961772683, 0.13457949568689298
0.025153052418395497, 0.13358719324455354, 0.14388120584391031
0.11777065748535732, 0.12924704915769136, 0.08484477170729832
0.11000471050266288, 0.14324268127258807, 0.09814445211033439
0.10941212284012997, 0.1321778141500663, 0.0958705822739395
0.08315396779703282, 0.1281346024853393, 0.11881894473374086
0.06306147273436626, 0.1318891009267657, 0.13123909359215424
0.07255802128755388, 0.1283173689231198, 0.1254895319073325
-0.07152222302291732, 0.1281931319402579, 0.12610398430905412
-0.07707469600074528, 0.14804347003585577, 0.12680336289641825
-0.12566387415661495, 0.12512047231537637, 0.07085272820821056
-0.10782835482072906, 0.125874615282147, 0.096388753498073
-0.11499539392714922, 0.127243262083787, 0.08774825869559312
-0.10959268614309235, 0.1323305759015048, 0.09572590614042299
-0.0061223912521588915, 0.12594735374149887, 0.14445528723488346
0.0021516241521967587, 0.12249913659555722, 0.1440710750956139
0.014832318292782316, 0.13032913228702842, 0.1445022783843454
-0.0042234247496020835, 0.1327492979732091, 0.14573193087009012
-0.07683365623918376, 0.12369578137954564, 0.12193628821602212
-0.05229465869161727, 0.128118179174118, 0.1351493648628313
-0.049812963267273115, 0.12950050888643747, 0.13648004766270916
0.08442978214071828, 0.15109505227428308, 0.12220610944312621
0.07051835665092035, 0.13001018369454884, 0.12704749224809042
0.07775226287399296, 0.13790903851781694, 0.12408775096202078
0.08745145910704989, 0.13597239367942787, 0.11737480113439265
0.07522307760175234, 0.14501034256828818, 0.1272106518374383
0.10566154709452348, 0.14039970263061435, 0.10205584773484838
0.08121567006943808, 0.15345574318331015, 0.1250461209201804
0.05797805732221914, 0.14046939952634105, 0.1350769080117311
0.06460310834164301, 0.14064331124951365, 0.13228534517669852
0.05571644821024323, 0.15510383621967286, 0.13853235249630516
0.05110300339476368, 0.15787837204572172, 0.14045962921276262
0.13078422113918436, 0.15100165093257084, 0.07022197866321184
0.1384319169613334, 0.1588018737456819, 0.05606057594224894
0.10930377172132633, 0.13992100331229254, 0.09815604898841744
0.11277305256618345, 0.137429034940721, 0.09320424474309563
0.10379941428146114, 0.14658395881007508, 0.10505177374307857
0.11352797916855802, 0.14928725149028868, 0.09566589155724199
0.08697878735209918, 0.147321602404859, 0.11960545967646917
0.09375847099270425, 0.1509023248057254, 0.11498839578879903
0.10708315863603779, 0.1501169465312835, 0.10242501229598364
0.10525618952100287, 0.15848228454136443, 0.1058966791035901
0.09998751623825783, 0.1590109103709374, 0.11130153903973591
-0.06133717219674424, 0.15091922119210527, 0.13561275428455555
-0.060489037345778304, 0.1395490458345836, 0.13381297750576301
-0.06605159183343623, 0.13869084616159819, 0.13123838077563446
-0.0765271022132575, 0.13309088539930602, 0.12390703679283178
-0.06684765577143677, 0.13481244766311107, 0.13012102965637817
-0.01605260901042398, 0.14754590785549004, 0.14736776139658972
-0.0219900732171169, 0.14219634272640688, 0.14562145900360401
-0.03832666777067577, 0.1398208792374413, 0.14196679026442025
-0.07856643438110064, 0.14450196096473544, 0.12509491253046
-0.07465624262101665, 0.13757466407501157, 0.12602183674977385
-0.08711467378855739, 0.14626259693867275, 0.1192803263137609
-0.09459537037406321, 0.1506918456084058, 0.11429505304283175
0.04382018019764343, 0.15947094016260754, 0.14299102529081759
0.04519640728730507, 0.1576001653501723, 0.14224462677945113
0.021418107646392168, 0.1524539432124962, 0.1470973935182141
0.04954627136573464, 0.14862503215060047, 0.1395895834821692
0.011236172614466348, 0.14263554054815494, 0.1469907665611273
0.013751287267680257, 0.1365518201900338, 0.14565889036875407
-0.012710347310431748, 0.13212295896673842, 0.14497258832534965
0.00031176476153322365, 0.1430995500676571, 0.14770668779081528
0.0038380557478005796, 0.13219174933946018, 0.14567673160657252
0.0291371378080339, 0.13722612287860006, 0.1437174547026817
0.02069105313474176, 0.14383277234395253, 0.14606223793632173
0.027603982424495258, 0.15205124895006172, 0.14596585927206268
-0.02223549950761617, 0.16281606811073993, 0.14845985683491242
-0.015299146592094475, 0.13542548363451634, 0.14534662339156568
-0.008618618159298702, 0.1486148200164751, 0.14830762528382363
-0.028214942162824566, 0.14729077544851732, 0.14519970657664394
-0.017024580394007477, 0.15389096729194682, 0.14807496415937818
-0.04327104610598224, 0.1380111486701866, 0.1401683547616836
-0.031130161843283106, 0.15332340750667456, 0.1455265030950095
-0.02218430200387947, 0.15640533812560914, 0.14756167642217524
-0.04620139853658675, 0.15149563629936225, 0.1410810249238158
-0.031773029796340786, 0.1584627207004246, 0.1461124558722498
-0.116451832915939, 0.151150126795256, 0.09252973899586339
-0.0844460039735179, 0.15925060667408367, 0.12372444932501939
-0.11336718527774337, 0.15386481033059282, 0.09675122631596536
-0.11782731345832942, 0.14446683286669934, 0.08906506261962145
-0.10940769690611828, 0.1355575903356744, 0.09683501387057765
-0.1153295545749482, 0.1511920341766173, 0.09392790818222807
-0.11335491916420065, 0.13330059289023563, 0.09134699907680824
-0.10641980243919703, 0.15267083059756076, 0.10359541237862072
-0.08140934507507197, 0.15251635916985037, 0.12475886270484461
-0.08774548164430396, 0.14220657313069202, 0.11814462003125326
-0.10358780391051169, 0.14404308557503837, 0.1047896703043911
-0.11344510336117751, 0.14952029530183109, 0.09580965844435496
0.12485539915725953, 0.12827175170205496, 0.07321952057091281
0.13545180942854754, 0.14059698017318384, 0.05674268077001343
0.1280331661269699, 0.146284057338323, 0.07406942733432775
0.13137979855532672, 0.1339350812326173, 0.06348417719700193
0.12166745386072142, 0.13721553133689177, 0.08161119635527954
0.13076463063638194, 0.1328727835406696, 0.06439503508615871
0.11212478874793054, 0.12863926364857156, 0.09165702380153962
0.1200967525992845, 0.12618064681888658, 0.08052210284816866
0.05271495503850976, 0.11464080784019914, 0.13218117983593572
0.05248014732192324, 0.10846178541477208, 0.13081570925427782
0.0016519649105615443, 0.11982783354025436, 0.1435776294144776
0.022123145901265566, 0.10381453191849987, 0.13841325326311127
0.01084639594019136, 0.10047077414589492, 0.13922484661797435
0.11425215087623095, 0.119623264545339, 0.08638977970795281
0.10836524036684894, 0.10933875358102732, 0.09017556682421313
0.07317162351362597, 0.1142253686843227, 0.12180739337975188
0.06800446756519836, 0.11713365014019889, 0.12574055784773733
0.0856479809108669, 0.10144440340691031, 0.1101805876131362
0.08351387400608987, 0.10969063472045656, 0.11413329413857429
0.08116615078227962, 0.1117179564181193, 0.11622644972220716
-0.07442996262286164, 0.11454150351020542, 0.12119882754592254
-0.12535180451249947, 0.11613778358618423, 0.06782566358020924
-0.10961140642282821, 0.11432010188990879, 0.09028505534958693
-0.12010108308184142, 0.12022770045756534, 0.07831487607836471
-0.11820621556539364, 0.10493065938031629, 0.07526464451768557
-0.1060607278154297, 0.09986872463627808, 0.0904732015267698
-0.1140128365191565, 0.11146589614498637, 0.08391420077413372
-0.12166611094842714, 0.11203441045605374, 0.07222124255089003
-0.0025347255676402784, 0.11850652580246128, 0.14325290165247445
-0.010696192316025697, 0.11694722736122612, 0.14239324525174493
-0.004455582952007647, 0.11956746624895945, 0.14335013890730422
0.0034996640413162226, 0.11175648872345002, 0.14176900067430212
-0.07438148391051246, 0.1181260159651847, 0.12214477475095345
-0.053160859233837586, 0.12127897841212172, 0.1336120708480186
-0.04152939942789806, 0.10053285128536504, 0.133079718591243
-0.049034589036450776, 0.10365692262513046, 0.13132298641524623
-0.06101436179678957, 0.1059575742283603, 0.12659200702607246
-0.07539695087188326, 0.11280966721565712, 0.12007725175611207
-0.056066256623787315, 0.11357482637758598, 0.13043344022371312
0.07108737979987648, 0.10352289646122464, 0.12077379013560029
0.07254940366826369, 0.10093099559364863, 0.11937721954926064
0.08186074155921742, 0.09544994607101652, 0.11148318116526869
0.05340584681992898, 0.09706586900620859, 0.12837219951477508
0.04326501808981677, 0.0920071303855633, 0.13071721054859084
0.051220153971522416, 0.1057963899990359, 0.1308782067902527
0.053599538387110165, 0.10647548055537781, 0.12997957532057638
0.04501989471645522, 0.11263827656625562, 0.1347480497686492
0.05298142447151775, 0.09214480445221401, 0.1275224605539661
0.12449167293605812, 0.08748782689053158, 0.05647528947004583
0.125595416939975, 0.09878733776943274, 0.05903919981923045
0.12109337401428925, 0.09297608751505969, 0.06611264506598505
0.09050435422693992, 0.08451530921912793, 0.10215618734719527
0.10370778823666384, 0.08959395481041316, 0.0902476242004836
0.09228866061607897, 0.09139236212569282, 0.10222851944886423
0.09440363169342914, 0.09344898827883817, 0.10061883588235594
0.1134381739128413, 0.10354549281401694, 0.08205493541027459
0.11219149045387372, 0.10038020440461787, 0.082888564798712
0.08906302618184847, 0.1057368234084893, 0.1087578132433279
0.09757729066213032, 0.09721368909792258, 0.09842108947887002
0.09816719753864715, 0.0999324758445691, 0.09857082985550597
-0.04596414059716239, 0.10506911937196423, 0.13273238637028223
-0.037591696405960426, 0.0896237921560515, 0.13209408133987072
-0.08302199837107183, 0.09061757038169939, 0.10941257835329463
-0.05527532522592535, 0.10175254585708969, 0.1283952179659853
-0.06961926442486431, 0.10557036535268274, 0.12207549290869317
-0.06656171201682534, 0.10237132332184704, 0.12320849820666743
-0.06821356880467415, 0.10991863168843646, 0.1238643075092896
-0.08034088094946434, 0.09714367443384846, 0.11304779176286742
-0.0883193456118486, 0.1064667194029895, 0.10955975568033163
0.03546880632169641, 0.08501247743886486, 0.1318448224310536
0.0030010963486325265, 0.10670924414144695, 0.14083846998393953
0.03294854363411358, 0.10012095115009985, 0.13564877281305823
0.01761624868040246, 0.09373761056904392, 0.13702022284275125
0.022272990335937642, 0.09031629016102433, 0.13562284576623182
0.031358195210005234, 0.09602172835428907, 0.13508744991767238
-0.0267109520352536, 0.08492526697349957, 0.1338058062164883
-0.02029205289733063, 0.08898281688800197, 0.1357310570292772
-0.02087936048330027, 0.09279457724947207, 0.13628117941583706
-0.026958165916560316, 0.09076289695542214, 0.13483075877410844
-0.002853610524607075, 0.10475856647286544, 0.14053216930059456
-0.022805025709841272, 0.10577657321407409, 0.1387553114280517
-0.024453483057074853, 0.09715384323492879, 0.13650849137430593
-0.023011992726218303, 0.10120948340048189, 0.13766314528977056
-0.03552885055435694, 0.09778756491123633, 0.13436710695809706
-0.07938771539463835, 0.08540653235810264, 0.11114523586133007
-0.09790424745939766, 0.08740711798918065, 0.0955684353583054
-0.08206016499421606, 0.10349908880442177, 0.11351900396392432
-0.10511942025242921, 0.09404926841137731, 0.08986458323389226
-0.0996419250786742, 0.09860415579107991, 0.09670723104888332
-0.08149356225183568, 0.09408941813725291, 0.11142346412939447
-0.09574961733143376, 0.09493529898507332, 0.09966123818101454
0.11688900552988996, 0.1136204268066304, 0.08104468815118143
0.11090022432020948, 0.12328393074339171, 0.091783404902528
0.12240535906348506, 0.10029785543858497, 0.06673676520162335
0.12156546118540393, 0.10102524389237756, 0.06856738467562154
0.11422022569102531, 0.1130170348334498, 0.08418073524796113
0.12066543938820816, 0.10839917990581094, 0.07243742630080216
0.057130579128077494, 0.2288425504488081, 0.14137730520630393
0.02823760835302054, 0.21575295765159286, 0.1506158670710585
0.10806256591884204, 0.21400112181041892, 0.10855188884740792
0.12116747561442955, 0.20515089897907396, 0.09339467875489528
0.12441474784149496, 0.2139245915432911, 0.08904143354731331
0.055211598998427716, 0.2074544425523828, 0.14304613614244768
0.07162845048433442, 0.21047538377001213, 0.1354947071531327
0.08891759221949619, 0.21523747339160598, 0.12470575686745611
-0.07696385700246927, 0.2100578101777554, 0.13229532357472504
-0.09369540261975129, 0.23361437007204702, 0.11934808856849488
-0.0902386204668798, 0.22510731028133207, 0.12291092644032942
-0.08534241250227143, 0.2152121805495005, 0.1268967668480913
-0.1292936157858035, 0.20910629666443503, 0.08168732567936209
-0.12855049712554598, 0.2184119838637557, 0.08230831494279242
-0.12363233404025414, 0.2137723249303521, 0.0900055345195267
-0.12327067083782166, 0.2104934915484175, 0.09062184720585556
-0.018696339485492788, 0.21000700212624826, 0.1522066765478027
-0.026374675144627414, 0.23239156793778382, 0.1496081303889749
-0.01910751140151163, 0.2265091593980974, 0.15134712362695973
-0.023766327574012022, 0.2133553993959175, 0.15148096648648252
0.007763424592521877, 0.21512073646199903, 0.1527137167716042
-0.0009569646239168776, 0.2137668292038507, 0.15323968602623475
-0.05574502796506166, 0.2092427920373684, 0.14275486123942616
-0.07250198688527401, 0.21751714396947136, 0.13473302264467107
-0.06038210271004968, 0.21660722390697498, 0.14034873367278666
0.09750933761280547, 0.24250382079710056, 0.11554616263189897
0.05755208590701509, 0.21769948303844697, 0.14154511386486887
0.07573920235007311, 0.22249920512627497, 0.13246179644888098
0.07249466781813732, 0.21511638336274197, 0.13482328675338573
0.08298147679909677, 0.22151660265947393, 0.12807913473538252
0.10587544105833624, 0.22154968420419607, 0.11009495810751474
0.09273524105281133, 0.2344732141957479, 0.11999720403113734
0.06269929841664397, 0.22201639466355738, 0.1391364585060651
0.05314302553381224, 0.21861205533184405, 0.14343665409610862
0.04286354023495231, 0.23120157171239447, 0.14583509894409105
0.037388027884727115, 0.23038732502926318, 0.14766168771350036
0.13569268459011186, 0.24159612027599967, 0.06633739489857926
0.13325492282818158, 0.23358522231700005, 0.07282755366301763
0.11520113574236351, 0.2260238568407239, 0.09981985681372052
0.12142453103749953, 0.22332593040179394, 0.09221962236311272
0.10147359053910686, 0.22786995596845153, 0.11368599805266225
0.11303294252825243, 0.22967948870270094, 0.10175371788180772
0.11137892765299724, 0.23278698596035358, 0.10312946274548235
0.09138371902681494, 0.22690339453390956, 0.1218568201287222
0.09459588195138975, 0.21917965419497082, 0.1202750554232017
0.10942427965635919, 0.23983986029832982, 0.10444063050815776
0.08768857356055398, 0.23568577297461923, 0.12371837001878863
-0.04701590110574188, 0.2351238264845944, 0.1441951785032199
-0.06935743358885886, 0.21717544008875722, 0.13640018753764918
-0.06964811406583458, 0.22018021938214727, 0.13612925203300177
-0.0497575154910424, 0.21509412927256266, 0.14496424035517083
-0.06584027785658135, 0.22828807501673104, 0.13746850355810025
-0.03780208554630092, 0.22957239277522332, 0.1476401193798239
-0.08525684569186781, 0.22096208277578208, 0.12671870082299114
-0.08183456809939303, 0.21958039503564197, 0.12888715012453675
-0.08349881283019497, 0.23483125755909964, 0.12698165043166174
0.051957207040067094, 0.24456054336301397, 0.14189597258359127
0.0157622984647915, 0.2305073671677004, 0.15153633573475891
0.04234898921917092, 0.23959850556527815, 0.14536332848080247
0.002179815327927721, 0.2205814883621648, 0.15290916117887385
-0.018854682925815654, 0.21318186127277583, 0.15196778233320607
-0.004812823117465689, 0.22690009967713054, 0.1524699496259604
0.012401085979209706, 0.21729113408547132, 0.15230231866949093
0.04649849583631807, 0.22160396387090728, 0.145568960205377
0.01641130119978032, 0.22619020867197157, 0.15169054537302717
0.05267860179618587, 0.23419667067916072, 0.1424136642714624
0.027686274345827055, 0.23241211255229638, 0.14938662700732108
0.02771900545051579, 0.2294074112228111, 0.14964887591295895
-0.030304214558865096, 0.24212868026697806, 0.14813791060361187
-0.012725584489334155, 0.21965705972559812, 0.15219585537091868
-0.037535127666261506, 0.23943101181263018, 0.14690971396255142
-0.051145872940791724, 0.2293880380781873, 0.14335328916188453
-0.05213870294466273, 0.23127093801537937, 0.14285258926173017
-0.027872656289905515, 0.23666619913087106, 0.14898419037839694
-0.04155826110539858, 0.24088456273887002, 0.1455058287502859
-0.02770078088271569, 0.23943632169509715, 0.14878040059437236
-0.09786239820827947, 0.24027687445776366, 0.11546701880753629
-0.10958355678744901, 0.23569269253228736, 0.10463831591664936
-0.1263121771451307, 0.22061719630656113, 0.0859378443870461
-0.12276883748363662, 0.2223655714834341, 0.09058534196543905
-0.12363103100310589, 0.22361171810251046, 0.08940994399382855
-0.12421056698788552, 0.2184255704134645, 0.08900312067191987
-0.10034217352453055, 0.22552436692305197, 0.11498372820818828
-0.10374052705386105, 0.2262886412618086, 0.1115885888084755
-0.11211376237214975, 0.22612400328706353, 0.10316339511778479
0.13936944899750447, 0.21748722292085534, 0.06299646538441794
0.13037001191026756, 0.20858488479259804, 0.07993233575644326
0.1361221489478934, 0.2260630485883512, 0.0681492695685117
0.12637411082923494, 0.22228458007030558, 0.08566518305136611
0.12865780929556392, 0.22049245784758625, 0.0819729752006071
0.12531447636936682, 0.22340898901988593, 0.08723517756740996
0.13570028638383347, 0.22234166784692255, 0.06978296224868147
0.12431760245673137, 0.21765852439061376, 0.0889341292848887
0.1345176287902773, 0.21713311228292514, 0.07231339306762348
0.059046049084629376, 0.2028477711729233, 0.14129066008017918
0.054244594676835005, 0.19555091936434088, 0.14292147811742828
0.021218229137703246, 0.18394329342896826, 0.1506576369082142
0.02895033476108621, 0.18244893381920316, 0.14916725459349575
0.021251296316695194, 0.19350089047082045, 0.15145821039578256
0.11463423717589964, 0.19935396592343385, 0.10138343139030423
0.11336212433648127, 0.19169787572371627, 0.10213545890907356
0.06629657902205531, 0.20149540516188863, 0.13801136334568762
0.06582932121414226, 0.2035692152535144, 0.13826908402900018
0.08523602741319218, 0.17980083275188957, 0.1256297822650908
0.0953034994992643, 0.1804295850275427, 0.11799428046669033
0.08912884213053525, 0.19271130132207742, 0.12421414362727451
0.0771032538900202, 0.1871572135105108, 0.13129133085216288
0.07615349971175354, 0.19393458448205944, 0.13234530378576648
-0.08273477610898276, 0.20118619007934968, 0.1287890103040211
-0.13485605120460503, 0.19826768447930113, 0.07189816358975648
-0.11602234379357759, 0.20072650602621062, 0.09978398118328326
-0.12538300065453237, 0.20450389274667632, 0.08800814573140339
-0.1115690486634649, 0.1838929421109941, 0.10325246928670553
-0.1276000904778158, 0.18620811652253846, 0.08286963541400727
-0.11822079026955433, 0.18629333173629237, 0.09564713766575135
-0.10989895441170215, 0.19405442845358817, 0.10632379032629455
-0.1149097524661116, 0.1857107390054092, 0.09982429306458329
-0.1280781682684455, 0.1950831963795206, 0.0831229359108599
-0.11505491352775327, 0.19325275657419877, 0.10020659476972091
0.014332383758653644, 0.20047941043958548, 0.15243155550444434
0.016160597383310778, 0.20416708152722457, 0.15244609587423397
0.0024703866878304425, 0.1944267123625572, 0.152938506968981
-0.007037897724830186, 0.19271156432344522, 0.1525035634753747
-0.055504393161671356, 0.20037200939738145, 0.14277769271399526
-0.08128633229446192, 0.2044667827715941, 0.12975742609086646
-0.03981316843502835, 0.18220716644313897, 0.14675079934525664
-0.04973406146707933, 0.18620361654444165, 0.143995031262919
-0.06989078006230835, 0.1862129301366147, 0.13555282608524613
-0.0862250207740165, 0.19360524577038535, 0.12605279950832304
-0.07392768198385058, 0.19965706191030425, 0.134052988718239
0.0869899406414471, 0.16513517526192234, 0.12269100640644455
0.09169750877592552, 0.19093801448068215, 0.12220415756378122
0.08281165967931221, 0.17908159701273413, 0.12736150232982502
0.0507390029769719, 0.1680872882234528, 0.14190728355577115
0.051270311598262286, 0.1775913050961116, 0.14254582331520088
0.07305884766243206, 0.1830073033378583, 0.1335510983599645
0.057579005944307746, 0.18748502400274653, 0.14104327266210087
0.06293610965109958, 0.18592191263543856, 0.1386667235164085
0.059653002436835856, 0.1750288410797585, 0.13937992012531786
0.13405783423484852, 0.16172484917534583, 0.06682476806662674
0.13865838041273537, 0.17098753228600222, 0.05898943303593561
0.1340142032860957, 0.17399871503162376, 0.06964791161882382
0.10784766030353606, 0.16170664680796348, 0.1039849817440348
0.1056474960513465, 0.16854141006431825, 0.10723859343613124
0.1067868637178129, 0.17254649513409093, 0.10661739725854066
0.11203436775302203, 0.17376113933670595, 0.10137335003898994
0.09862170008260261, 0.1749949919580685, 0.11481754384622615
0.13470498881066778, 0.18874122809244212, 0.07111782896868357
0.12172000016817319, 0.1856408608626075, 0.09119036430684742
0.11360338449513604, 0.1889443836292142, 0.10160020519437109
0.10857859933287081, 0.17847375304556645, 0.10550414097153894
0.10543259154907883, 0.1796777591535778, 0.10887899240166436
0.11044896884884195, 0.18267287986937075, 0.10421147951443227
-0.036977368229902746, 0.1645397320460122, 0.14577925434355998
-0.049083216811433676, 0.1896190036020501, 0.1446117025367652
-0.03810212664525946, 0.16962305838560895, 0.14601250807288463
-0.08819059433281477, 0.16929506171829387, 0.1222157658887932
-0.05809434432333914, 0.18569761508104102, 0.14071093591691586
-0.05141593780114956, 0.19200298878824834, 0.14394584430218774
-0.0779722063313457, 0.18215552054393325, 0.13057731702518918
-0.07090783502775964, 0.18811101490201965, 0.13523102305211782
-0.07302003557410122, 0.19278581989320803, 0.13424564182377335
-0.09961170440337622, 0.17607915472339267, 0.11416817394543094
0.02057187800468989, 0.16180550222391368, 0.1486394711681901
0.018421834805485184, 0.18641612133485416, 0.15133528254648013
0.004638816134053522, 0.19011171849702274, 0.15255566408555832
0.048272692204451344, 0.17415552241812796, 0.1431963547644063
0.04682084866132136, 0.18153178097425082, 0.14439993797721953
0.03590706451674382, 0.18331135003355484, 0.14800442892455856
0.02394815894483327, 0.18878155991663115, 0.15073389832634904
0.029888454498005333, 0.17234607040288272, 0.14806196989252335
0.028926727264096248, 0.17256103988481156, 0.14825439498184342
-0.029584728936287805, 0.16426010931688137, 0.14725645983424746
-0.011730508604157749, 0.17875234515173433, 0.15151961623587606
-0.02692245240375862, 0.1759958738818039, 0.14888133930392922
-0.013316662132574115, 0.17402696812019788, 0.15094716411770645
-0.013775000633839036, 0.19075277708895474, 0.1518865038587882
-0.008931201299400296, 0.18580231945358547, 0.15204080142905108
-9.485965118571412e-05, 0.18829544233913492, 0.1527583097310154
-0.019535592657817638, 0.18749863585113213, 0.15128683051046657
-0.029921968869064716, 0.18353335272732627, 0.14912186014927611
-0.029995809136031115, 0.18283419678932203, 0.14903276304097465
-0.05242007665551941, 0.17864615450157223, 0.14228396286851436
-0.08936800037156789, 0.16416430824420497, 0.12066434245204674
-0.10840441603114415, 0.16730421176663984, 0.10432027444756473
-0.08955158034066901, 0.18150010862388016, 0.1225363515683516
-0.0964669367907607, 0.1835055622656388, 0.11751080954728041
-0.10071352947980074, 0.17414694404734185, 0.11300371922826072
-0.11453366541219712, 0.17131506482593964, 0.0985390685055693
-0.08842336868809111, 0.1739915713987789, 0.12250564869971829
-0.10601417173349414, 0.17073212205362234, 0.10716653080530605
0.14072483337888161, 0.18379257586819728, 0.05744289362641442
0.12362666810651912, 0.19981417859277814, 0.09006048495867551
0.12264569986554169, 0.20587418662415646, 0.09151317975966601
0.12470665400989042, 0.20400426785716758, 0.08887360743397973
0.13245471236686293, 0.18863646245350213, 0.07488425772841655
0.13688723008132117, 0.1918588078970389, 0.06765991471277502
0.1247570565122988, 0.1918156868932121, 0.0881086956720222
0.05478367189480269, 0.2930020744613885, 0.13256954292828457
0.05201878155798542, 0.3049829734497804, 0.13101661990253893
0.010877803085552064, 0.2942836170795837, 0.14267598199445114
0.11578255799148508, 0.293137091336299, 0.08417624110212626
0.11147743712627547, 0.3010538625206996, 0.08713317160238242
0.10686680977118748, 0.29583712741119383, 0.09485091932049136
0.05703785842739254, 0.28756858928650525, 0.13267091679325463
0.06891567069551813, 0.29434547341651124, 0.1253416456482579
0.04950856481110743, 0.2924793020235466, 0.1351210614263899
-0.08826983099679317, 0.29753727851370104, 0.11263914952641976
-0.08685940355114032, 0.3110105988729259, 0.10920948359463152
-0.08407641414859818, 0.2980218514890214, 0.11555535782817225
-0.12748616098536786, 0.29096610797207934, 0.06679742414993074
-0.12468002052361697, 0.288080054214981, 0.07231068132261302
-0.1275987077125109, 0.2935926718043532, 0.0654554255666146
