-0.026968118609848324, 0.5146211820962501, 0.1531478315591812
-0.023168057204626995, 0.5769805514358476, 0.1531478315591812
-0.32621739867696903, 0.5643312918993164, 0.1531478315591812
-0.42586133948554056, 0.5541683544248505, 0.1531478315591812
-0.1706401488665906, 0.5948530758918964, 0.1531478315591812
-0.5542909841362684, 0.5296161170405933, 0.15314783155918119
-0.4324616665415943, 0.5355831422163952, 0.15314783155918124
-0.33155616358260126, 0.606595528398884, 0.15314783155918119
-0.0977577116460672, 0.5313835617104643, 0.1531478315591812
-0.41708809215155146, 0.5537656659111244, 0.1531478315591812
-0.07428416674956116, 0.5353102438311585, 0.1531478315591812
-0.12985411470620956, 0.5885535061931922, 0.1531478315591812
-0.18706652649836525, 0.5684778426021612, 0.1531478315591812
-0.4497463267620671, 0.5572159040800293, 0.1531478315591812
-0.43864440382719855, 0.5508455435674356, 0.1531478315591812
-0.13401574395758, 0.5323105566864055, 0.1531478315591812
-0.4399506024478444, 0.5431330508465666, 0.1531478315591812
-0.2319499704280139, 0.6196087267082254, 0.15314783155918124
-0.39638903050221197, 0.5439957772876873, 0.1531478315591812
-0.04248569121481058, 0.5179472312222961, 0.1531478315591812
-0.01849835739178323, 0.6383245713320691, 0.1531478315591812
-0.12692635306781752, 0.597126127341514, 0.1531478315591812
-0.3471853818242699, 0.590301943648072, 0.1531478315591812
-0.20309331054650323, 0.5284655933213851, 0.1531478315591812
-0.04849238861026613, 0.6970226673486352, 0.15314783155918124
-0.06065070775267356, 0.5232814606112515, 0.1531478315591812
-0.5273937542232519, 0.5512037394132226, 0.1531478315591812
-0.6498445017398342, 0.5863614928599103, 0.15332294726839568
-0.009637881070375443, 0.7101526839380928, 0.16198220461307988
-0.04194412068950042, 0.5124282240867615, 0.16103724812883835
-0.3845296274128595, 0.5124282240867615, 0.15585014902140662
-0.3626253147944756, 0.5127209870705035, 0.1537462873913792
-0.1644861043683981, 0.5124282240867615, 0.16381675375612445
-0.5405726334600932, 0.5124282240867615, 0.15635365653396666
-0.08117023342950563, 0.5124282240867616, 0.16425730919472342
-0.6507152915000916, 0.7279592326653916, 0.1645842039910271
-0.3200378085924647, 0.5914033655623894, 0.16658076643943787
-0.5757223733526824, 0.6279344452185853, 0.16658076643943787
-0.5782530174778315, 0.6458765066795664, 0.16658076643943787
-0.2966859789733593, 0.6074844170470683, 0.16658076643943787
-0.3693485791201856, 0.6213421014494114, 0.16658076643943787
-0.5336850104232308, 0.6234212181393721, 0.16658076643943787
-0.5316335085297484, 0.5287619365090248, 0.16658076643943787
-0.5191821689112655, 0.6154950146268083, 0.16658076643943787
-0.34699848370134223, 0.5208562786118605, 0.16658076643943787
-0.17585702283316207, 0.527138418073062, 0.1665807664394379
-0.6150427049663654, 0.6029862825413148, 0.16658076643943787
-0.4137817437784767, 0.6347450703671961, 0.16658076643943784
-0.483638614443637, 0.6674501191597387, 0.16658076643943787
-0.43551768753780273, 0.522822704535985, 0.16658076643943787
-0.43525603668458124, 0.5850134880485848, 0.16658076643943787
-0.6287298190166591, 0.5373714668939575, 0.16658076643943787
-0.6149528023356806, 0.7050362907330429, 0.1665807664394379
-0.5932296353367992, 0.7078684889107869, 0.16658076643943787
-0.28834136468382165, 0.6047227764849538, 0.1665807664394379
-0.5697577370709532, 0.6568912505938986, 0.16658076643943787
-0.21744194859354188, 0.5366661674919166, 0.16658076643943787
-0.5041842951587387, 0.591461590198055, 0.16658076643943787
-0.3728163591426825, 0.6288317527555966, 0.16658076643943787
-0.5921201750427368, 0.6879365921722811, 0.16658076643943787
-0.537933874230833, 0.5883788238710921, 0.16658076643943787
-0.36951350603823657, 0.5263021250213356, 0.16658076643943787
-0.4625244275519332, 0.5499444524004811, 0.16658076643943787
-0.3445484088708385, 0.5778920994143217, 0.16658076643943787
-0.3401839584859474, 0.5529826106792461, 0.16658076643943787
-0.5554863600150144, 0.5395447911516268, 0.16658076643943787
-0.38623949633427246, 0.5885982819913256, 0.16658076643943787
-0.5682542851483194, 0.5140609237125784, 0.16658076643943787
-0.5251941067088759, 0.6459760715790746, 0.16658076643943784
-0.5073329807631433, 0.5661120626560892, 0.16658076643943787
-0.4921934649872498, 0.6322365759434777, 0.16658076643943787
-0.2786062631547115, 0.5914664949985482, 0.16658076643943787
-0.6235883756067054, 0.6733232846637315, 0.16658076643943787
-0.535886891376376, 0.5888935719229434, 0.16658076643943787
-0.582178120268884, 0.7055657829511666, 0.1665807664394379
-0.2079849529982056, 0.5680296010290762, 0.16658076643943787
-0.1804946520380213, 0.5654245562688158, 0.16658076643943787
-0.30189153601658075, 0.5203477724530392, 0.16658076643943787
-0.395191841502185, 0.6047536617616197, 0.16658076643943784
-0.4840179167885321, 0.6656925487890896, 0.16658076643943787
-0.29825146076089193, 0.570673437011673, 0.16658076643943787
-0.24097265050695635, 0.5582570984998714, 0.16658076643943784
-0.6305339961180461, 0.6953241828846133, 0.16658076643943784
-0.38282577594953815, 0.5991937297523724, 0.16658076643943787
-0.297829555750635, 0.6049010620658677, 0.16658076643943787
-0.5217546267659295, 0.6116106599268593, 0.16658076643943787
-0.061309391236697916, 0.733164370059967, 0.16419590289823335
-0.5652928790352432, 0.733164370059967, 0.16432611398269523
-0.009637881070375443, 0.5324182160170978, 0.15701681805829606
-0.6506086245163005, 0.5723544890465688, 0.16550991007875987
-0.24186868104364395, 0.6833470437159117, 0.16658076643943787
-0.025927799598853506, 0.6638016812054797, 0.16658076643943787
-0.059159082747510416, 0.6487650751945104, 0.16658076643943787
-0.08653353742631642, 0.7043668706976214, 0.16658076643943787
-0.2543441189874145, 0.6202679014243697, 0.16658076643943787
-0.02025540948095031, 0.7176067260988453, 0.16658076643943787
-0.11844257739658562, 0.6817020834295149, 0.16658076643943787
-0.03111130544935652, 0.5399190653405415, 0.16658076643943787
-0.16889841901081687, 0.6761533479142643, 0.16658076643943787
-0.22367822493062284, 0.5998646288580118, 0.16658076643943787
-0.16959625649796506, 0.7228114952803344, 0.16658076643943787
-0.46724181921221364, 0.7155567376795213, 0.16658076643943787
-0.378295021982284, 0.7003366836163644, 0.16658076643943787
-0.33804356276796005, 0.717096480780993, 0.16658076643943787
-0.17665504284611805, 0.6208118857144436, 0.16658076643943787
-0.024008085892571102, 0.632297753215995, 0.16658076643943787
-0.3101811381241295, 0.6503149647903853, 0.16658076643943787
-0.1772712499464327, 0.5715860846428537, 0.16658076643943787
-0.07954832232575582, 0.6368079195281782, 0.16658076643943787
-0.27515510648094615, 0.6192330693829282, 0.16658076643943787
-0.3388279659932907, 0.7197594865673105, 0.16658076643943787
-0.09649559447849411, 0.7043219256326533, 0.16658076643943787
-0.09521405074699973, 0.6593999267734061, 0.16658076643943787
-0.5111173862358721, 0.7277734006108195, 0.16658076643943787
-0.3829018164968331, 0.6743428667744413, 0.16658076643943787
-0.33622091216166006, 0.6450048593779232, 0.16658076643943787
-0.15356008009411726, 0.6321583150752321, 0.16658076643943787
-0.24328141484190746, 0.6639153124918911, 0.16658076643943787
-0.19489983115441886, 0.6598693718129652, 0.16658076643943787
-0.13940206921952183, 0.697634977335338, 0.16658076643943787
-0.022615303008203518, 0.5670455896687068, 0.16658076643943787
-0.37172696590879295, 0.6431569077625376, 0.16658076643943787
-0.39245090637895097, 0.6536158271854337, 0.16658076643943787
-0.1894322170511728, 0.6354078406133442, 0.16658076643943787
-0.08409430241674566, 0.5918402260164756, 0.16658076643943787
-0.1568991731083843, 0.6363196724849739, 0.16658076643943787
-0.26903143506241317, 0.6810339709866062, 0.16658076643943787
-0.16499359877575748, 0.6020208848103727, 0.16658076643943787
-0.07955162402795893, 0.6152840839686696, 0.16658076643943787
-0.1831782812041662, 0.6138626256989446, 0.16658076643943787
-0.013631102579964461, 0.536179190256773, 0.16658076643943787
-0.40575319559979206, 0.7301288536895374, 0.16658076643943787
-0.2120097456694253, 0.6428298535773522, 0.16658076643943787
-0.14140752191029354, 0.5596826694243063, 0.16658076643943787
-0.20193615217469074, 0.727049758430415, 0.16658076643943787
-0.3994703488597195, 0.6607669278539238, 0.16658076643943787
-0.22519652102738474, 0.7087695729394226, 0.16658076643943787
-0.052707872228919955, 0.6821675953004905, 0.16658076643943787
-0.5494984588300048, 0.7173835924880244, 0.16658076643943787
-0.5629437040750155, 0.720863542147566, 0.1665807664394379
-0.4315824058649494, 0.732081237451492, 0.1664969135178716
-0.6505151308981502, 0.5950248554065637, 0.15398004209619598
-0.4144649229109429, 0.733164370059967, 0.15479299171788552
-0.6001144209611323, 0.733164370059967, 0.1592059853936275
0.008650193872090053, 0.07524009362001778, 0.10933639569425568
0.00864768959581852, 0.0719679428577773, 0.07625947901366902
0.013516746890330026, 0.07726243138313293, -0.13292470883106208
0.012672575840596367, 0.0753156766295433, 0.08649837161444926
0.012746991808702252, 0.0753156766295433, -0.11807383102638017
0.00864768959581852, 0.09255240427215516, 0.1390774784766806
0.00864768959581852, 0.08824556701742345, 0.03667314101046527
0.00864768959581852, 0.09757895469891899, 0.13140077598615982
0.0137786865234375, 0.07631612577259732, -0.18984522296376827
0.007917633280158043, 0.09551503814595866, -0.030326686148266266
0.007917633280158043, 0.09712614762260838, -0.03999804037138532
0.007917633280158043, 0.09997498276720573, 0.02664529742096982
0.007917633280158043, 0.07081929793348446, 0.11007397783286334
0.007917633280158043, 0.09078942932363736, 0.07554924496503743
0.007917633280158043, 0.08377333298099492, 0.002462726722013975
0.007917633280158043, 0.09547985752388265, 0.1402713638009089
0.00864768959581852, 0.08826669520024574, -0.13283568323143177
0.00864768959581852, 0.09580642775478161, -0.1646731942239647
0.00864768959581852, 0.07920140591919975, -0.09984403674599984
0.008211661955938693, 0.06940983980894089, -0.03474719886172109
-0.19874573805258158, 0.5103879534784622, 0.15352141930096436
-0.25557806213797696, 0.5045465426736127, 0.1531478315591812
-0.3961235327960115, 0.49873525026443577, 0.1531478315591812
-0.4869182626273808, 0.3640609074652306, 0.1531478315591812
-0.5463786649280061, 0.3943277732821893, 0.1531478315591812
-0.6198700985000901, 0.3537675923371991, 0.1531478315591812
-0.4809548000409277, 0.37931352675638325, 0.1531478315591812
-0.6008795183728851, 0.498710545922651, 0.1531478315591812
-0.6115256752134991, 0.3463391627699541, 0.1531478315591812
-0.4683729483331637, 0.3934522823833339, 0.1531478315591812
-0.13791685279990124, 0.491311064533298, 0.1531478315591812
-0.6370204377019033, 0.3510808480194083, 0.1531478315591812
-0.4353524358628236, 0.38077532970141537, 0.1531478315591812
-0.3345244468911259, 0.4978433883073149, 0.1531478315591812
-0.6171199870361068, 0.3751462675262187, 0.1531478315591812
-0.5917075132002163, 0.4642255518290136, 0.1531478315591812
-0.4544382757459168, 0.4123398343025387, 0.1531478315591812
-0.5566467103153017, 0.4864300970527874, 0.1531478315591812
-0.43754956654759936, 0.4825204891946454, 0.1531478315591812
-0.32647736152508017, 0.42213724029894883, 0.1531478315591812
-0.16204192044191124, 0.5088005245368599, 0.1531478315591812
-0.11237809059309142, 0.5087162992626759, 0.1531478315591812
-0.38679591459680585, 0.47375831339024366, 0.1531478315591812
-0.03880272846835357, 0.5009945188974056, 0.15314783155918119
-0.3381116461188871, 0.4900210733020992, 0.1531478315591812
-0.6063130577733774, 0.3084829048774496, 0.1531478315591812
-0.5618556560818457, 0.4479279200590801, 0.1531478315591812
-0.3047444126083959, 0.44654398972089665, 0.1531478315591812
-0.2620961755522702, 0.5072815297641436, 0.1531478315591812
-0.5788429423344787, 0.3500326427338008, 0.1531478315591812
-0.33648567791623724, 0.4751460144170948, 0.1531478315591812
-0.4009783616131708, 0.4766414185835185, 0.1531478315591812
-0.49938942377923484, 0.4306103345204668, 0.1531478315591812
-0.39117332657022874, 0.4358536924290301, 0.1531478315591812
-0.5855185326796223, 0.33508646244205875, 0.1531478315591812
-0.5229030673067824, 0.4935768429691803, 0.1531478315591812
-0.08963625230189173, 0.5021958588426814, 0.1531478315591812
-0.09665805092747339, 0.48387661052543146, 0.15314783155918124
-0.33604964043374846, 0.49077646688134235, 0.1531478315591812
-0.5479653266178761, 0.5029048816727156, 0.1531478315591812
-0.5604475636189887, 0.41135172726038094, 0.1531478315591812
-0.4170648753631439, 0.49193220111369795, 0.1531478315591812
-0.4182999162396642, 0.4863580321172488, 0.1531478315591812
-0.2340209234018071, 0.4689695951788664, 0.1531478315591812
-0.4055981365909493, 0.40170334853924194, 0.1531478315591812
-0.41416535274100263, 0.4564405745896889, 0.1531478315591812
-0.6038614292664415, 0.47780876659398724, 0.1531478315591812
-0.39960253584561606, 0.41192146823810344, 0.1531478315591812
-0.3135400137317048, 0.4509020266563668, 0.1531478315591812
-0.6123067630003527, 0.44209752200350594, 0.1531478315591812
-0.5534826655543719, 0.4348572035728482, 0.1531478315591812
-0.06473297288491137, 0.2912973187167128, 0.15316910371634884
-0.2095686224962946, 0.4224728199840708, 0.1531478315591812
-0.4422823168848009, 0.33616289477430683, 0.1531478315591812
-0.15330854891442294, 0.3120276142479804, 0.1531478315591812
-0.20339113674158207, 0.42684512224252563, 0.1531478315591812
-0.02252761598929353, 0.3566245516459557, 0.1531478315591812
-0.19372803115532192, 0.34594303863011727, 0.1531478315591812
-0.059772874855054677, 0.4880560092980407, 0.15314783155918124
-0.2695974214646472, 0.33669838092248594, 0.1531478315591812
-0.29906327260570703, 0.3906623463742474, 0.1531478315591812
-0.01156883207479899, 0.49006197306482796, 0.1531478315591812
-0.3785420624865596, 0.36460530838794214, 0.1531478315591812
-0.11769641975814862, 0.3116645644694321, 0.1531478315591812
-0.34377674199934555, 0.38439712275391263, 0.1531478315591812
-0.12994419753705866, 0.3238317319820929, 0.1531478315591812
-0.3354548203963368, 0.29401753323263, 0.1531478315591812
-0.33237348963056557, 0.3246610921022494, 0.15314783155918119
-0.5450583425129527, 0.3016546510375498, 0.1531478315591812
-0.09733449615713233, 0.46527448154551765, 0.1531478315591812
-0.17219001718362692, 0.29775059474932286, 0.1531478315591812
-0.18162041221604894, 0.3801820709696894, 0.1531478315591812
-0.23111697751144236, 0.2993789028059085, 0.1531478315591812
-0.052494084974413636, 0.3256422136056415, 0.1531478315591812
-0.11158853801370061, 0.37506117992081667, 0.1531478315591812
-0.22580554259146043, 0.3514850227936669, 0.1531478315591812
-0.27221520102418034, 0.29175088153068046, 0.1531478315591812
-0.18240669555280195, 0.2995260602114104, 0.1531478315591812
-0.4584255227057501, 0.3561877607837888, 0.1531478315591812
-0.1882695905495623, 0.4294237813624128, 0.1531478315591812
-0.04668984157857195, 0.446404587815333, 0.1531478315591812
-0.3293637033220427, 0.39459973744842364, 0.1531478315591812
-0.024907122807343172, 0.3377294816122271, 0.1531478315591812
-0.35662691967960974, 0.378612153362517, 0.1531478315591812
-0.13684600560999427, 0.4370817810913747, 0.1531478315591812
-0.11254436398020609, 0.46224570588322467, 0.1531478315591812
-0.37703900715111954, 0.3194219754624667, 0.15314783155918119
-0.2767231163264166, 0.34692108769805946, 0.1531478315591812
-0.139633606184562, 0.35585673245654026, 0.1531478315591812
-0.30908680514874326, 0.38310871134877605, 0.1531478315591812
-0.26379296392667756, 0.40618511370568416, 0.1531478315591812
-0.14633285794053427, 0.35324611934145905, 0.1531478315591812
-0.12953909463964275, 0.40668275204331217, 0.1531478315591812
-0.10745181719096764, 0.2967674996776416, 0.1531478315591812
-0.08112531518380789, 0.36144903155638186, 0.1531478315591812
-0.15835357418054818, 0.3221668570388461, 0.1531478315591812
-0.03891648197825103, 0.36742703307287194, 0.1531478315591812
-0.12633264651026024, 0.435145523979548, 0.15314783155918124
-0.23735122197739628, 0.31419829828632817, 0.1531478315591812
-0.027298675774106242, 0.4007282813615328, 0.1531478315591812
-0.20209046131868225, 0.39499233839151726, 0.1531478315591812
-0.1876041345640911, 0.3898690452467485, 0.1531478315591812
-0.009637881070375443, 0.45832086682946876, 0.1647644784066632
-0.5415748942911157, 0.2900709807872772, 0.15555008665161016
-0.3005146311049853, 0.2900709807872772, 0.15586065211207772
-0.45346690307012066, 0.2900709807872772, 0.15722084550448107
-0.16170284721611444, 0.29062292047031985, 0.1662652699607223
-0.4880637244012591, 0.2900709807872772, 0.1610419935300154
-0.3202145172290461, 0.2900709807872772, 0.1613906702271144
-0.6507152915000916, 0.44049521281687326, 0.15803668040576885
-0.3477533285061989, 0.39683564193199433, 0.16658076643943787
-0.27746511316683664, 0.30999404107111567, 0.1665807664394379
-0.5808194531010143, 0.4600597894169334, 0.16658076643943787
-0.5001304727552682, 0.2999055561914149, 0.16658076643943787
-0.4500525831753788, 0.38383692288752663, 0.16658076643943787
-0.6371449877914612, 0.4552043067841503, 0.1665807664394379
-0.21128736132412543, 0.29954299865279155, 0.16658076643943787
-0.5828002996686661, 0.3533975108748204, 0.16658076643943787
-0.6249468605211539, 0.33537251131888657, 0.16658076643943787
-0.5680487143814789, 0.3942838565044566, 0.16658076643943787
-0.5905982801488842, 0.32171460073162106, 0.16658076643943784
-0.6188884007531874, 0.45386154361934006, 0.16658076643943784
-0.5163067319106901, 0.4464920954741407, 0.16658076643943787
-0.6113633007561456, 0.29851893270645424, 0.16658076643943787
-0.4898698681058949, 0.41594744719391685, 0.16658076643943787
-0.6055196049604631, 0.3434896646113611, 0.16658076643943787
-0.6279526885291037, 0.43721539759035843, 0.16658076643943787
-0.5155158418134567, 0.4003897916286808, 0.16658076643943787
-0.5538501165475137, 0.47291546792142036, 0.1665807664394379
-0.6269748070614412, 0.34612858291642273, 0.16658076643943787
-0.4536941042341421, 0.37937062456621884, 0.16658076643943787
-0.4928066375255292, 0.42977226958092085, 0.16658076643943787
-0.219541454678934, 0.3041119657265088, 0.16658076643943787
-0.2633457999289132, 0.3165744111758745, 0.16658076643943787
-0.5405847868369557, 0.43400062327705974, 0.16658076643943787
-0.35028326693497, 0.29211376019332125, 0.16658076643943787
-0.25422367758114145, 0.30325958974523737, 0.16658076643943787
-0.5586995081630911, 0.31667172198498617, 0.16658076643943787
-0.21890925992864532, 0.30810527058603804, 0.16658076643943787
-0.6341928716900906, 0.47466574208577267, 0.16658076643943787
-0.49931815904366306, 0.4058138381149362, 0.16658076643943787
-0.4752339205414383, 0.406161969435909, 0.16658076643943787
-0.2344114337715785, 0.34907165015631064, 0.16658076643943784
-0.18372621563933222, 0.2988035345771743, 0.16658076643943784
-0.40645673589473286, 0.34192189170664183, 0.16658076643943787
-0.3033136455981328, 0.3873687422346214, 0.16658076643943787
-0.6178278521811191, 0.4683318493230906, 0.16658076643943787
-0.48897374937579713, 0.29751699991409875, 0.16658076643943787
-0.5465862817484439, 0.34199458014805884, 0.16658076643943787
-0.4135824153853107, 0.4238870290938059, 0.16658076643943787
-0.23638788854537418, 0.3416676950502887, 0.16658076643943787
-0.4958251840312773, 0.3054194988080935, 0.16658076643943787
-0.6319570837302826, 0.42534203504567686, 0.16658076643943787
-0.542978352730262, 0.4106859420387629, 0.16658076643943787
-0.2350505889051235, 0.3166491477205565, 0.16658076643943787
-0.618297176683704, 0.45358892067968387, 0.16658076643943787
-0.4105747676442967, 0.3315942950899623, 0.16658076643943787
-0.06594445521503862, 0.30418251792022605, 0.16658076643943787
-0.5641933264192257, 0.4336780332051787, 0.16658076643943784
-0.6003486178337667, 0.38600073930950707, 0.16658076643943787
-0.18533713743483313, 0.5108070969581604, 0.1608998371066906
-0.25313240314908525, 0.5108070969581604, 0.16339738826396993
-0.11626007127199477, 0.5108070969581604, 0.16003441919006786
-0.45011318221197727, 0.29132179741868325, 0.1665701754423256
-0.1257097663969245, 0.44762508207403195, 0.16658076643943787
-0.021257866862887394, 0.48480144415217186, 0.16658076643943787
-0.2576941872960455, 0.42657749156076885, 0.16658076643943787
-0.023763924475669145, 0.4383284111823724, 0.16658076643943787
-0.0518518804735853, 0.4828259624314607, 0.16658076643943787
-0.24963291568363782, 0.4434851912719231, 0.16658076643943787
-0.22037162937272553, 0.4281206052947838, 0.16658076643943787
-0.07165202940417593, 0.49390305423636527, 0.16658076643943787
-0.04957184571836942, 0.36707708161423996, 0.16658076643943787
-0.1708789972510845, 0.41496936236758564, 0.16658076643943787
-0.02534654401622812, 0.3174778939695364, 0.16658076643943787
-0.034062182560214684, 0.39923699246231903, 0.16658076643943787
-0.1608247384908704, 0.48356478411320986, 0.16658076643943787
-0.5363866813096343, 0.48746680754306115, 0.16658076643943787
-0.18658408660416345, 0.369804339861279, 0.16658076643943787
-0.3599048069399128, 0.48627002698020916, 0.16658076643943787
-0.07970962302270843, 0.34898822399418034, 0.16658076643943784
-0.526836675533116, 0.4881942618586798, 0.16658076643943787
-0.3540440564507485, 0.5065604712257773, 0.16658076643943787
-0.20875033346265578, 0.4585544701719999, 0.16658076643943787
-0.1363534482619051, 0.47134780227325235, 0.16658076643943787
-0.21227222323630762, 0.4818509188687653, 0.16658076643943787
-0.35608453296482073, 0.4422078813142104, 0.16658076643943787
-0.24127049339860845, 0.4891083206187236, 0.16658076643943787
-0.09141233128073797, 0.43567169954411583, 0.16658076643943787
-0.3801090903874002, 0.5028894961400552, 0.16658076643943787
-0.11190511946031616, 0.4298679827432344, 0.16658076643943787
-0.057717244639957456, 0.42780645090794794, 0.16658076643943787
-0.3250711562792434, 0.4548342719699464, 0.16658076643943787
-0.466162389102437, 0.46381734429932386, 0.16658076643943784
-0.27701956483441, 0.478634351177171, 0.16658076643943787
-0.15319961729785572, 0.34171537264653706, 0.16658076643943787
-0.5043007541642567, 0.48260872416598394, 0.16658076643943787
-0.14532065656354523, 0.4878487997941876, 0.16658076643943787
-0.05851766828509571, 0.31466330756650174, 0.16658076643943787
-0.06054694193405926, 0.395910373300451, 0.16658076643943787
-0.22978766765046132, 0.42816610479606776, 0.16658076643943787
-0.5223267416515288, 0.4817209771849061, 0.16658076643943787
-0.10898287627579825, 0.4616850820154591, 0.16658076643943787
-0.01920061308517387, 0.4477140553807506, 0.16658076643943787
-0.24089885704844352, 0.4602840058817813, 0.16658076643943787
-0.34272941737208057, 0.42428735782212634, 0.1665807664394379
-0.3008062409528191, 0.463073125396283, 0.16658076643943787
-0.37026841354628914, 0.4587049223084062, 0.16658076643943787
-0.13392000745152383, 0.4856659324038285, 0.16658076643943787
-0.10506168605196685, 0.33267285761420695, 0.16658076643943787
-0.07467234641026889, 0.42715587364046104, 0.16658076643943787
-0.32118072147554694, 0.46373789091353423, 0.16658076643943787
-0.10165538856761676, 0.3630612192516917, 0.16658076643943787
-0.45474591899960465, 0.4741609982537989, 0.16658076643943787
-0.632798606241257, 0.5105975155786686, 0.16577031622993832
-0.6507152915000916, 0.3620787088061027, 0.16067750358828267
-0.18512913410098714, 0.5108070969581604, 0.15530786155523216
-0.27472522119623843, 0.5108070969581604, 0.15869226257711738
-0.5928424332757303, 0.5104401111556448, 0.15355823414010208
-0.37651716067459884, 0.24824204308572018, 0.1531478315591812
-0.3882310976743211, 0.26451987749849015, 0.1531478315591812
-0.13342165137105266, 0.25792093539713346, 0.1531478315591812
-0.4175621232155794, 0.1659166160696064, 0.1531478315591812
-0.15371060865229663, 0.24215459033634484, 0.1531478315591812
-0.2734398697180513, 0.2533065208976732, 0.1531478315591812
-0.5605034965016606, 0.12693722806217128, 0.15314783155918124
-0.2002521197453721, 0.23547810448610665, 0.1531478315591812
-0.6468738730320238, 0.11937886177617016, 0.1531478315591812
-0.4595374162215441, 0.2841568026589688, 0.1531478315591812
-0.5373466325700957, 0.15399707328701284, 0.1531478315591812
-0.64164430195222, 0.28222463075463333, 0.1531478315591812
-0.44179513894573413, 0.23360658423907538, 0.1531478315591812
-0.5925806242225372, 0.20415872499619575, 0.1531478315591812
-0.1709520749860044, 0.2777215918532118, 0.1531478315591812
-0.4976203210744296, 0.12983285494363594, 0.1531478315591812
-0.12724511653946843, 0.28111901312525134, 0.1531478315591812
-0.06175132221475962, 0.2831974967384575, 0.1531478315591812
-0.2624671168194539, 0.20171575398528316, 0.15314783155918124
-0.6019363036271561, 0.2847932564020819, 0.15314783155918119
-0.519004584130578, 0.14936973253912167, 0.1531478315591812
-0.5277009579307309, 0.21905480493286436, 0.1531478315591812
-0.15038843388949252, 0.2666412833478744, 0.15314783155918124
-0.5211388880125823, 0.1570531190311602, 0.1531478315591812
-0.17952655479305824, 0.2724207637762634, 0.1531478315591812
-0.40101860081784546, 0.215012323542561, 0.1531478315591812
-0.4978314002079608, 0.20752070979098164, 0.1531478315591812
-0.0742132683660214, 0.2793690256358511, 0.1531478315591812
-0.4291621140061552, 0.2052753774892885, 0.1531478315591812
-0.46889994902624865, 0.16559859649327846, 0.1531478315591812
-0.5468605826254309, 0.19353402047976337, 0.1531478315591812
-0.19665080416120723, 0.2804942406368911, 0.1531478315591812
-0.5661828664865752, 0.260036742276977, 0.1531478315591812
-0.4449134842163641, 0.23555371443292406, 0.1531478315591812
-0.4128742532908125, 0.27404017680621195, 0.1531478315591812
-0.2709542804567845, 0.26780316761492445, 0.1531478315591812
-0.42251623945123995, 0.21905959408089085, 0.1531478315591812
-0.6314644407557727, 0.14329684602775006, 0.1531478315591812
-0.2502558615537077, 0.22541536385611513, 0.1531478315591812
-0.48946335353396775, 0.25663811736040154, 0.1531478315591812
-0.22466788812448757, 0.2701343311644149, 0.1531478315591812
-0.36936923417899614, 0.27137813038478764, 0.1531478315591812
-0.5940349874459605, 0.19463748723006827, 0.1531478315591812
-0.647645790920365, 0.18862819568754496, 0.1531478315591812
-0.4396619588357068, 0.23027482775067515, 0.1531478315591812
-0.4509239668054166, 0.26354478209947896, 0.1531478315591812
-0.2613948005509137, 0.2571821630469836, 0.1531478315591812
-0.26730458128990453, 0.2225963948462114, 0.1531478315591812
-0.44912061012953514, 0.22105924659097537, 0.1531478315591812
-0.33246279322054356, 0.2595322651403507, 0.1531478315591812
-0.37582200757471956, 0.06734060753915028, 0.15340129256672375
-0.3887124453359536, 0.13433733289943486, 0.1531478315591812
-0.055261918979696824, 0.2227518687991922, 0.1531478315591812
-0.12287197464170804, 0.1114001223693203, 0.1531478315591812
-0.0917760351156528, 0.18241607849106892, 0.1531478315591812
-0.27234048719153947, 0.07361283045015815, 0.1531478315591812
-0.2748866958535557, 0.19284941701580693, 0.1531478315591812
-0.27376016301292333, 0.1361497587196181, 0.1531478315591812
-0.46132382091695023, 0.09218044340907763, 0.1531478315591812
-0.3749510607620364, 0.11244492791989406, 0.1531478315591812
-0.1983755487949, 0.13945763538656208, 0.1531478315591812
-0.04241185976472437, 0.131978693108576, 0.1531478315591812
-0.26124344105380914, 0.10042641195174565, 0.1531478315591812
-0.27594176006228727, 0.09146133931738959, 0.1531478315591812
-0.044038791717677765, 0.25869320094167225, 0.1531478315591812
-0.11890059888984153, 0.23470673314020782, 0.1531478315591812
-0.31918480905391006, 0.16076960977451463, 0.1531478315591812
-0.08734028777422642, 0.17975128129976836, 0.1531478315591812
-0.2637868516406377, 0.17337310591369892, 0.1531478315591812
-0.26877086441812836, 0.1888554485175356, 0.15314783155918119
-0.18474614569769102, 0.1985831819697696, 0.1531478315591812
-0.39943010693537573, 0.15251198412670977, 0.1531478315591812
-0.45515093006793056, 0.11880370352470816, 0.1531478315591812
-0.30650490716206924, 0.16785857081224126, 0.1531478315591812
-0.18483802307190908, 0.08304988711336803, 0.1531478315591812
-0.1851235863032561, 0.09607149148908098, 0.1531478315591812
-0.16446859394048333, 0.12432778180765584, 0.1531478315591812
-0.31131961420931586, 0.1638651076898543, 0.1531478315591812
-0.40030506063423604, 0.0807340622999588, 0.1531478315591812
-0.03677377126621235, 0.10654357265096961, 0.1531478315591812
-0.42470770575593525, 0.1386968281758179, 0.1531478315591812
-0.3080691570100257, 0.1384147938898822, 0.1531478315591812
-0.11514163836110235, 0.1194123054881876, 0.1531478315591812
-0.32339742265644156, 0.08309865758918775, 0.1531478315591812
-0.03824135216306434, 0.2533653189198287, 0.1531478315591812
-0.19950839046762223, 0.17502210292419237, 0.1531478315591812
-0.05804463985501801, 0.14300076736847753, 0.1531478315591812
-0.3698064560494381, 0.08254413758324243, 0.1531478315591812
-0.42134669424680066, 0.11903464001032131, 0.1531478315591812
-0.16447714633287222, 0.15801198142544556, 0.1531478315591812
-0.1858145972496205, 0.12017075588500031, 0.1531478315591812
-0.06861197019643676, 0.1512264113059118, 0.1531478315591812
-0.40007130684397635, 0.11274863261566193, 0.1531478315591812
-0.011560003738720868, 0.08204210954798649, 0.1531478315591812
-0.2904061774156644, 0.09939713321359042, 0.1531478315591812
-0.4280133746293941, 0.10493362165383256, 0.1531478315591812
-0.030841867824527695, 0.12014497105211427, 0.1531478315591812
-0.2351620229637068, 0.17834607392570762, 0.1531478315591812
-0.44083439335851526, 0.0782493092254185, 0.1531478315591812
-0.3037969076761306, 0.17345545707256943, 0.1531478315591812
-0.016365711751116285, 0.14355022863622005, 0.1531478315591812
-0.009637881070375443, 0.21247099122598456, 0.16511765232929537
-0.18921639809831436, 0.06664641946554184, 0.15679253844555135
-0.40978907795291414, 0.06664641946554184, 0.15590137662944242
-0.07361253200982508, 0.06664641946554184, 0.15628898665281296
-0.3454733190622157, 0.06678638879246526, 0.16559365212158075
-0.5773423143481314, 0.06664641946554184, 0.15844010812234535
-0.5287922415310372, 0.06664641946554185, 0.1570789507522843
-0.6507152915000917, 0.2856541001450654, 0.16503622227900694
-0.4556348348313229, 0.15225319418959826, 0.16658076643943787
-0.38141918101143096, 0.14379723841712733, 0.16658076643943787
-0.49327136116995324, 0.11859279535211403, 0.16658076643943787
-0.5032748116508233, 0.0942680460496892, 0.16658076643943787
-0.5410996655772022, 0.22245042368333362, 0.1665807664394379
-0.6176362255290401, 0.1956314612568054, 0.16658076643943787
-0.33667314405263415, 0.12076809747015257, 0.16658076643943787
-0.31985514625203465, 0.16488079389218024, 0.1665807664394379
-0.4576136494804368, 0.12796585161251972, 0.16658076643943787
-0.5380460608435407, 0.1384380980356428, 0.16658076643943787
-0.5336206097105982, 0.12089125094441397, 0.16658076643943787
-0.4582704408205494, 0.09327714405514059, 0.16658076643943787
-0.446175619090007, 0.07464549490980035, 0.16658076643943787
-0.535427620939481, 0.10787147001693527, 0.16658076643943787
-0.24106592372344784, 0.06826331308949812, 0.16658076643943787
-0.4064264335073841, 0.17875930613935526, 0.16658076643943787
-0.5858099907946901, 0.2524315216773812, 0.16658076643943787
-0.4850655489472833, 0.0908584922773806, 0.16658076643943787
-0.5468018846999972, 0.17217956855491395, 0.16658076643943787
-0.5287589510686326, 0.07243782699187085, 0.16658076643943787
-0.5152469824156267, 0.19503945103764267, 0.16658076643943787
-0.591205994395437, 0.1273714963572547, 0.1665807664394379
-0.15419405821442797, 0.10881811304977183, 0.16658076643943787
-0.5848839238164529, 0.16894086540877734, 0.16658076643943787
-0.5081714084023113, 0.2298767968568862, 0.16658076643943787
-0.3884336018237327, 0.07522408800302108, 0.16658076643943787
-0.5629871803672066, 0.10140436505716947, 0.16658076643943787
-0.4472723573885353, 0.16683631926139708, 0.16658076643943787
-0.6238417711066843, 0.07261411524404003, 0.16658076643943787
-0.6435836235669847, 0.19643936187504268, 0.16658076643943787
-0.2456104587566818, 0.1463827004097185, 0.16658076643943787
-0.533315750600347, 0.24334464543484358, 0.16658076643943787
-0.5714035641554333, 0.259337065279766, 0.1665807664394379
-0.5987281144100283, 0.08863345078174531, 0.16658076643943787
-0.2585159664810962, 0.15029599189811907, 0.16658076643943787
-0.5786928128154093, 0.07635213213123926, 0.16658076643943787
-0.6274862919409506, 0.20176887252458844, 0.16658076643943787
-0.5817001030576436, 0.11906181892921172, 0.16658076643943787
-0.6082173302524567, 0.12261866037318961, 0.16658076643943787
-0.5057440237939277, 0.10417385635902013, 0.16658076643943787
-0.274061879787146, 0.10207312604173793, 0.16658076643943787
-0.30649411141768745, 0.13198710910537717, 0.16658076643943787
-0.6331296474335336, 0.10131971477048651, 0.16658076643943787
-0.45203552962079546, 0.20918688019236206, 0.16658076643943787
-0.18237344645700881, 0.07179923869950468, 0.16658076643943787
-0.09201632681693268, 0.07656937697589843, 0.16658076643943784
-0.6399949152711499, 0.07145434618091233, 0.16658076643943787
-0.5705607990747458, 0.20149924354037269, 0.16658076643943787
-0.15174748220044462, 0.07178932690350118, 0.16658076643943787
-0.4905581033468801, 0.19823054094763193, 0.16658076643943787
-0.024715968835177352, 0.287382572889328, 0.15487865820642177
-0.20723850072683814, 0.287382572889328, 0.16461569202584997
-0.311004977451729, 0.287382572889328, 0.1629562087810954
-0.6499294684559389, 0.15616280230462268, 0.16636847309592842
-0.03180406730401904, 0.16097142072766518, 0.16658076643943787
-0.3141458626792259, 0.1769691665546714, 0.16658076643943787
-0.023451046166790068, 0.24020842386142538, 0.16658076643943787
-0.476759537798518, 0.24197665217238756, 0.16658076643943787
-0.2450055820703208, 0.20908112139306922, 0.16658076643943787
-0.23312753220162122, 0.16097919769628574, 0.16658076643943787
-0.010759507168235044, 0.1561384491117117, 0.16658076643943787
-0.44065445752162985, 0.25286618787934545, 0.16658076643943787
-0.1275639111822685, 0.18578844905760766, 0.16658076643943787
-0.5719664208920245, 0.2612781769153875, 0.16658076643943787
-0.16286847697783852, 0.27327646237363035, 0.16658076643943787
-0.22414034750747966, 0.2599630825427295, 0.16658076643943787
-0.3444070159022871, 0.2581796172583427, 0.16658076643943787
-0.25154837407116193, 0.1971729427692615, 0.16658076643943787
-0.029868712831397016, 0.19592374309863184, 0.16658076643943787
-0.17463020241774743, 0.16812145781356763, 0.1665807664394379
-0.2988362493199701, 0.26002224776683475, 0.16658076643943787
-0.11924541626210844, 0.26594747383970846, 0.16658076643943787
-0.16537046102170608, 0.17379773217526023, 0.16658076643943787
-0.5838292275021916, 0.2770789022335041, 0.16658076643943784
-0.02500438887767701, 0.24475630649606592, 0.16658076643943787
-0.03997847930255625, 0.17239769281419778, 0.16658076643943787
-0.20001855699579402, 0.2288348352068483, 0.16658076643943787
-0.039426156635040926, 0.14405732057538292, 0.16658076643943787
-0.1935735278635435, 0.19867986464172932, 0.16658076643943787
-0.1747574417996686, 0.12789682159877944, 0.16658076643943787
-0.06818529561631982, 0.11055299765396351, 0.16658076643943787
-0.13467521967230292, 0.11344995715382666, 0.16658076643943787
-0.2222447388541963, 0.1437656611555494, 0.1665807664394379
-0.06258600921814936, 0.2134074766856417, 0.16658076643943787
-0.08323887395426548, 0.19148072444625677, 0.16658076643943787
-0.1583270512624033, 0.12655760321736773, 0.16658076643943787
-0.2769551896482506, 0.1948558552674913, 0.16658076643943787
-0.3582911375056976, 0.19714618281107127, 0.16658076643943784
-0.06858881564054249, 0.2826208157278831, 0.16658076643943787
-0.05999956812736284, 0.26549258866913494, 0.16658076643943787
-0.392227434137491, 0.23982539739126169, 0.16658076643943787
-0.4538778175055577, 0.23524624435634992, 0.16658076643943787
-0.4653348767386466, 0.2433936195591634, 0.16658076643943787
-0.13657346358109462, 0.12860802222324752, 0.16658076643943787
-0.10850766395388017, 0.28178959593800135, 0.16658076643943787
-0.34585384196356445, 0.21651387216135728, 0.16658076643943787
-0.4905738347126406, 0.2854219462751778, 0.16658076643943787
-0.1606296479881888, 0.2303268453680617, 0.16658076643943787
-0.4853912986922395, 0.2642151565013716, 0.16658076643943787
-0.26338328709125586, 0.15519783153437544, 0.16658076643943787
-0.2743907008686664, 0.2642960823139925, 0.16658076643943787
-0.16438473837388404, 0.1750139500356857, 0.16658076643943787
-0.11788064688266787, 0.19500931962755175, 0.16658076643943787
-0.19884872179538512, 0.2641072135881328, 0.16658076643943787
-0.5463943140976245, 0.28709845188546806, 0.1659597169838745
-0.6507152915000916, 0.17115330482512858, 0.1630273789497834
-0.63687114735354, 0.287382572889328, 0.15704698201227146
-0.6104669622489592, 0.287382572889328, 0.1577234480042699
-0.1673348665959087, 0.2870769853278077, 0.15371434790429242
-0.040156615422034705, 0.7478080275024784, -0.196822926402092
-0.5853367504605511, 0.7491620406740068, -0.19682292640209198
-0.49702474057841817, 0.75080412494219, -0.19682292640209198
-0.2019900761628624, 0.7528625886256182, -0.19682292640209198
-0.5671250935690534, 0.7512685501302221, -0.19682292640209198
-0.01883500716999359, 0.7525000845501602, -0.19682292640209198
-0.1761080679477537, 0.7472193422330234, -0.19682292640209198
0.39752879913704514, 0.7531253506101253, -0.19682292640209198
0.4661209293392268, 0.7422174563769044, -0.19682292640209198
0.5252579392477332, 0.7434819312579326, -0.19682292640209198
-0.5785790607794526, 0.7392327321360567, -0.19682292640209198
-0.23993010767844958, 0.7404534564552652, -0.19682292640209198
0.21488414008084805, 0.7410911857962084, -0.19682292640209198
0.5534771403533282, 0.7390554658641012, -0.19682292640209198
-0.02660303558177149, 0.7416929147918716, -0.19682292640209195
0.5302391273918607, 0.7446610280090205, -0.19682292640209198
0.6785286664962769, 0.7443470853905076, -0.1818601508555049
0.6785286664962769, 0.742696656238121, 0.02167834052807405
0.23407992127690694, 0.754677951335907, 0.0837459209868042
-0.5127763080446865, 0.754677951335907, 0.1664182807554221
0.3313200516200071, 0.754677951335907, 0.021620623153894673
0.652222531199729, 0.754677951335907, -0.0039747033300423645
0.09987304827890003, 0.754677951335907, 0.049996730896249966
0.4518192938275604, 0.754677951335907, 0.11269463996914357
-0.2985214314782565, 0.754677951335907, 0.14469797858025235
0.570889298335918, 0.754677951335907, 0.02863549754668688
0.6112554211107697, 0.754677951335907, 0.11102593953741982
-0.3273534248589373, 0.7546779513359069, 0.10282355064917356
0.15177102995556585, 0.754677951335907, 0.05983609840484957
0.6213470208921246, 0.754677951335907, -0.07364346896028856
-0.13419936782142144, 0.7546779513359069, 0.026614754338119197
0.6551060947186331, 0.754677951335907, 0.057529509151164386
0.12862652242996092, 0.7546779513359071, 0.023202611691465917
0.15843341479280126, 0.754677951335907, 0.07861499927235832
0.48631738497097504, 0.754677951335907, 0.05101033104575349
0.49042536846647833, 0.754677951335907, 0.10940963961404832
-0.5014206424501118, 0.7546779513359069, 0.1548572296895079
0.12431487809350569, 0.754677951335907, 0.04375082742499089
0.6482152494281195, 0.754677951335907, 0.10611945694739759
0.2313702721320051, 0.754677951335907, 0.035237651977918026
-0.054495780637596025, 0.754677951335907, 0.12483097263170595
0.09152803764661593, 0.754677951335907, 0.1460140176017433
0.027419936239643075, 0.754677951335907, 0.01383879881175749
0.03807871209485039, 0.754677951335907, 0.10065319026720632
-0.14057754378291923, 0.754677951335907, 0.1208876006114418
-0.6448744899511876, 0.754677951335907, 0.16533059286337323
-0.06675242252947601, 0.754677951335907, 0.01360609295809953
0.28552818737181884, 0.754677951335907, 0.11457385810734635
0.4157099750682518, 0.7546779513359071, -0.1256476990753595
0.10511775928733097, 0.754677951335907, 0.05868318091824162
0.49893146073115324, 0.754677951335907, 0.12136491693071311
0.3705495698694291, 0.754677951335907, 0.16283611942516263
0.591080443206387, 0.754677951335907, 0.04610788645832781
0.4838259703550844, 0.754677951335907, 0.13254816047844759
0.4564429561756977, 0.7546779513359069, -0.11756208719636399
-0.3112570813437787, 0.754677951335907, 0.14110628052583735
0.5835408976245023, 0.754677951335907, 0.08507578081234937
0.05781850270322464, 0.754677951335907, 0.13627725461319523
0.39416310218631584, 0.754677951335907, 0.06933876598874655
-0.007867711128739421, 0.754677951335907, 0.02698890503572041
0.6385859014765092, 0.7546779513359069, 0.13186564519288413
-0.2925180435483131, 0.754677951335907, 0.15493665787695649
0.5213390450132768, 0.754677951335907, 0.12269264474469024
-0.15675517243684964, 0.754677951335907, 0.1555348133089474
0.5311959109883228, 0.754677951335907, -0.02001518262189532
0.016677111473715214, 0.754677951335907, 0.03306922055560435
0.2091350285257912, 0.754677951335907, -0.007910100597425345
0.49951388482515957, 0.754677951335907, -0.037737814110084145
0.15351433539254014, 0.754677951335907, 0.10828650283304588
-0.16391959856321703, 0.754677951335907, 0.060365916894947254
0.04495293958274951, 0.754677951335907, 0.08424610588292922
0.1641320484048783, 0.754677951335907, 0.136766873169874
0.480043820858223, 0.754677951335907, 0.1228757106924512
0.0045302352024433334, 0.754677951335907, 0.12506286405556105
-0.4912018396470326, 0.754677951335907, 0.14868082175636857
0.5909562767951448, 0.754677951335907, 0.05427275062782509
0.5780416923043776, 0.754677951335907, -0.13335363391610697
0.44905334115864143, 0.754677951335907, 0.06582635453762045
-0.07391731101142951, 0.754677951335907, 0.08361332704867432
0.2902537493443814, 0.754677951335907, -0.024766744885765572
0.6003856314526526, 0.754677951335907, -0.08303321980627315
0.4938901799009257, 0.7546779513359069, -0.14406370943641061
-0.21165867194568624, 0.754677951335907, 0.13045561030066796
-0.6576339030663259, 0.7546779513359069, 0.16051035403803823
0.5543312865603814, 0.754677951335907, 0.15555982945788474
0.09202219816152049, 0.754677951335907, 0.13382000507793904
0.0987350904399189, 0.754677951335907, 0.10158902169410858
0.3289619185717232, 0.754677951335907, 0.05779910667893921
0.1767387937068408, 0.754677951335907, 0.05494439439722342
0.20167199321563567, 0.754677951335907, -0.02360514534961712
0.3628320811440232, 0.754677951335907, -0.04733694233051364
-0.04797706388071223, 0.754677951335907, 0.030221744613958046
0.41925416987919967, 0.754677951335907, -0.03765969185862024
0.37713802049801803, 0.7546779513359069, 0.07458648215404148
0.5817538299747543, 0.754677951335907, -0.08492359166008465
0.15373391568046602, 0.754677951335907, 0.1278415901773767
0.4866568391473046, 0.754677951335907, 0.039498287361889456
0.1555990831597952, 0.754677951335907, 0.10760376499161797
-0.12740531123769144, 0.754677951335907, 0.13826561821851818
0.5079285953129445, 0.7546779513359069, -0.12262542394243381
0.07445614183610555, 0.7546779513359071, -0.011360831434935693
-0.35869698584291193, 0.754677951335907, 0.11002799537531445
-0.0017746130027377627, 0.754677951335907, 0.003628646850260292
-0.1392703950556938, 0.7546779513359069, 0.03670895112734956
0.6366849755719549, 0.754677951335907, 0.13086605833886833
0.4717716839858155, 0.754677951335907, -0.14118649720500046
0.14979959576277574, 0.754677951335907, 0.0034295700369949486
0.04374352388774552, 0.7546779513359069, 0.048000315350007976
-0.3836131746412766, 0.754677951335907, 0.09350583243454691
0.05276054003114633, 0.754677951335907, -0.017643562161714626
0.4816752640081273, 0.754677951335907, 0.1459683711987723
0.5887316840472432, 0.754677951335907, 0.16209967983317952
0.31513873214808324, 0.7546779513359069, -0.03962528797863611
0.5174087322620273, 0.754677951335907, -0.010431969668704646
0.09389221512768128, 0.754677951335907, 0.040651160297966046
0.33667205911525, 0.754677951335907, -0.00585953843365903
0.13206198552827153, 0.754677951335907, 0.14796848513461908
0.36327810806548644, 0.754677951335907, -0.06715542009393954
0.14112383608149387, 0.754677951335907, -0.003078977367999388
0.527384466273696, 0.754677951335907, 0.059511819545689064
0.42382885637783496, 0.754677951335907, 0.04765141657048702
0.5417527618273288, 0.754677951335907, -0.003798619495668565
0.5758375144394496, 0.754677951335907, -0.021364401699595692
0.2794519142429673, 0.754677951335907, 0.00018013776882036536
0.6512556252833859, 0.754677951335907, -0.011693518884920082
0.28676164581467556, 0.754677951335907, 0.13179311484823017
-0.015140503671922517, 0.754677951335907, 0.05952053137377889
0.4568847367774127, 0.754677951335907, 0.06191002166426267
0.451589443394867, 0.754677951335907, -0.06984174558343642
-0.15092666897876889, 0.754677951335907, 0.15676449934647935
-0.26078445681745327, 0.754677951335907, 0.12391915590684517
0.08227136014575892, 0.754677951335907, 0.061049248849698985
0.37532677568521555, 0.754677951335907, -0.03224746320979613
0.6511774523911736, 0.7546779513359069, -0.09296057257351417
0.06841688602476714, 0.754677951335907, 0.14375528777258095
-0.43031821704185647, 0.754677951335907, 0.10470087336002538
0.3677082232498467, 0.754677951335907, -0.02396885388143525
0.4875143345311245, 0.754677951335907, 0.15470989626138698
-0.035417222336332654, 0.754677951335907, 0.04228749589403524
0.14546563655010072, 0.754677951335907, 0.06721353317417936
0.46240308442407574, 0.754677951335907, -0.04690318218496847
0.18462199379368474, 0.754677951335907, 0.014390659343901685
-0.41792405548257605, 0.754677951335907, 0.15865205048098072
-0.346971714648025, 0.7546779513359071, 0.12540427348491529
0.06763651707424206, 0.754677951335907, 0.16068634382962355
0.6153738404777247, 0.754677951335907, 0.06812759306312499
0.5379425832955119, 0.754677951335907, -0.1385549693654407
-0.1622489128406623, 0.754677951335907, 0.1486652111226358
-0.188694733936494, 0.754677951335907, 0.12111822624622813
0.3143031716422884, 0.754677951335907, 0.15474439708012527
0.34437062205952673, 0.754677951335907, -0.005240460132403514
-0.3715712465839867, 0.754677951335907, 0.11548086950439013
0.39726808092599336, 0.754677951335907, -0.0482305789947081
-0.5101475516717957, 0.7546779513359069, 0.13189806775350368
-0.4013055154899031, 0.754677951335907, 0.14769857124410424
0.18819449292350865, 0.754677951335907, 0.12157153571048623
-0.0568524031110004, 0.754677951335907, 0.06394413653165981
0.4873356463192457, 0.754677951335907, -0.13008909130279983
0.355924536916233, 0.754677951335907, 0.14868114527220833
0.38911106076378604, 0.754677951335907, 0.14616488053590881
0.451998142158177, 0.754677951335907, -0.10269978329372127
0.23463654839500378, 0.754677951335907, 0.01158757576973643
0.49780029061253284, 0.754677951335907, -0.05035183591614292
0.597175095069175, 0.754677951335907, -0.1714440862871176
-0.07762038766828541, 0.754677951335907, 0.08287613629711428
0.22434332265752807, 0.754677951335907, 0.06575945774003533
-0.06633692717152179, 0.754677951335907, 0.13821409386290778
0.35368234244493346, 0.7546779513359069, -0.08453775858794008
-0.07692585886978559, 0.754677951335907, 0.15423835320717308
0.6178337498732233, 0.754677951335907, -0.04574034004318812
0.34281415019481964, 0.754677951335907, 0.004519959661421866
-0.35307223201411164, 0.754677951335907, 0.1510836614421079
0.3603401331773688, 0.754677951335907, 0.08208419768872255
0.098365914725326, 0.754677951335907, -0.0371741400679799
-0.1311629092468251, 0.754677951335907, 0.14249899232907384
0.04439953811084622, 0.754677951335907, 0.013280693829606234
0.5588081396554632, 0.754677951335907, 0.06121106276127206
-0.23155749776274073, 0.754677951335907, 0.0745378472328642
0.28290344708078924, 0.7546779513359069, 0.1217794400655567
0.33503175263726837, 0.7546779513359071, 0.11882179254014527
0.40929182992780255, 0.754677951335907, -0.027574039806950203
0.6725891398322226, 0.754677951335907, 0.07361361664419377
0.4803535920707161, 0.754677951335907, -0.1409313692527912
