-0.1410474572785946, 0.04684070497751236, 0.1002044039847785
-0.15027429326013003, 0.04684070497751236, -0.031661554084988344
-0.22763405815768412, 0.04684070497751236, 0.10327565455523778
0.05511283753958393, 0.04684070497751236, 0.1550056586132928
0.16532919997030893, 0.04684070497751236, 0.1637507929743602
0.10930774151286811, 0.04684070497751236, 0.1654293607344609
0.30976083058494014, 0.04684070497751236, 0.16992410727425222
-0.09989385109649165, 0.04684070497751236, 0.1598746170926137
-0.13275140966490848, 0.04684070497751236, 0.07928752969007014
0.007290742587230087, 0.04684070497751237, 0.06626710679712444
-0.22523007403418435, 0.04684070497751236, 0.16550387765243174
-0.1384535589867872, 0.04684070497751236, 0.05370830363024093
-0.324964061688086, 0.04684070497751235, -0.15594367947275573
-0.04522685511279684, 0.04684070497751235, -0.010696887480639366
-0.250682603154928, 0.04684070497751236, 0.10366222991054047
0.1424876825811675, 0.04684070497751235, 0.10278778114080978
-0.1572060889756443, 0.04684070497751236, 0.12497579806390911
-0.14487118217867198, 0.04684070497751236, 0.01857635511749396
0.04083958246035039, 0.04684070497751236, 0.01892090427363146
-0.3029237722501379, 0.04684070497751236, 0.05309104721843348
-0.049365656465794175, 0.04684070497751236, 0.06010933765328844
-0.12253191070515222, 0.04684070497751236, 0.003732034912360613
-0.2538416110500744, 0.04684070497751236, -0.06728685275539889
-0.24479281183892881, 0.04684070497751236, -0.040112905656837866
-0.1344533755807877, 0.04684070497751236, 0.07995564066542721
-0.2484976289779499, 0.04684070497751236, 0.06486444002653834
-0.036661819784129066, 0.04684070497751236, 0.08974660092879236
-0.08795724158132548, 0.04684070497751236, -0.02285592916210009
-0.22671107275854246, 0.04684070497751236, 0.0007207094720771551
-0.041881794801746114, 0.04684070497751236, 0.06432815081883261
-0.12541614878265211, 0.04684070497751236, 0.12925637337940168
-0.16497113958121612, 0.04684070497751236, 0.13859924910965077
0.1455994159998203, 0.04684070497751236, 0.1018760741344711
-0.29745211808323785, 0.04684070497751236, 0.021325038448499423
-0.20199932656501776, 0.04684070497751236, 0.0372772753712385
-0.2660411184915596, 0.04684070497751236, 0.16175257900550472
-0.31100489848864693, 0.04684070497751237, -0.18284918867916763
-0.16770366113790347, 0.04684070497751236, -0.04238765723850757
-0.1592017467771049, 0.04684070497751236, -0.060313328271501813
-0.21220206984619475, 0.04684070497751236, -0.045475004376224995
0.0241033965494906, 0.04684070497751237, 0.01109642609191936
0.14390621135161075, 0.04684070497751235, 0.1047737559104194
-0.27137743657751195, 0.04684070497751235, -0.1424669553739056
-0.13368076314846594, 0.04684070497751236, 0.04622727027240129
-0.23576227971548974, 0.04684070497751236, 0.10130343716553537
-0.19234959528251877, 0.04684070497751236, 0.076204190907508
-0.05076105728888422, 0.04684070497751236, 0.051785105517518686
-0.31781349274813464, 0.04684070497751236, -0.017184501573232855
0.11639715186042263, 0.04684070497751236, 0.09003527454414247
-0.06368269132566509, 0.04684070497751236, 0.0030115004938348344
-0.16511495480467006, 0.04684070497751236, 0.06835387269465029
-0.3060906394264583, 0.04684070497751236, 0.014796193490928491
-0.2305997743047995, 0.04684070497751236, 0.1532650379105043
0.23653128872162377, 0.04684070497751236, 0.1540590383769345
0.01429643113317386, 0.04684070497751236, 0.15988919586796468
-0.10687872903672958, 0.04684070497751236, -0.06228750532852563
-0.014570041794468053, 0.04684070497751236, 0.1317494006160167
-0.1755292931038226, 0.04684070497751236, 0.1668269619469072
-0.22252166450204858, 0.04684070497751235, -0.12413079045375447
0.07558084137475772, 0.04684070497751235, 0.07231477856867236
-0.033240793276782435, 0.04684070497751236, -0.02852552818727063
-0.3019412887248999, 0.04684070497751237, -0.07821794956086064
0.18475205067636255, 0.04684070497751236, 0.12537977323730676
-0.30198953603662515, 0.04684070497751236, 0.03725733289001566
-0.25532768281084733, 0.04684070497751236, -0.1126909565801229
-0.24543583850697037, 0.04684070497751236, 0.13187473252863546
-0.13771037415757065, 0.04684070497751236, 0.15579882328680328
-0.31554669807517044, 0.04684070497751236, 0.03206491953823795
0.06804977732099879, 0.04684070497751236, 0.06758486067052262
0.26616033305389875, 0.04684070497751236, 0.15006666268546073
-0.2531012230229601, 0.04684070497751236, -0.1083519020151835
0.08194867181884775, 0.04684070497751236, 0.05153663824448529
-0.19297705438641558, 0.04684070497751236, 0.14180100314142957
-0.07909597777645624, 0.04684070497751236, -0.01919485582672445
-0.03706590170109764, 0.04684070497751236, 0.008836904274684355
-0.056672191731486354, 0.04684070497751236, 0.1576856520371258
-0.25134938371070753, 0.04684070497751236, 0.05992764989346785
-0.1312871181927336, 0.04684070497751236, -0.04417567607389383
-0.10418852105591955, 0.04684070497751237, -0.05068051070694632
-0.1003998918189315, 0.04684070497751236, 0.015391870281738433
0.08845699887253614, 0.04684070497751236, 0.10277251563746492
0.08850254352163765, 0.04684070497751236, 0.14606222288770743
-0.08653896645634086, 0.04684070497751236, 0.06020028930417246
-0.2739083138836844, 0.04684070497751236, 0.09327138697563007
-0.15508455533163962, 0.04684070497751236, 0.15723664030673745
-0.2607546632300246, 0.04684070497751236, -0.12723419805039723
0.004709123354720596, 0.04684070497751236, 0.13396099413014798
-0.19733668288372266, 0.04684070497751236, 0.08976290789010148
-0.24262412102052738, 0.04684070497751236, 0.03598163681617458
0.25348657682866516, 0.04684070497751236, 0.14868579282222344
-0.034943881470589924, 0.04684070497751236, 0.09327771669890579
-0.1921147709074194, 0.04684070497751235, -0.06171134218030107
-0.24691930492136582, 0.04684070497751236, 0.028459376623880595
-0.09690804489026038, 0.04684070497751235, 0.0542708797563499
-0.17604268873244905, 0.04684070497751236, 0.061928970375208066
-0.0958350458284071, 0.04684070497751236, 0.12403987594802512
-0.1026483776220114, 0.04684070497751236, 0.04945980210876181
-0.3038705571312324, 0.04684070497751236, 0.15638561077628946
-0.3188165488480624, 0.04684070497751236, 0.16003811088192577
-0.23090481072628183, 0.04684070497751236, -0.07251898825971084
-0.10960950904841019, 0.04684070497751236, -0.008166322924537197
-0.17730013895406932, 0.04684070497751236, 0.004830271611757808
0.015327411921680717, 0.04684070497751236, 0.15036826114782648
0.08935125268032425, 0.04684070497751236, 0.051762927488717914
-0.17693432588362396, 0.04684070497751236, 0.06519708156949489
-0.05791140316783405, 0.04684070497751236, 0.14247786903547718
-0.061745873422539, 0.04684070497751236, 0.0365697344397632
-0.20918372712717054, 0.04684070497751236, -0.12180493258624545
-0.19896301657693005, 0.04684070497751237, -0.0717239007570618
0.02782618832796123, 0.04684070497751237, 0.11541722679285829
-0.0013522929079674006, 0.04684070497751236, 0.11785933764324537
-0.30153584000118666, 0.04684070497751237, -0.17882723089155247
-0.2783460770263241, 0.04684070497751236, 0.02869616861987978
-0.04858002863557911, 0.04684070497751236, 0.014464553374830238
-0.02229191565551472, 0.04684070497751236, 0.09988229645481514
0.004475711372603691, 0.04684070497751236, 0.1270240857928399
-0.26961738248642514, 0.04684070497751236, 0.0828781601982997
-0.15635717581917954, 0.04684070497751236, 0.134116190767442
-0.25535027356402024, 0.04684070497751237, -0.11478399342994602
-0.04930380081358713, 0.04684070497751236, -0.01872851287110098
-0.164840550423513, 0.04684070497751236, 0.022764963398670478
-0.2882779507830233, 0.04684070497751236, -0.05406946851788171
-0.22139450756184922, 0.04684070497751236, 0.14776146596775344
0.04936516409639989, 0.04684070497751235, 0.10029872262850845
-0.27769642146963275, 0.04684070497751236, 0.1612234295112176
-0.12654966697900616, 0.04684070497751235, -0.05539083863895759
-0.045607973273032856, 0.04684070497751236, -0.03051894953014915
-0.07876574720633704, 0.04684070497751236, 0.12006321528081045
-0.19208853795531794, 0.04684070497751236, -0.028581581444968793
0.1897428554210376, 0.04684070497751236, 0.10091974382118916
-0.24821106789880315, 0.04684070497751236, -0.09994817465157607
0.09235784826110956, 0.04684070497751237, 0.13391388970566004
-0.23293594699500345, 0.04684070497751236, 0.039222098264177954
-0.19294332202333847, 0.04684070497751236, -0.11444592424955333
-0.030023934555432816, 0.04684070497751236, -0.010176691407103608
0.144586022105015, 0.04684070497751236, 0.1020417593606217
-0.0542942999679033, 0.04684070497751236, 0.02331096416535376
-0.027583191429380316, 0.04684070497751236, 0.13442178537509106
-0.14077615716301525, 0.04684070497751236, -0.08842468991635566
-0.25999094484885676, 0.04684070497751236, -0.003444352134824899
-0.1504905737941236, 0.04684070497751236, -0.06414779908040812
0.08799774717857659, 0.04684070497751237, 0.09111079970642391
-0.277186411738154, 0.04684070497751236, -0.023340461138292523
0.0391972757625253, 0.04684070497751236, 0.1639008445038972
0.052379418964075886, 0.04684070497751236, 0.09717567759960484
-0.0564293934363472, 0.04684070497751236, -0.030051152665033005
0.1411132270467688, 0.04684070497751236, 0.10585429166927782
-0.1304373964579542, 0.04684070497751236, 0.058591619426590594
-0.15705286639771232, 0.04684070497751236, 0.11557320815319393
-0.1089806882702122, 0.04684070497751236, 0.09833219278303854
0.0709244211119365, 0.04684070497751236, 0.08987707002995735
0.06989069268602183, 0.04684070497751236, 0.06608074613667037
-0.06629987096849306, 0.04684070497751236, 0.0256700890145488
-0.3266784764316875, 0.0469814300629548, -0.012177222873738179
-0.32752915523991755, 0.09845693141223198, -0.19401256278937784
-0.32795066364080516, 0.5739412375334685, -0.19428168229177845
-0.34183566416689015, 0.21543430129505176, -0.19438670575618747
-0.34279759278017113, 0.4176070507130383, -0.19438670575618744
-0.3334403797248342, 0.7771583880236804, -0.19438670575618747
-0.3407870860021412, 0.32485360778673056, -0.19438670575618744
-0.33985855792675734, 0.4535880679005267, -0.19438670575618744
-0.33018580948857296, 0.912695162100747, -0.19438670575618744
-0.33386056875114467, 0.8560337610442226, -0.19438670575618744
-0.340599938194178, 0.7768650686929885, -0.19438670575618744
-0.33326983250713477, 0.7906726989384039, -0.19438670575618744
-0.3424763625088747, 0.9512603937162593, -0.19438670575618744
-0.33664524370592164, 0.8197538768157893, -0.19438670575618744
-0.3442126555966714, 0.752918806303695, -0.19438670575618744
-0.3400881073822328, 0.16535006844222308, -0.19438670575618747
-0.3357020019976193, 0.4217923619994092, -0.19438670575618744
-0.3309767605527066, 0.04353362797579165, -0.19438670575618744
-0.33749616196234594, 0.3186712065925573, -0.19438670575618744
-0.331974525431435, 0.2499647771305389, -0.19438670575618744
-0.33152811754768735, 0.29881397893704764, -0.19438670575618744
-0.33411851968304934, 0.34998975284947353, -0.19438670575618744
-0.3305248324312214, 0.6227704841257959, -0.1943867057561874
-0.3317236662148171, 0.5870625090525917, -0.19438670575618744
-0.32999327456969885, 0.586271336515928, -0.1943867057561874
-0.3372935644791381, 0.266865394937683, -0.19438670575618744
-0.33399934612908655, 0.022300963315239456, -0.19438670575618744
-0.3443592522213659, 0.585423902135079, -0.19434039382594448
-0.34487547877559105, 0.6925616931168654, -0.1941301222518996
-0.3273179233074188, 0.35268496863676224, -0.12303857769161546
-0.3273179233074189, 0.41351689547672854, -0.042660879868369736
-0.3273179233074188, 0.7631566244093938, -0.1760879127577459
-0.3273179233074188, 0.4290252305237489, -0.036850140553084026
-0.3273179233074188, 0.09617780262394084, 0.11080849236310047
-0.3273179233074188, 0.4195827586709154, -0.015304564704020827
-0.3273179233074188, 0.145098053285506, 0.02678160219867498
-0.3273179233074188, 0.09541639003418632, -0.007387938447120823
-0.3273179233074188, 0.2717245673813905, -0.036906108080677354
-0.32731792330741877, 0.11007726810371311, 0.11130722950516633
-0.3273179233074188, 0.5725920876034145, -0.12052921614870774
-0.3273179233074188, 0.6820307830800144, -0.11355416814146176
-0.3273179233074188, 0.10073197345721396, -0.12668203673083764
-0.3273179233074188, 0.31705828363290645, -0.1290166779258982
-0.3273179233074188, 0.07957951978446581, -0.18973404585895645
-0.3273179233074188, 0.02608910118849576, 0.12287588199967042
-0.3273179233074188, 0.0501763550197264, -0.011256330218817195
-0.3273179233074188, 0.016596153845969523, -0.16031856194163546
-0.3273179233074188, 0.6353537104436013, -0.11042069278160432
-0.3273179233074188, 0.006959082012697379, -0.1553203897775312
-0.3273179233074188, 0.19804740373142365, -0.14416616491512424
-0.3273179233074189, 0.6330060634297644, -0.0708228661805838
-0.3273179233074188, 0.1658596378802463, -0.11830971633150138
-0.3273179233074188, 0.46934730417330367, -0.060069316840093825
-0.3273179233074188, 0.38329823743759167, -0.0198658815213093
-0.3273179233074188, 0.07579721068895892, 0.03313229833959508
-0.3273179233074188, 0.43377353294374604, -0.04725100303676139
-0.3273179233074188, 0.5620726304704454, -0.05039100520651196
-0.3273179233074188, 0.02599851431977698, -0.17773974522920058
-0.3273179233074188, 0.7104596385869338, -0.1168929502366203
-0.3273179233074188, 0.8331199951687861, -0.16460170539287225
-0.3273179233074189, 0.5992838276387528, -0.1227497692893323
-0.3273179233074188, 0.013245028360957827, 0.16473621531600155
-0.3273179233074188, 0.23599665120490498, -0.14400786686997746
-0.3273179233074188, 0.3592465912502368, -0.013587374053421683
-0.3273179233074188, 0.04575744969110849, 0.07297187880536819
-0.3273179233074188, 0.14014138966430245, 0.026604877108988137
-0.3273179233074188, 0.11544307922840254, 0.08718519768155776
-0.3273179233074188, 0.22737715345139423, 0.03684409567270802
-0.3273179233074188, 0.10528432641773731, -0.05824585782069512
-0.3273179233074188, 0.05482899680860725, 0.12057370565033113
-0.3273179233074188, 0.2120442899193972, -0.08776591917741548
-0.3273179233074188, 0.10116587485310051, -0.07409219358424539
-0.3273179233074189, 0.13408710289714257, -0.012564665101000912
-0.3273179233074188, 0.2168769873013513, -0.15618369627863443
-0.3273179233074188, 0.4093853276916221, -0.18351335276507258
-0.32731792330741877, 0.6863603875218203, -0.08058709741969755
-0.3273179233074188, 0.6930634523212676, -0.11971443192742773
-0.3273179233074188, 0.430602417847502, -0.1476481066357437
-0.3273179233074188, 0.2149683533449467, -0.10180352520966568
-0.3273179233074188, 0.42193641597594983, -0.09144205762281102
-0.3273179233074188, 0.15791786498548413, -0.17713217303050652
-0.3273179233074188, 0.2751254538530581, -0.18843892573688692
-0.3273179233074188, 0.04645258888141841, 0.11339250196329871
-0.3273179233074188, 0.14478234870668416, 0.02418863511593125
-0.3273179233074188, 0.4644454299992551, -0.185479240834084
-0.3273179233074188, 0.6332266929688976, -0.09310941333899768
-0.3273179233074188, 0.014800167753995562, -0.06271212460605582
-0.3273179233074188, 0.09226385035420262, -0.08545556576624146
-0.3273179233074188, 0.3183991651792032, -0.00778427773505716
-0.3273179233074188, 0.9561865313183286, -0.17870481548321132
-0.3273179233074188, 0.12509340276941994, 0.12388680851166767
-0.3273179233074188, 0.11780591679410432, -0.07483861947197584
-0.3273179233074188, 0.4660596362074819, -0.097571541783387
-0.3273179233074188, 0.19524481154855253, -0.058507845936394784
-0.3273179233074188, 0.012524876571249554, -0.1756874156697043
-0.3273179233074188, 0.3901976900799804, -0.009502409684027727
-0.3273179233074188, 0.40497036451949947, -0.15323375476628323
-0.3273179233074188, 0.1174352556439317, 0.07566298404531827
-0.3273179233074188, 0.3024310567540494, -0.048291166476499274
-0.3273179233074188, 0.5955991359688522, -0.08322975310011912
-0.3273179233074188, 0.9783564838493414, -0.18799668857981822
-0.3273179233074188, 0.0979836289441265, 0.12094006150300302
-0.3273179233074188, 0.013316914692346558, -0.17420801806748018
-0.3273179233074188, 0.3209664434999873, -0.06991158543331116
-0.3273179233074188, 0.6172752616001662, -0.15192306684871393
-0.3273179233074188, 0.6373358866149947, -0.10563873981610457
-0.3273179233074188, 0.11993157069755923, 0.07332642566461198
-0.3273179233074188, 0.201539790313241, 0.03760298035676296
-0.3273179233074188, 0.3522954779573177, -0.08732555851477619
-0.3273179233074188, 0.03400473199465904, 0.0656252304115563
-0.3273179233074188, 0.24933550055155454, -0.11645512676774109
-0.32731792330741877, 0.7071493273440362, -0.12458415011885113
-0.3273179233074188, 0.4344203436359693, -0.10031778331651564
-0.3273179233074188, 0.14924591743823964, 0.052176238191711126
-0.3273179233074188, 0.06114156941631728, 0.05433883883593602
-0.3273179233074188, 0.44905693650858797, -0.013120228645439403
-0.3273179233074188, 0.3769266442956295, -0.17565309689229872
-0.3273179233074188, 0.024547900226990375, -0.17605283395130933
-0.3273179233074188, 0.11013036319946029, -0.17575139270020662
-0.3273179233074188, 0.7511203919975155, -0.11982934800231809
-0.3273179233074188, 0.7036272581562957, -0.09854971952640955
-0.32731792330741877, 0.13954631615010765, 0.026165931048928913
-0.3273179233074188, 0.16475084619265223, -0.08628395360164443
-0.3273179233074188, 0.12233805065804376, -0.09593911528809948
-0.3273179233074188, 0.5638280859839752, -0.11384006434471441
-0.3273179233074188, 0.3355116171886199, -0.025018088315391686
-0.32731792330741877, 0.2918629784261518, 0.0596315596121835
-0.3273179233074188, 0.6988129631821277, -0.11192602845512066
-0.3273179233074188, 0.6773324537882129, -0.08696589765429637
-0.3273179233074188, 0.32842769342311134, -0.15937309445189657
-0.3273179233074188, 0.01847571595979031, -0.09122980813802603
-0.3273179233074188, 0.2672736241275408, -0.10830158303651984
-0.3273179233074188, 0.5911661318869352, -0.13327805423755035
-0.3273179233074188, 0.12200413847109598, -0.12469702806419267
-0.32731792330741877, 0.39066603219020535, -0.009313526891548858
-0.3273179233074188, 0.13556544143729488, -0.00773962770420597
-0.3273179233074188, 0.15205725063130232, -0.05205833957972095
-0.3273179233074188, 0.018696553083542598, -0.09698909922909113
-0.3273179233074188, 0.18274815188327873, -0.12468623118325833
-0.3273179233074188, 0.764387414387583, -0.14287021972734718
-0.3273179233074188, 0.011072445069039476, -0.13148876349597433
-0.3273179233074188, 0.028700684010605354, -0.07506158431689115
-0.3273179233074188, 0.417162820372796, -0.01367369892539724
-0.3273179233074188, 0.4976997052863088, -0.07179879143036824
-0.3273179233074188, 0.682683114820701, -0.1371066330419908
-0.3273179233074188, 0.3517502197467915, -0.1827868864535791
-0.3273179233074189, 0.7539774600025557, -0.12612764115343633
-0.3273179233074188, 0.4681469901948147, -0.12918619806354698
-0.3273179233074188, 0.01970910814804047, -0.07891347664172614
-0.3273179233074188, 0.6718779816636297, -0.09762188592389093
-0.3273179233074188, 0.08906773309008231, -0.17991533848106875
-0.3273179233074188, 0.3101126785794374, -0.11494761378810045
-0.3273179233074188, 0.27137903427502197, -0.18491618916183483
-0.3273179233074188, 0.7481585074310755, -0.1304059173203309
-0.3273179233074188, 0.3511086326175247, 0.03482822264802283
-0.3273179233074188, 0.1223485822850756, -0.11789793035213254
-0.3273179233074188, 0.2432783128821428, -0.1498203156618373
-0.3273179233074188, 0.8275853472243319, -0.16821822229558347
-0.3273179233074188, 0.5234116784309404, -0.1023381439048704
-0.3273179233074188, 0.036919218967159655, 0.008670772704793592
-0.3273179233074188, 0.9719474623152701, -0.19030866351510678
-0.3273179233074188, 0.8517921286580394, -0.19091033983915798
-0.3273179233074188, 0.2159190504417198, -0.06670416834595275
-0.3273179233074188, 0.10480776140991012, -0.12087527827580997
-0.3273179233074188, 0.4061305986708968, -0.08532865914224588
-0.3273179233074188, 0.3638696344503687, -0.05611907764841434
-0.32731792330741877, 0.12536549858300877, -0.008440206819922663
-0.3273179233074188, 0.3844371868568277, -0.03780210936797152
-0.3273179233074189, 0.016602925984452933, 0.1219782007879938
-0.3273179233074188, 0.5578243427355558, -0.13334122651585398
-0.3273179233074188, 0.3798229999960188, -0.11566693576499282
-0.3273179233074188, 0.45560631448231464, 0.00029509983313855646
-0.3273179233074188, 0.16746494015561558, -0.17791554255284434
-0.3273179233074188, 0.382541015440724, -0.0019107269506995032
-0.3273179233074188, 0.24834480198036435, -0.019985207704235487
-0.3273179233074188, 0.11614249157677309, -0.06425946584025338
-0.3273179233074188, 0.4786862274943622, -0.1355306674051107
-0.3273179233074188, 0.6892234320586345, -0.09268464222563852
-0.3273179233074188, 0.5899623754709037, -0.1289865590579784
-0.3273179233074188, 0.09461136777713394, 0.022891650616575276
-0.3273179233074188, 0.3373329239187516, 0.01877296978062011
-0.3273179233074188, 0.5554452587181047, -0.035810804500147654
-0.3273179233074188, 0.8036581656929099, -0.16576224530498196
-0.3273179233074188, 0.6565789650137314, -0.12640726915197048
-0.3273179233074188, 0.6472910520692601, -0.17967762372507956
-0.3273179233074189, 0.5968314967734304, -0.10756399431082098
-0.3273179233074188, 0.07742053659138899, 0.09218758035226864
-0.3273179233074188, 0.198384228087134, -0.07563082396895734
-0.32731792330741877, 0.6194790838202396, -0.07476743243810854
-0.3273179233074188, 0.3265318446687714, -0.03515929202471637
-0.3273179233074188, 0.004070243379679765, 0.0014096714583485825
-0.3273179233074188, 0.24012248640373104, -0.037819394324988834
-0.3273179233074188, 0.5532180554714006, -0.15061070359340675
-0.3273179233074188, 0.4151948774309465, -0.020017103790841807
-0.32731792330741877, 0.587781759826344, -0.08388845775985102
-0.3273179233074188, 0.05110829947718473, 0.0729812755183191
-0.3273179233074188, 0.2513006179253135, -0.039412746829188224
-0.3273179233074189, 0.2943079376504674, 0.041358756428675036
-0.3273179233074188, 0.35970775404301386, -0.07952073109228255
-0.3273179233074188, 0.41940795515006746, 0.016292858344113266
-0.3273179233074188, 0.21672994872785756, 0.05948837340168289
-0.3273179233074188, 0.3798250001143682, -0.09853765670300048
-0.3273179233074188, 0.1267570392591528, -0.10656940730806244
-0.3273179233074188, 0.045865058555853266, -0.1806890036503655
-0.3273179233074189, 0.2577017272804799, 0.051917320470468396
-0.3273179233074188, 0.3225955597355908, -0.11965769709501908
-0.3273179233074188, 0.5581553183114463, -0.09280436561073303
-0.3273179233074188, 0.01306328228554357, 0.10727399499225422
-0.3273179233074189, 0.1048602162434471, 0.1024936681899906
-0.3273179233074188, 0.11143238209198508, -0.14977291463296413
-0.32731792330741877, 0.528025680726076, -0.08354338455657825
-0.3273179233074188, 0.2591261880765004, -0.1858698176898546
-0.3273179233074189, 0.9079749699940933, -0.18975188607162755
-0.3273179233074189, 0.045997151611147306, -0.13343428804201685
-0.3273179233074188, 0.08797275217691308, 0.09987074767795709
-0.3273179233074188, 0.2554457445277535, -0.18292952460841236
-0.3273179233074188, 0.07262182348715931, -0.0713559822897553
-0.3273179233074188, 0.31567038683965304, -0.1790953978919016
-0.3273179233074188, 0.8932131579950107, -0.18377378266123287
-0.3273179233074188, 0.02502070022429721, 0.0830741333144511
-0.3273179233074188, 0.39066262414582237, -0.14274547990667324
-0.3273179233074188, 0.22091610030383554, 0.04855090819575614
-0.3273179233074188, 0.44688928828103985, -0.011859662573845372
-0.3273179233074188, 0.12606122575720133, 0.009174028071199686
-0.3273179233074188, 0.451865313889177, -0.1489607185334822
-0.3273179233074188, 0.45373361678487023, -0.12898529411224674
-0.3273179233074188, 0.07661104076478442, 0.030919540233137255
-0.3273179233074188, 0.2096459679739241, -0.007822721157271263
-0.32731792330741877, 0.2266599062177069, 0.009941111361223616
-0.32731792330741877, 0.0946438097013711, -0.15989849393466313
-0.3273179233074188, 0.3615670025795282, -0.16402870086306773
-0.3273179233074188, 0.1260585160177994, 0.011336098036736901
-0.3273179233074188, 0.5247288265152773, -0.16104773946054268
-0.3273179233074188, 0.05425496573331693, 0.14046869047000196
-0.3273179233074188, 0.16498393835790637, -0.131660320270708
-0.3273179233074188, 0.6240711083106515, -0.1068936683128659
-0.3273179233074188, 0.057569513552356705, -0.08586948152239868
-0.3273179233074188, 0.5336477488484099, -0.13280509035766186
-0.3273179233074188, 0.02456484529505559, -0.1576814314652567
-0.3273179233074188, 0.2505099833569822, -0.18152550338570442
-0.3273179233074188, 0.25484320986347286, -0.11360592204909989
-0.3273179233074188, 0.2689809914145462, -0.10883923296884415
-0.3273179233074188, 0.19170451846723122, 0.017421258843365033
-0.3273179233074188, 0.17252942611825076, 0.09910780713495121
-0.3273179233074188, 0.15723812147865587, 0.08901501549668883
-0.3273179233074188, 0.021340081630778024, 0.039927445360292496
-0.3273179233074188, 0.7568470701222135, -0.17639400789744475
-0.3273179233074188, 0.30765671609703454, -0.1526677662979665
-0.3273179233074188, 0.06477060141400193, -0.02797333723073743
-0.3273179233074188, 0.48433595726023637, -0.06951117229873623
-0.3273179233074188, 0.5789381262786423, -0.09358822234072613
-0.3273179233074188, 0.5630299064594364, -0.19122267901395495
-0.3273179233074188, 0.4384700563822573, -0.02940213119449569
-0.3273179233074188, 0.1686165967654989, -0.10185679965814634
-0.3273179233074188, 0.3131151234057831, -0.07645499550518939
-0.3273179233074188, 0.635404214339216, -0.15824187359236036
-0.3273179233074188, 0.28054282673596626, -0.1749151692749787
-0.3273179233074189, 0.49162702975674527, -0.04930429813282662
-0.3273179233074188, 0.6921975765133168, -0.12018172181967979
-0.3273179233074188, 0.12016291892685349, -0.04237340386688807
-0.3273179233074188, 0.043191357092500146, 0.022178666791347862
-0.3273179233074188, 0.48681528302017535, -0.16526886674934427
-0.3273179233074188, 0.7404179567661854, -0.1013575682496304
-0.3273179233074188, 0.3414700808721672, 0.02479289946200427
-0.3273179233074188, 0.48375505294795607, -0.13065337411190267
-0.3273179233074188, 0.09274137351868357, -0.03772566568367982
-0.3273179233074188, 0.053785163063267694, -0.04355426592158468
-0.3273179233074188, 0.2616579702804153, -0.12187002360019943
-0.3273179233074188, 0.3172837965221005, -0.07710040584823391
-0.3273179233074188, 0.4763192093450169, -0.13792254009021296
-0.3273179233074188, 0.09388534411866073, -0.06721348579525485
-0.3273179233074188, 0.08527226054644878, 0.07669780479480717
-0.3273179233074189, 0.35207183512607415, 0.0217281504946336
-0.3273179233074188, 0.08300334456697067, -0.15325205709506518
-0.3273179233074188, 0.7611934761305914, -0.11451463606882514
-0.3273179233074188, 0.06484576782070485, -0.13221258149160503
-0.3273179233074188, 0.5359063019655314, -0.07507537887706262
-0.3273179233074188, 0.14436441479270629, 0.05666917939469114
-0.3273179233074188, 0.09378826797553984, -0.08091368261636281
-0.3273179233074188, 0.2002590788544315, -0.007130722957271997
-0.3273179233074188, 0.036301476912295114, -0.014114769862655085
-0.3273179233074188, 0.11544671622894821, 0.07207520495144351
-0.3273179233074188, 0.050102646014628174, -0.13406757373822445
-0.3273179233074188, 0.37900276878985456, -0.11341536425255433
-0.3273179233074188, 0.2164887254313634, 0.04553914747329706
-0.3273179233074188, 0.6816397204083914, -0.07978730495538429
-0.3273179233074188, 0.7406353585195826, -0.14903095775531292
-0.3273179233074188, 0.23973953951491966, -0.14809814318984976
-0.3273179233074188, 0.4706330345905107, -0.05741913807840081
-0.3273179233074188, 0.09437380941960821, 0.06299638616866479
-0.3273179233074188, 0.13421883011028352, -0.17026953168827583
-0.3273179233074188, 0.20891723997696424, -0.08285859539325405
-0.3273179233074188, 0.1663008360621545, 0.08557954314075172
-0.3273179233074188, 0.36518775557721284, -0.1666326811545775
-0.32731792330741877, 0.3566830184231727, 0.03862828158059261
-0.3273179233074188, 0.39510421656597294, -0.07709038349256515
-0.3273179233074188, 0.21652933320472928, -0.15534051592673218
-0.3273179233074188, 0.25353781634786954, 0.00613329925641342
-0.3273179233074188, 0.8870644712852394, -0.19126119120683646
-0.3273179233074188, 0.48063867500746676, -0.060242054663372714
-0.3273179233074188, 0.24234160425451806, -0.12980287922433217
-0.3273179233074188, 0.5490777157440948, -0.09219797445357106
-0.3273179233074188, 0.6044183014754032, -0.18133954328852606
-0.3273179233074188, 0.23742246436199418, -0.07310583984703511
-0.3273179233074188, 0.1167007791901054, -0.08009274515538962
-0.3273179233074189, 0.7791042086875168, -0.16416625129966692
-0.3273179233074188, 0.13575498724756588, -0.032698121977213175
-0.3318703613478682, 0.9991689920425415, 0.10670217737877791
-0.33239964050835247, 0.9991689920425415, 0.16648783508499945
-0.3318153818067328, 0.9991689920425415, -0.015805141415740666
-0.3364242268014262, 0.9991689920425415, 0.05139952748049975
-0.327786925595013, 0.9989952391414012, 0.07005690978093909
-0.3422559526949484, 0.9991689920425415, -0.048757820074164446
-0.33916015726317206, 0.9991689920425415, -0.1833500020800328
-0.33379641606283356, 0.9991689920425415, -0.18041770703568816
-0.33434572434591026, 0.9991689920425415, -0.1658303067161056
-0.3444428636930433, 0.999087673757797, 0.04653660177865505
-0.34512994641113215, 0.9982977827897686, 0.01019481186397668
-0.3273341247853468, 0.8305770590967044, 0.17089413770814785
-0.3281092486167855, 0.6742556395271979, 0.17169030513529943
-0.3273179233074188, 0.5335803561587384, 0.004343034500418312
-0.3273179233074188, 0.7569564915992643, -0.0232071306461265
-0.3273179233074188, 0.7502756001904892, 0.1574229204095581
-0.3273179233074188, 0.8049919800661871, -0.01589091311795731
-0.3273179233074188, 0.8756042440215108, -0.005605804488681712
-0.3273179233074188, 0.9053702442211176, 0.004510237630582559
-0.3273179233074188, 0.5336290796282969, 0.007848028448410599
-0.3273179233074188, 0.49320416057807875, 0.10052875959832105
-0.3273179233074188, 0.9841913379354552, 0.05257823972549185
-0.32731792330741877, 0.12662309704974184, 0.14870802298060373
-0.3273179233074188, 0.6021807372600858, 0.16391822611159435
-0.3273179233074188, 0.6999200764931798, 0.125400512946227
-0.3273179233074188, 0.7149570101006891, 0.045872666211974646
-0.3273179233074188, 0.5475967881081502, 0.0963898344933468
-0.3273179233074188, 0.5336014285371242, 0.16563211784685022
-0.3273179233074188, 0.7804752224080895, -0.009574923674890067
-0.32731792330741877, 0.3938368309037591, 0.13739227166363202
-0.3273179233074188, 0.8867730561762557, -0.07594084027605452
-0.3273179233074189, 0.9426844677739248, 0.1538010985936428
-0.32731792330741877, 0.3704478629493501, 0.03852467571043291
-0.3273179233074188, 0.7380145337483396, -0.09321430027781168
-0.3273179233074188, 0.7549019342677545, 0.041631588987314415
-0.3273179233074188, 0.6525764041924076, 0.13114284275234844
-0.3273179233074189, 0.677783084267689, 0.01793366535488919
-0.3273179233074188, 0.4547341020136451, 0.028716517679351548
-0.3273179233074188, 0.9428666896009885, -0.15213928606027993
-0.3273179233074188, 0.5422527353579002, 0.15434244114193307
-0.3273179233074188, 0.7249748012207315, -0.08072258484420612
-0.3273179233074188, 0.8984367712758405, 0.11418635271665692
-0.3273179233074188, 0.9426770012980226, -0.03447184933734508
-0.3273179233074188, 0.4434594851974242, 0.15258879050405275
-0.3273179233074188, 0.24568757404193942, 0.10270910849393447
-0.3273179233074188, 0.6743579373131032, 0.008296335038839753
-0.3273179233074188, 0.7249837080259955, -0.003776117951105863
-0.3273179233074188, 0.6292975227047942, 0.1529194501455101
-0.3273179233074188, 0.9388641290188123, -0.013360020547911217
-0.3273179233074188, 0.985024927164858, -0.11705213814416429
-0.3273179233074188, 0.32198828084780806, 0.13060258646304476
-0.3273179233074188, 0.8748587394801457, 0.13224787264246327
-0.3273179233074188, 0.6837865155988949, 0.10333454025657346
-0.3273179233074188, 0.6743877299631833, -0.013595877357334536
-0.3273179233074188, 0.4984703129706699, 0.010489430911086685
-0.3273179233074188, 0.9922684747686534, 0.01180520245918712
-0.3273179233074188, 0.9446049065943887, -0.11260468789966384
-0.3273179233074189, 0.9924407499629752, -0.11468598238482565
-0.3273179233074188, 0.4307514507615658, 0.08250454535456589
-0.3273179233074188, 0.7379429859693876, -0.06431781677833065
-0.3273179233074188, 0.21687600168726728, 0.1279930512910967
-0.3273179233074188, 0.9548183871722219, 0.09164596783459059
-0.32731792330741877, 0.43298238294791763, 0.033967752182065575
-0.3273179233074188, 0.9412305335705418, -0.11248073590446364
-0.3273179233074188, 0.5115579405592082, 0.11435066468548769
-0.3273179233074188, 0.6259068465443521, 0.10325186713426393
-0.3273179233074188, 0.8686212559720106, 0.09137374289767751
-0.3273179233074188, 0.8656690475196613, 0.028150239324018805
-0.3273179233074188, 0.933992636047869, -0.1334321479998396
-0.3273179233074188, 0.7940925113804513, 0.11682948933510724
-0.3273179233074188, 0.5670922571110651, -0.0018803306713736055
-0.3273179233074188, 0.5231209455575099, 0.0207229173005259
-0.3273179233074188, 0.9447681885824994, -0.003707797330614493
-0.32731792330741877, 0.56794262785339, -0.022613333851656016
-0.3273179233074188, 0.1262562850116373, 0.1608364588577802
-0.3273179233074188, 0.9800516103714095, 0.14713282901130822
-0.32731792330741877, 0.8334707160935991, 0.16983527050406041
-0.32731792330741877, 0.32608014242207495, 0.08564054008776392
-0.3273179233074188, 0.4248500403920885, 0.12490346889882387
-0.3273179233074188, 0.23393363968694925, 0.1546550032987068
-0.3273179233074188, 0.699138881325066, -0.046350874190055666
-0.3273179233074188, 0.5442322518197493, 0.045678009480086774
-0.3273179233074188, 0.8228900982042718, -0.009424577087263061
-0.3273179233074188, 0.74467182078614, 0.13118679748408307
-0.3273179233074188, 0.9555764765910808, 0.059724099322690724
-0.3273179233074188, 0.4160934785981549, 0.05595495275355929
-0.3273179233074188, 0.5346260576100621, -0.005376093981312299
-0.3273179233074188, 0.7797713963244628, -0.10982498861452372
-0.3273179233074188, 0.6622012217950688, -0.047258104010083346
-0.3273179233074188, 0.2489243531973433, 0.14607582007905298
-0.3273179233074188, 0.6780601079805356, -0.01880129061894311
-0.3273179233074188, 0.5580274204207537, 0.013450531487911081
-0.3273179233074188, 0.83991179857951, 0.07415968620293688
-0.3273179233074188, 0.9456208174104376, 0.029069620198844168
-0.3273179233074188, 0.3153999665141397, 0.16502116914741516
-0.32731792330741877, 0.8468289867992904, -0.022102977730168054
-0.3273179233074188, 0.9807030871007221, 0.08755817565511234
-0.3273179233074188, 0.6400733582922016, 0.13659744358182385
-0.3273179233074188, 0.9132510619580219, -0.01566185270150615
-0.3273179233074188, 0.8514533589277797, 0.12115143698271152
-0.3273179233074189, 0.7624491926874625, -0.03886191649664946
-0.3273179233074188, 0.5691268149222428, -0.01574150095387166
-0.3273179233074188, 0.845792563517141, 0.16899173079385388
-0.3273179233074188, 0.8506834569337848, -0.1099912183670303
-0.3273179233074188, 0.9442934967436005, -0.044369667327136326
-0.32731792330741877, 0.64263522863455, 0.014433506708868116
-0.3273179233074188, 0.7366784702527298, -0.06151125843426429
-0.3273179233074188, 0.9734626965467531, 0.10008510769643283
-0.3273179233074188, 0.8006966563229723, 0.1183194358688093
-0.3273179233074188, 0.7807778928451111, -0.03805053247529929
-0.3273179233074188, 0.7668542730280161, -0.07305253346108852
-0.3273179233074188, 0.6978127449774012, 0.1592420275923711
-0.3273179233074188, 0.9820169074399095, -0.1224416420403109
-0.3273179233074188, 0.32017758765262094, 0.0905297966498424
-0.3273179233074188, 0.9914567625182718, -0.042720344515581696
-0.3273179233074188, 0.3974861855381222, 0.1609676625120266
-0.32731792330741877, 0.46875218683785613, 0.03340940116984122
-0.3273179233074188, 0.8193818838220295, 0.11211368775318574
-0.3273179233074188, 0.5398592776845302, 0.06529203617725643
-0.3273179233074188, 0.9641081257105845, -0.07355128404644556
-0.3273179233074188, 0.5773794126862344, 0.11131508054734544
-0.3273179233074188, 0.7730636884877727, 0.07807539419400782
-0.3273179233074188, 0.9212567547962742, 0.03797509367552101
-0.3273179233074188, 0.40647254810033756, 0.04206585236913158
-0.3273179233074188, 0.2910489905378837, 0.07461895706179804
-0.3273179233074188, 0.9241840800110436, -0.14853773547221016
-0.3273179233074188, 0.9369492239076241, -0.16370740258386157
-0.3273179233074188, 0.7284559158774842, -0.09379780621842966
-0.3273179233074189, 0.8210007350450645, -0.061400153108099854
-0.3273179233074188, 0.966261695868551, -0.16520837740661762
-0.3273179233074188, 0.9397456541921161, -0.12852589912258117
-0.3273179233074188, 0.9290637686260164, -0.06267171791837715
-0.3273179233074188, 0.6896888993084911, 0.05191145988020822
-0.3273179233074188, 0.5569440649522681, 0.05502489089201372
-0.3273179233074188, 0.9462284422927068, -0.026770141135226813
-0.3273179233074188, 0.6373742647849305, 0.16211299514769995
-0.3273179233074189, 0.7127382373427219, -0.0638255478350777
-0.3273179233074188, 0.5957959653897931, 0.13437873698194436
-0.3273179233074189, 0.8725906991065984, -0.06447383230125768
-0.3273179233074189, 0.48001402583714003, 0.015377261597966619
-0.3273179233074189, 0.8511263126899015, -0.11997454903052353
-0.3273179233074189, 0.5980291304618996, -0.0023999188232788626
-0.3273179233074188, 0.7143341582774558, 0.12018904329787015
-0.3273179233074188, 0.9895408227105792, 0.13036393653950723
-0.3273179233074188, 0.7711818410257698, -0.08505490113181832
-0.3273179233074188, 0.7659748641800558, 0.004705863145524333
-0.3273179233074188, 0.7275964244985271, 0.0506637880465252
-0.3273179233074188, 0.8923178684025993, 0.09010894348831013
-0.3273179233074188, 0.8260991016908491, -0.04313616525813542
-0.3273179233074188, 0.9648259216971926, -0.11968323594566925
-0.3273179233074189, 0.5935732191835983, -0.040981686576878285
-0.3273179233074188, 0.7169944994500185, 0.087225503765777
-0.3273179233074188, 0.8871727277525109, -0.14000931950217593
-0.3273179233074188, 0.9586113774142362, -0.00496570344560196
-0.3273179233074188, 0.7725411002197914, -0.010269782430631681
-0.3273179233074188, 0.5660874568282829, -0.017578146008595395
-0.3273179233074188, 0.8672345603086338, -0.014303931893204981
-0.3273179233074189, 0.2122131138176103, 0.09888872632333645
-0.3273179233074188, 0.6699421475974335, 0.12415022344374822
-0.32731792330741877, 0.9667605946340352, 0.12867033584422335
-0.3273179233074188, 0.9502559575909458, -0.10322055466870363
-0.3273179233074188, 0.5312026947606354, 0.0831438474032335
-0.3273179233074188, 0.8380411549896583, -0.07614642931168152
-0.3273179233074188, 0.8083554631141185, 0.01071402799449387
-0.3273179233074188, 0.5658655187748395, 0.13257461394331643
-0.3273179233074188, 0.6596723536480374, 0.118831065566078
-0.3273179233074189, 0.9819641215851649, 0.16719903326301516
-0.3273179233074188, 0.8587412280990073, -0.07251122312380931
-0.3273179233074188, 0.32208594016083886, 0.08650600965442809
-0.3273179233074188, 0.8076603191076854, 0.05147007639847727
-0.3273179233074188, 0.4505965614153763, 0.09849865034340548
-0.3273179233074188, 0.9964563078554367, 0.08584360957245041
-0.3273179233074188, 0.857477214208433, 0.07644898900899719
-0.3273179233074188, 0.9862329238302184, -0.019725167455800163
-0.32731792330741877, 0.7389249573077272, -0.04569489374186408
-0.3273179233074188, 0.6931729649936642, 0.0814992351819872
-0.3273179233074188, 0.8528849576193274, 0.1369216077010561
-0.3273179233074188, 0.7270766292909276, 0.12989397291090232
-0.3273179233074188, 0.8711213485769225, 0.15212903068282863
-0.3273179233074189, 0.719658195923129, -0.04054407374549921
-0.3273179233074188, 0.9072496526884626, -0.06065560269395994
-0.3273179233074188, 0.8610816315685751, -0.12442655712692498
-0.3273179233074188, 0.8139602383496217, -0.10694812189739142
-0.32731792330741877, 0.1873140066400923, 0.14706531171230067
-0.3273179233074188, 0.7123839989835276, -0.05584921762786416
-0.3273179233074188, 0.5276654925817663, 0.16134273579626685
-0.3273179233074188, 0.6021426626237739, 0.018788705386812404
-0.3273179233074188, 0.8375340176535062, 0.13154666687474498
-0.32731792330741877, 0.3289878466684321, 0.13408657063949128
-0.3273179233074188, 0.7165298306826202, 0.13744696804703282
-0.3273179233074188, 0.991086158672102, -0.006655457255428196
-0.3273179233074188, 0.7071337303448122, 0.061419690060905266
-0.3273179233074188, 0.3449504835768033, 0.1667350595770618
-0.3273179233074188, 0.9144035558017406, -0.05766477073494176
-0.3273179233074188, 0.2920077486738213, 0.12299336888374204
-0.32731792330741877, 0.9945024163998916, -0.12177837186450852
-0.3273179233074188, 0.37485720943429096, 0.036218424998926205
-0.3273179233074189, 0.29848973716549265, 0.13696235139791965
-0.3273179233074188, 0.14779747617187328, 0.14068004560954436
-0.3273179233074188, 0.8386987768874217, 0.009738938601841551
-0.3273179233074188, 0.7876933412882501, -0.06709902191965328
-0.3273179233074188, 0.6235921571559987, -0.05341339767539267
-0.3273179233074188, 0.7869705146670798, -0.10139452910867913
-0.3273179233074188, 0.9856886236266954, -0.182875618116697
-0.3273179233074188, 0.7310467762411677, 0.017840618165455818
-0.3273179233074188, 0.9060652858459511, 0.002354773039933575
-0.3273179233074188, 0.5329312106191687, 0.14114626253154888
-0.3273179233074188, 0.9923564924822156, -0.08098412277077605
-0.3273179233074188, 0.6081632843186585, -0.0333826099883115
-0.3273179233074188, 0.6643883989787845, -0.005069483326078986
-0.3273179233074189, 0.5947581298581975, 0.09204661201285429
-0.3273179233074188, 0.9796211901149944, -0.07797193874532571
-0.3273179233074188, 0.46877189610457315, 0.14388674734604615
-0.3273179233074188, 0.6755865961252816, 0.014251675128565705
-0.3273179233074188, 0.9763270823073948, -0.09441428184087759
-0.3273179233074188, 0.6989977003025567, 0.0963770412819241
-0.3273179233074188, 0.8005888959345335, 0.130866251872555
-0.32731792330741877, 0.09976071243154123, 0.15563371129929945
-0.3273179233074188, 0.6744687204106725, -0.07206499401600534
-0.3273179233074188, 0.9044461886257031, 0.04428270613865029
-0.3273179233074188, 0.6343544050432148, 0.16552487534291824
-0.3273179233074188, 0.6631889753070433, -0.049711292233288094
-0.3273179233074188, 0.7114622879383596, -0.032888895161102896
-0.3273179233074188, 0.10833599033612548, 0.1513692386428492
-0.3273179233074188, 0.7394088629163784, -0.055245800068459965
-0.3273179233074188, 0.9116939090846984, -0.019976966738311966
-0.3273179233074188, 0.757162463279365, -0.02600238730948809
-0.3273179233074188, 0.8106192097227078, 0.10166019269371229
-0.3273179233074188, 0.8356948123235186, -0.011651283587279536
-0.3273179233074188, 0.7430727959660126, 0.16540913441270616
-0.3273179233074188, 0.4584342840575394, 0.0538514524544917
-0.3273179233074188, 0.8703822188769404, 0.06042815054176088
-0.3273179233074189, 0.7994726577241359, -0.11993618258175812
-0.3273179233074188, 0.3057884807933094, 0.1594059923135916
-0.3273179233074188, 0.8450002306678837, 0.04374097176703218
-0.3273179233074188, 0.6765722631401421, -0.03626514994893219
-0.3273179233074188, 0.9296343667576372, 0.10347469938079845
-0.3273179233074188, 0.7326414202814509, 0.12306337531530477
-0.3273179233074188, 0.9611272970166576, 0.15482480797476922
-0.3273179233074188, 0.944765859229034, -0.13078453560826947
-0.3273179233074188, 0.982363451410855, -0.1369994589556579
-0.3273179233074188, 0.8156305174678334, 0.06558694415466046
-0.3273179233074188, 0.2583664572703432, 0.13986537958357037
-0.3273179233074188, 0.8118512715756079, 0.16354600548123346
-0.3273179233074188, 0.6412576143080421, -0.039342190819704984
-0.3273179233074188, 0.18851132569564671, 0.1391891597612246
-0.3273179233074188, 0.6726902270729788, -0.05409225445909338
-0.3273179233074188, 0.8406239504966614, 0.019728143073323663
-0.3273179233074188, 0.9420435881392643, 0.11429401279859314
-0.3273179233074188, 0.9400221336372692, -0.05158067576143422
-0.3273179233074188, 0.7602263077258664, -0.09069924641409227
-0.3273179233074188, 0.7887798728495453, 0.10618284464386665
-0.3273179233074188, 0.6480053726861768, 0.06771853847728039
-0.3273179233074188, 0.8661594154685749, -0.0233294068344612
-0.3273179233074188, 0.16135404784184448, 0.11367722835546872
-0.3273179233074188, 0.9943394838910937, 0.0391947597197346
-0.32731792330741877, 0.6562662740963534, -0.02502261159173813
-0.3273179233074188, 0.9456705088590734, 0.12936562760383197
-0.3273179233074188, 0.16902964768094117, 0.13701655440798322
-0.3273179233074188, 0.7896268546771619, -0.04884700972604
-0.3273179233074189, 0.7257772969716626, -0.04387263611376817
-0.3273179233074188, 0.9946626031137947, -0.1260918140173935
-0.3273179233074188, 0.4390380227354606, 0.14072839623755803
-0.3273179233074188, 0.939040526111441, -0.07849755754525149
-0.3273179233074188, 0.8635094039865069, 0.14323669615468582
-0.3273179233074188, 0.9967791566274673, 0.05557127258173186
-0.3273179233074188, 0.7082481334610449, -0.03470175576409826
-0.3273179233074188, 0.5765010902737487, 0.028299363345741943
-0.3273179233074188, 0.7562076369848572, -0.07471625861790843
-0.3273179233074188, 0.6321524767286864, 0.16483403459268126
-0.3273179233074188, 0.5728101426933903, 0.016976996035275808
-0.3273179233074189, 0.9850784125356868, -0.12664337884232318
-0.3273179233074188, 0.7461140208598893, 0.04694694044460236
-0.3273179233074188, 0.8789401844983967, -0.14701384190422478
-0.3273179233074188, 0.5983474534223875, 0.11275055394734554
-0.3273179233074188, 0.9931211627373192, 0.1072432615645777
-0.3273179233074188, 0.9699613100335166, 0.15059476302331642
-0.3273179233074188, 0.4131860767746005, 0.10472134387179394
-0.3273179233074189, 0.4667314181751037, 0.0773561005315102
-0.3273179233074189, 0.42206670920937644, 0.030318938709350186
-0.3273179233074188, 0.5586913801256438, 0.09796743415190565
-0.3273179233074188, 0.9016678486589541, 0.1412894923381822
-0.3273179233074188, 0.2744489208228624, 0.1683234530785276
-0.3273179233074188, 0.7141807096590441, 0.10949640463961693
-0.3273179233074188, 0.9418396002084553, 0.1600769988700432
-0.3273179233074188, 0.6420528692141514, -0.004242841960649162
-0.32731792330741877, 0.9079270788210151, -0.14490200682169174
-0.3273179233074188, 0.41305976650069737, 0.10016308876510377
-0.3273179233074188, 0.9939095505565922, -0.02319641217002051
-0.3273179233074188, 0.74183651119712, 0.027887830208231303
-0.3273179233074188, 0.8550720797265057, -0.045310263643104774
-0.3273785361832414, 0.0007409324130665494, -0.005378606845397815
-0.3359937823456691, 0.5122159166567044, 0.17173080146312716
-0.3296515746501161, 0.884255775597592, 0.17173080146312714
-0.3307217185485198, 0.2410228957534315, 0.17173080146312714
-0.33390763963475867, 0.43683607600470853, 0.17173080146312714
-0.3374068192117664, 0.8717357525174445, 0.17173080146312714
-0.34110941227915004, 0.9407564114055431, 0.1717308014631271
-0.3283798097306841, 0.10238693599613756, 0.17173080146312714
-0.3302415708366772, 0.4994882374094911, 0.17173080146312714
-0.33069520108304007, 0.6017893493796738, 0.17173080146312714
-0.33112188767016293, 0.897459491754053, 0.17173080146312714
-0.32856253239694666, 0.3827212105052968, 0.17173080146312714
-0.33585060362180535, 0.8764540474283053, 0.17173080146312714
-0.34434816280372593, 0.5581275039902158, 0.171689001740691
-0.3451362848281861, 0.045328040385538386, -0.138637878120493
-0.34513628482818604, 0.26401087590040523, 0.008949701549908776
-0.34513628482818604, 0.7835188608868153, 0.16859071072268428
-0.34513628482818604, 0.2855433970837721, 0.11164183767799815
-0.34513628482818604, 0.18884911361233328, 0.16942305935516228
-0.345136284828186, 0.2681271973353803, -0.03151965453232462
-0.34513628482818604, 0.40491182492506106, 0.00943037366868649
