-0.028119066793565572, 0.1967273452821075, -0.060370137397720874
-0.01874132096175924, 0.19848719592105654, -0.06318952192473241
-0.01681916103344279, 0.2029366242734991, -0.061841689784455034
-0.019828835067957535, 0.2019577769652891, -0.061466379189582095
-0.018998197506390493, 0.2052024272589812, -0.06033519133211086
-0.01887821632396881, 0.20488009781719552, -0.06050015678608826
-0.014579620087172361, 0.19885758971955966, -0.06411660792021759
-0.002850987175542515, 0.1423899845436818, -0.07061901683689346
-0.005619994088597796, 0.1915101689044708, -0.06739615898656573
-0.004878404369068967, 0.18919760610911057, -0.06760806689460391
-0.007492658376190463, 0.17047116188124883, -0.06847542884585231
-0.008326338323126613, 0.18226267579848765, -0.06768513247823174
-0.001684245148311658, 0.18814560312934006, -0.06798572532886504
-0.006834063044199528, 0.17667950965811138, -0.06816738534935565
-0.004393388648241802, 0.1507713315270918, -0.069963765407349
-0.004633573080548801, 0.1536571325381509, -0.06976679250092874
-0.00606714747431585, 0.1943218597970623, -0.06718326062418929
-0.0024934377719610075, 0.14028846400859987, -0.07078043941221715
-0.004496600840714135, 0.1787504592528092, -0.06827312987126558
-0.002967028387535863, 0.19070465152436442, -0.06770573115613049
-0.005347918196301659, 0.18901059487038568, -0.06757307424128095
-0.0055493202012285815, 0.18284403826152493, -0.0679236195701542
-0.014011703755318159, 0.22896651943824442, -0.047575538424449074
-0.014627642596204847, 0.22924808009523515, -0.04710862125728572
-0.014075119512616509, 0.2130274677967718, -0.05836545479580868
-0.016318354028145774, 0.21740217080412302, -0.05596683968426824
-0.013726428457738015, 0.213648063309029, -0.05819839345466199
-0.016421845586334187, 0.22176112332438283, -0.05413048010604764
-0.008794909204116567, 0.22676345601300246, -0.05127641811398348
-0.005107653048427932, 0.22978099592662132, -0.048396445860206506
-0.0037707361223963606, 0.21929891840904575, -0.057379023006921125
-0.004762427161906011, 0.20879652658034, -0.06155330503723606
-0.003395108456798262, 0.22036547663194078, -0.05698008000309078
-0.0027336638212391738, 0.2014756228604597, -0.06471013968275528
-0.006686865681391354, 0.22101951135613468, -0.05641552024285359
0.007412853038622432, 0.16911439493142408, -0.06864061401867591
0.00820999876577693, 0.15735067505766853, -0.06929714776866004
0.004209801743657709, 0.17096666192382662, -0.06872230818040567
0.0019899105093095265, 0.18314421123503302, -0.06812654980814584
0.008737270527979882, 0.19225250006478609, -0.06717534370941367
0.007450100634468793, 0.1835044849005941, -0.06777662337060837
0.009371592044738166, 0.15152613169985013, -0.0695760976000612
0.004170419585915495, 0.17482922444546883, -0.06849336683549062
0.00428287393169525, 0.1809637196090045, -0.06811924000267482
0.0014332820945499739, 0.1884276113121769, -0.06784362646525788
0.005535322595973323, 0.1843609729416328, -0.06784047877007694
0.002163168141078122, 0.18413738970325413, -0.06805665436129554
0.006231932818115086, 0.18851411341114516, -0.06754987686647979
0.004613851698826735, 0.18506575216071103, -0.06785368620006248
0.001680012648891007, 0.1771237850501074, -0.06850571898954942
-0.008589649291373349, 0.1947385523389278, -0.06685840258762467
-0.00656170962815915, 0.20437654487654117, -0.06316702798033891
-0.010943209177258023, 0.2041617117427429, -0.06282238775888319
-0.005188497833142209, 0.20741861310160883, -0.06207408709028254
-0.007270011202584252, 0.20531790006428907, -0.06271725140918236
-0.009796561380078174, 0.20241205285509947, -0.06364164767121393
-0.0004972451149575055, 0.19973712596807366, -0.06550642294886637
0.004283648704038198, 0.19656842184580153, -0.06650177919514723
-0.00010860790016564291, 0.20842908535286125, -0.06196408384319188
0.003517332812917231, 0.19829864464791946, -0.06584737605583474
0.0016186837444416666, 0.21347652257933036, -0.05981674003302295
0.00035922019780883284, 0.20767590291253885, -0.06224087888342876
0.010030372944739166, 0.21447798243403338, -0.05861437822319536
0.008629015754865358, 0.21345950139530304, -0.05934347980108017
0.008128392315650776, 0.216264468388632, -0.05829293580679744
0.01510593168109089, 0.22127113005279408, -0.05468932441429825
0.005490415712908917, 0.20966422769559487, -0.06112733553439151
0.00856503180395971, 0.19707096431727317, -0.06604085849849377
0.0018329583504398234, 0.2159037525659939, -0.05882118376385917
0.0048885726431392605, 0.22025001596436006, -0.056877848748504684
0.004230548962542194, 0.21300834946490863, -0.05984922023628642
-0.00020597585755321188, 0.22672554227758074, -0.051957195216798494
0.0025206859547895807, 0.22665453387569362, -0.051868639501445
0.028607538472578936, 0.1637135765300835, -0.06320081556690306
0.028938347456993634, 0.14179197431556256, -0.06447892059794529
0.028291679882564914, 0.16780564522988872, -0.06306202939797027
0.029060434594316106, 0.14148460690539838, -0.06445071546790085
0.030139453479714574, 0.16578783411635234, -0.06246595650171902
0.02786576041366729, 0.1532892517514731, -0.06416168837840396
0.027699362576850767, 0.15659833819469945, -0.06401449535427073
0.02841218137906485, 0.14317207779589042, -0.0645969180042601
0.027721820879759967, 0.15885841123954492, -0.06386051088088729
0.02944575547891022, 0.1296942146949262, -0.06505668474257159
0.02994478039066666, 0.1311873798981004, -0.06476479654626877
0.027688501326583414, 0.12448012109323985, -0.06608171289834214
0.025447871019497637, 0.14087670026499338, -0.06590852477411548
0.029788269369256853, 0.17023223572513835, -0.06231841340716722
0.028653130931446093, 0.16945583275864717, -0.06281408509911043
0.02915867676634922, 0.160280141348432, -0.06320489623856583
0.025740900446237225, 0.22230129667709467, -0.05010341906822162
0.02699896922059052, 0.21181119397768344, -0.05427889243410337
0.02741716810324914, 0.22091150165814605, -0.04977145365689063
0.030651753946234588, 0.21152472985269227, -0.05227122656941501
0.03061100919276744, 0.2113623168259811, -0.05237118537823828
0.018851866214258772, 0.13080684580555263, -0.06880959765339476
0.01860977843200442, 0.1659855164642749, -0.06670965079976385
0.016266874338518554, 0.12173040507802563, -0.06993278619576689
0.017997792479073068, 0.1704881029977144, -0.06656846249844857
0.015070319157359091, 0.12866896486406612, -0.06977087586993691
0.015147404516871965, 0.13832546664468665, -0.06916292200611328
0.013175378551002323, 0.13243213848072322, -0.06995668067969685
0.015313278007237302, 0.1388812511784426, -0.06909247934488134
0.016794060288026443, 0.12523864378983046, -0.0696022943057067
0.018969197557528527, 0.1655742116542247, -0.06665589611069264
0.017021895561243835, 0.17376026233827535, -0.0665824974514991
0.019084041332973478, 0.16018628078447522, -0.06696044450980021
0.017658145677756188, 0.16835101047051196, -0.06677384975579517
0.019349160699396628, 0.18818115200196162, -0.06518879897734
0.01940874932887426, 0.1901192681960575, -0.06505709094931132
0.019476989959527805, 0.1841125727592775, -0.06540974488391818
0.021743435234245656, 0.2179044571159957, -0.05379197948230106
0.01989823245712022, 0.1992315258548041, -0.06262266339987152
0.01825057692410902, 0.20755119289627869, -0.05965812786020802
0.01942067349745224, 0.2056330365003725, -0.06003128209372435
0.019462820167255708, 0.22243586124871761, -0.05272053008785263
0.007105015979953853, 0.22714228802709374, -0.05107501452530837
0.01651269953948105, 0.1958874196972545, -0.0648822134858634
0.01290696499755178, 0.19752686088452548, -0.06499575142764123
0.016075021472642254, 0.19987801548275744, -0.06332732759155398
0.011386156022517552, 0.19926348031913427, -0.06461123936915014
0.016767164684707098, 0.21835815460327287, -0.05552968602885876
0.010186658684917308, 0.1965285958480059, -0.06600612950785907
0.022604949561677253, 0.20366937029273335, -0.05963316408192783
0.025307031676824125, 0.20652744668168865, -0.057331267172030215
0.020420735517052296, 0.19841018169994515, -0.06277401222020056
0.027960982304767776, 0.20079195469776476, -0.05877878198704681
0.023940572861824466, 0.2057847413698795, -0.05819033028857655
0.023977690298206948, 0.21533515775316187, -0.05402987184563307
0.01611175158439296, 0.22850335149978876, -0.04735665352453565
0.017575203736390436, 0.22619704146552588, -0.04940785883297487
0.04861269025966986, 0.14576761321023815, -0.051113693170108616
0.048118071094563425, 0.13657081359490275, -0.05223262913367496
0.0465730305588937, 0.1415637938359288, -0.05311702941141966
0.04359917451529774, 0.13777721936410925, -0.05585654696256034
0.04900664980264484, 0.1260842895508385, -0.0523135782602167
0.047232849590447476, 0.15831070453629625, -0.05127763683982829
0.0466064118225054, 0.14231094621742083, -0.053031721826479736
0.04764433810392321, 0.16167812292195788, -0.05067842001546998
0.04406397544875815, 0.1297274368263693, -0.05609744058751352
0.0462396079635166, 0.14326656765364926, -0.05325947293895365
0.046441388087134716, 0.1488634296801124, -0.052660153270159445
0.04490273985388153, 0.14916354307189789, -0.053902635983346416
0.04616091736645153, 0.16369591138798023, -0.05174248223688675
0.04369581577284206, 0.12439750211484435, -0.056812960361425746
0.046728427455964484, 0.15685596540794927, -0.05180521505825371
0.04729594425407063, 0.120920873490206, -0.054120606994135505
0.037009172209630944, 0.13271662942132467, -0.060763956411044026
0.037550991223405016, 0.17381882191236428, -0.057597527097173536
0.03310835557728054, 0.12276436218745884, -0.0637410204041901
0.03856910721619948, 0.14358070477211354, -0.05909629900429113
0.039899610277502634, 0.14020735769595205, -0.05854994472626639
0.03814920217581752, 0.13886767189781737, -0.05966916790978867
0.03939880392886656, 0.12389770932566166, -0.059973994005428244
0.036898147851632694, 0.12031403621372397, -0.06168866081043159
0.03971823053258954, 0.15157151724720647, -0.05786866698191967
0.03628170311650493, 0.12467703399640753, -0.06174772775416156
0.032128092844459284, 0.12249872399696975, -0.06433421956328787
0.03621983605619565, 0.12295244542334441, -0.06190353269885091
0.0353561852789086, 0.12770502122271388, -0.0620805506834813
0.03912716131546888, 0.13965163225470734, -0.05904139540394823
0.03833783627577292, 0.13200863768637572, -0.06003394891017769
0.037602420353760074, 0.15298267900671625, -0.05901149095981406
0.035118110440743866, 0.22074440366389136, -0.04475210304386537
0.038844673886176254, 0.21261707577362696, -0.04593813238495183
0.03778398394475555, 0.1993389859903256, -0.053756705707259565
0.03440219659571417, 0.218822510920806, -0.0463464064100085
0.0331242467441017, 0.2202713029380539, -0.046639778649944404
0.025476024413656224, 0.2239651572568387, -0.04856354972136941
0.0364015337318427, 0.19997924063597425, -0.05430727977846604
0.03543063596750526, 0.2069390109652839, -0.0516168844001894
0.033615912263271396, 0.20631478794436792, -0.05297331472164471
0.03499088188145456, 0.19787132120362208, -0.05612168672285073
0.032652438621369004, 0.1994962586870262, -0.05673178276985205
0.037354037758747294, 0.1958627980571626, -0.05567675687926289
0.04162671900993167, 0.22141163196277525, -0.03833726176489217
0.040754027134553596, 0.22087245072933454, -0.03966628403516445
0.047061331458999135, 0.20954746763275375, -0.039449681311603535
0.04827781222826315, 0.20929647009822488, -0.03821549309216509
0.044300477969619764, 0.21433075433616752, -0.039651767300672776
0.043293718641958925, 0.1961801294471908, -0.050876756594720685
0.039946639072323875, 0.19470460012663218, -0.05440200514346533
0.04316516861680754, 0.19724412602092461, -0.05042590661824676
0.04207625169228313, 0.20587016840864625, -0.04680921682641956
0.039955311878547006, 0.2145884914626596, -0.04399321445328656
0.040293083192689774, 0.20266834414483714, -0.04995102196967488
0.03485147867069573, 0.22548912211236935, -0.04017271722984272
0.03333962705172998, 0.22405098196868392, -0.04338956713266252
0.05919475695921762, 0.1859184212331234, -0.03356571476703559
0.06144872514616117, 0.14078878947256285, -0.03505061563592087
0.060632259796873145, 0.15773068198306633, -0.03444668436084565
0.0597342784169058, 0.16972370994149735, -0.03452034967455828
0.058686647380018, 0.1644046789998776, -0.036752149848115964
0.059706038334032666, 0.15379240466276098, -0.036334907276387385
0.06048666087505687, 0.15071745915700097, -0.03545404069279297
0.06240151567801252, 0.13845337536263658, -0.03381793144254821
0.05966404396794252, 0.1725104283482473, -0.03432067884795718
0.059112230720906184, 0.1910483341987552, -0.03312491246597764
0.05824364682611996, 0.18369538789012763, -0.03530231423237189
0.05725670850273659, 0.1813395435135659, -0.03710978391925439
0.06286067548680908, 0.12629663790940052, -0.03444971323150712
0.06033669866596115, 0.1528908695620084, -0.03544738700712192
0.06126683016342384, 0.1395221360675565, -0.03547624228328434
0.04945954808916179, 0.2108668247618951, -0.035564880640514086
0.05200547000376843, 0.20181259649965413, -0.03841027605024717
0.05216203966897362, 0.20527868705130914, -0.035549424433160594
0.050609503408852896, 0.2156665196449017, -0.030141862245315003
0.05227704116388242, 0.2000291447246779, -0.03933081776072545
0.045402170917713425, 0.2006882238773748, -0.04672297740159993
0.05088013116948373, 0.1979778754016838, -0.04220475608819553
0.04544456603033829, 0.19995996782192865, -0.04711822142844065
0.04936954476031335, 0.19857574394647787, -0.043541640635294934
0.04680799484356884, 0.20424468148849909, -0.04297711116551194
0.05107711443472997, 0.19809791084831424, -0.041909988859755824
0.05616551948087549, 0.14339572665954836, -0.04292565500978944
0.05522229237297817, 0.12093237611688239, -0.046010106644503015
0.05460440308835425, 0.14683027668612703, -0.044373831395827276
0.054018721114340904, 0.16704147500998368, -0.04321333311544066
0.054856869879737855, 0.14212994429091289, -0.04451283806291154
0.05689133324112974, 0.1324749533146917, -0.043091884218779776
0.055882173378669735, 0.15380517013102502, -0.04230735867424338
0.054206360087895596, 0.13113102217572298, -0.04623549892710732
0.05400832727541539, 0.1298975121453266, -0.04656950023554102
0.05406927272588499, 0.13449733417805704, -0.04608672001641334
0.05601386315458292, 0.1304387960185049, -0.04426303234641719
0.0545897461035934, 0.1442606808190861, -0.04462169954586227
0.05344416794249513, 0.16803404019388088, -0.04377076466254608
0.054600014042438486, 0.14208019362043342, -0.044806472889627635
0.053884946166090554, 0.18214325260888084, -0.042004156400653685
0.0370457729652421, 0.2273602343004697, -0.03534294678859465
0.03896896471822195, 0.22340589197423955, -0.03950235861755401
0.04991208770829276, 0.2211111825396928, -0.027125364382345078
0.05170777988448551, 0.21271652412312522, -0.030647985894224856
0.054695720278159485, 0.20724296757567293, -0.030099005865679294
0.05783091082643471, 0.19651976429829715, -0.033280993485077445
0.05508072985652501, 0.2048752963970254, -0.03128276121291697
0.05655489422562662, 0.19701289166919625, -0.03490728150450789
0.042651177465607856, 0.2263586576443432, -0.030186940689580395
0.044947086433045874, 0.2246341384497677, -0.02997730834537015
0.055925335526683856, 0.21485421202418825, -0.019883836837165735
0.055239820410389495, 0.21256221433119418, -0.02377530760929898
0.05141905899708349, 0.2199956573476189, -0.024979120223169393
0.06096103718555303, 0.20104944884366244, -0.022359871606425104
0.05002219258254543, 0.22240604970197092, -0.025730719132458883
0.05882597826635821, 0.20885306175794877, -0.018726682890615413
0.05997607840958649, 0.20500730138867912, -0.020510434343135226
0.05595794474656614, 0.21708660791260162, -0.016470023610103097
0.05537248367277187, 0.22092630865505608, -0.012521977003863826
0.05513679423062338, 0.22031067860568604, -0.014423907111772348
0.05438277296507704, 0.2103297523027346, -0.02799876626240185
0.05646106725736809, 0.20578108103233508, -0.02785615946544388
0.059369881047234896, 0.20079661442747382, -0.026255665698887008
0.05780819031785392, 0.20451966236311317, -0.026053592396038848
0.0610101132116299, 0.19480798335761723, -0.02857477745510032
0.05625267704174963, 0.20660876462217365, -0.0274937678729303
0.06602015884339257, 0.17878688633323067, -0.017827349595015154
0.0681328560136405, 0.16468874697728328, -0.013047094456454241
0.06595530245454656, 0.1794687201988437, -0.01791484023528287
0.06820861616544445, 0.15244018222828662, -0.015669715063251273
0.06698091288816092, 0.18585652295823202, -0.012446004625914142
0.07042563557142827, 0.12879680045180286, -0.012758899394559271
0.06643326912290137, 0.17799506172426072, -0.016425125081741383
0.06837875692667089, 0.16370096274002255, -0.012335311893912914
0.06973042059508133, 0.1410971622792453, -0.012509081058378398
0.06743202470081498, 0.1666470917907675, -0.015279597215555404
0.06796442045124604, 0.15220339644457384, -0.01666629630884674
0.0657931863716385, 0.18943260666572237, -0.01616831931458302
0.06524344238129018, 0.18620892330098165, -0.01905205092222022
0.06632203015955382, 0.18640202255717803, -0.014853151074417668
0.06851351165232572, 0.16003799935113217, -0.01268799315240052
0.06514639021624391, 0.16595908434986317, -0.02361043074043698
0.0643639309192069, 0.14955118657058106, -0.027849845784960484
0.06729136230836354, 0.13476235707031659, -0.023361869679830838
0.06490382023039587, 0.1282562684788518, -0.029794270490251528
0.06400133223372273, 0.16794931010271294, -0.025932392341824817
0.06418097558898858, 0.1554109350538421, -0.02739346424521248
0.06495284243954494, 0.1571491961776223, -0.025368445160846437
0.06574333347207784, 0.1424664545336088, -0.025752472475715625
0.06453821455229658, 0.134667988917121, -0.02967325760580256
0.06595644573894488, 0.13137546736407357, -0.026920896522746814
0.06490751259015001, 0.1259459225367311, -0.030130758157357437
0.06445550585531888, 0.16380305781478077, -0.02551258999157236
0.06675068991130417, 0.12802165106414465, -0.025604937635151388
0.06414117379417582, 0.12971620477461573, -0.03132071072534877
0.06458979415674927, 0.15282686605356685, -0.02684416989648887
0.052120711331185426, 0.22319778603872242, -0.019417417173620884
0.04778854236978261, 0.2247625314232604, -0.02519929322316459
0.06501704302383571, 0.19818180489415615, -0.012126066820245942
0.06351237347484698, 0.19839856794013305, -0.017569465860962665
0.06282702480228716, 0.19920670070774904, -0.018902934556805723
0.06290799706216008, 0.19898265207484375, -0.018953067433576054
0.06354194606986789, 0.19842991452624453, -0.017404966186321345
0.05748667669383154, 0.2170801494708769, -0.01059424485462328
0.06593796776995862, 0.19847800587959408, -0.0024069791248681627
0.05858962903868557, 0.216223387644884, -0.003512824231873271
0.05966365133017082, 0.2140198872294745, -0.0017321645590836537
0.06114300701104017, 0.21026743368763096, -0.002256442971676468
0.05763277003684721, 0.21786249237435384, -0.006443880188166234
0.052501690418858535, 0.22465522378947095, -0.012648736324710513
0.05104360420741211, 0.22486616137914084, -0.01737638353485177
0.058633654288002844, 0.21641812387392634, 0.0007602824567860931
0.06052217390429313, 0.2113292488510208, 0.0037740885586855497
0.0609983223764935, 0.21080137176340924, -0.0005738742232153655
0.05892505027709266, 0.21597788798599446, -0.0011080063488308487
0.06195633570394355, 0.20839335072690401, -0.00021838930705611652
0.0612813959531152, 0.20785827196633178, -0.010846571432240125
0.06684884796032974, 0.19627378953836877, -0.0022887759583665743
0.06651966227075759, 0.1964703707854034, -0.004821487094971051
0.06082401717590303, 0.21007741901368687, -0.006289748051322791
0.064294216306578, 0.20208218188958646, -0.004170275471453037
0.06323134912394107, 0.20310609287645975, -0.010732702995967978
0.071401058129587, 0.12015590308051971, -0.008481986660730035
0.07063246932336475, 0.13131902808114104, -0.00947534303945419
0.07146726478973223, 0.12669541180631966, -0.0038105046689822903
0.06841475355705096, 0.1800329016052493, -0.002252034118197344
0.06973815995603029, 0.15348452921829742, -0.005021063965421523
0.0715419379806404, 0.12384418743708361, -0.004794066258183048
0.07014087273310726, 0.14285423337192624, -0.007423652454894397
0.07021554692684087, 0.14607945889168264, -0.0046922752156247065
0.06983108123968725, 0.1552263459203498, -0.0030109811723572034
0.07163521450291796, 0.12064230350212825, -0.005802775381941894
0.06993033826130154, 0.15342490855459623, -0.003102672562531371
0.07129751872534527, 0.1281987281286365, -0.004618089930910816
0.07145357558777533, 0.1294518783092155, -0.002264544420943237
0.07047951756336895, 0.13806779572483427, -0.0069052111065242405
0.07135007689946468, 0.12236604183497313, -0.007649367284462592
0.06762661534979879, 0.18966206533477398, 0.0037653410046668448
0.07001244547142603, 0.14714451611778054, 0.0064605734360075415
0.07079137780934529, 0.13200167008540592, 0.008597766339407984
0.06797573916703833, 0.18524594165327823, 0.0023604084530937305
0.0675241143945121, 0.19137530808146486, 0.0037625685789438768
0.06959585447546737, 0.15369324522686312, 0.006862218093759721
0.06811268320768211, 0.18453374805793538, 0.0007928095892380818
0.07009141304800559, 0.14265973274737623, 0.00961667306679496
0.06798320220276317, 0.18647111776266143, 0.0010153531188890755
0.06811413914970904, 0.17592801234526054, 0.009344631396907579
0.06786913912944623, 0.18333720499723152, 0.006035280824113367
0.06777708929647519, 0.18547369749886322, 0.005436920730773676
0.06757059085036769, 0.1873372015500165, 0.007013849699301322
0.0686819376808918, 0.1684354288630888, 0.007369051867109387
0.06949050483942071, 0.15595650829536628, 0.006358696325683808
0.0546603888973947, 0.22389196371926948, -0.004133268478916787
0.05260159635539074, 0.22536306313454738, -0.009190994016364527
0.04780407186050425, 0.2300549646966904, 0.007471195701638365
0.05695777611236914, 0.21532366891629098, 0.015786591355233137
0.05409795110673636, 0.22226226289777715, 0.015676816508120254
0.05848254071947334, 0.21148604239450142, 0.016106683295432418
0.059290188224025486, 0.2109349738455541, 0.013471882303096134
0.05682490657378295, 0.2172368945566045, 0.0127704928064534
0.054615576729453816, 0.22402527967351363, 0.0024207344756779943
0.05552555035923163, 0.2232042815713854, 0.0017361362928759927
0.0667783652361659, 0.19515064726820983, 0.00916125098048743
0.06542837969373519, 0.19940823616532105, 0.0028144872301731705
0.06361706332970508, 0.20326399041874235, 0.006857268168233008
0.06153954945853191, 0.20827767210504855, 0.007495095027784662
0.0626703783827272, 0.20539679678645567, 0.00817486641363186
0.06483372238091063, 0.20028256708775558, 0.006789785420218186
0.0684715509732851, 0.14400344190502046, 0.016708885654110665
0.06878128024696967, 0.13759397099811538, 0.01708605162167179
0.06953614481927961, 0.11980592320890926, 0.018609664679906192
0.06738686041655276, 0.1501300662492024, 0.019939639052102776
0.06604124244082686, 0.17705538801365725, 0.01855780201827896
0.07021569559124038, 0.1300208216064183, 0.0126661544223399
0.07023617761501272, 0.12982523584441066, 0.012627432346867782
0.06729959477367103, 0.15408653856930735, 0.01923356133027487
0.06652279038605917, 0.17228627450068706, 0.017695037394383342
0.07025492732151609, 0.129205103942067, 0.012715005863251215
0.07046185520458842, 0.12207726134836092, 0.013760666254390912
0.06854059709860101, 0.12813336784039794, 0.020820663768012358
0.06923989933994575, 0.1396194821760035, 0.014432663744354639
0.07007990515491413, 0.13284695012915274, 0.01249630537593776
0.06911384197759156, 0.13332963663523684, 0.016760959018745934
0.06828533538696095, 0.1521460069511399, 0.015285896710398712
0.06220952353638424, 0.16982809785921663, 0.030126592429168583
0.061597969024570556, 0.18443220470910215, 0.02929380658278706
0.06266920264931077, 0.19165457016440218, 0.025384201738431728
0.06455884240544063, 0.17741418728173686, 0.02290310314457579
0.06360927537594144, 0.17245536983582535, 0.026132479526227326
0.06449795115606367, 0.1285452851017714, 0.031055584344270037
0.0641900176190232, 0.16403038104958148, 0.026032504344600672
0.06273990294779536, 0.16402326142168305, 0.02972606499435256
0.06210607354862119, 0.17170826698343583, 0.030082313699080928
0.06316593940862857, 0.16107254592806558, 0.029124144562924226
0.063826124299988, 0.1878807995545494, 0.023055937841309437
0.06488575131758241, 0.12192996603588437, 0.031150739492963233
0.061453083197354645, 0.19006338805612716, 0.028741178538039022
0.06404199494852116, 0.18923663810892505, 0.022284387024247565
0.06281578300782101, 0.1692591915997016, 0.028675989060883894
0.059600828962369595, 0.20736606746828345, 0.01852774485274109
0.0517902118675864, 0.2202805642955192, 0.024074196957176632
0.05520176472254992, 0.21631535902567584, 0.019790797607289492
0.05398342124220821, 0.2192951257824297, 0.019584008409242626
0.054847952246839554, 0.21663428231416798, 0.020337537912074204
0.06170549414219231, 0.2058846625566496, 0.012031870062207661
0.06147245468121264, 0.20689426707866687, 0.011182186247841003
0.06281434373366827, 0.20203022812455118, 0.014277750746926382
0.06609705257027579, 0.1954721220787059, 0.011741562021896204
0.06168814328358382, 0.20530827215867442, 0.013201832362138944
0.0597836415418863, 0.21173709073799363, 0.00970660907143788
0.0455922009341435, 0.22991477831972754, 0.016430047052361126
0.060895654796570935, 0.20202334510385425, 0.02116384885284544
0.05713939298305079, 0.204772847487053, 0.027675005469040857
0.05809913040101705, 0.205385221234561, 0.024551210407287215
0.05667266902201169, 0.21008413686034996, 0.022965235160104885
0.060637209505405215, 0.1987164370062719, 0.025494237298345105
0.05923118379776658, 0.19982998477832012, 0.027837772047898522
0.04967306482648115, 0.22090144389205013, 0.027459213723415157
0.050553261213499665, 0.21561095025570598, 0.030203522198176735
0.05157565292283999, 0.21390609660509954, 0.029846908234416866
0.05108513200008587, 0.21117190728656982, 0.03285332484905293
0.04798173046432466, 0.22229429268150938, 0.029188570431980046
0.041825034656694966, 0.22907976662456492, 0.026138532712107667
0.04541036985703053, 0.22641166019242687, 0.025613617150998587
0.045144950792485025, 0.19044644378576903, 0.050431690422075556
0.04422453835198554, 0.16985808095486807, 0.05289578139764141
0.046164705377053715, 0.16170590658580503, 0.05182428213469182
0.042876543492772146, 0.162056169488361, 0.05471713517267547
0.04478517784885058, 0.15120862115676292, 0.05388920057875178
0.04805695406240809, 0.18599786784016217, 0.0482007280017349
0.04666782197885047, 0.1662954049173024, 0.0510103340791073
0.04716541931162072, 0.18506908674160033, 0.04906695205038911
0.04524411181166206, 0.1706521054720393, 0.05192659769740063
0.043222882209902336, 0.18096573492204093, 0.05289724883776654
0.04474039107344028, 0.18393360401562892, 0.05131190405036906
0.04407408754451325, 0.14068517776666745, 0.05536244016430659
0.042945705609936075, 0.17489092679706963, 0.05362927818513542
0.04295611705609162, 0.13952426924084446, 0.056448370074438994
0.0545567412136359, 0.20060838900365963, 0.03544972153329091
0.05520733022405003, 0.20047212009458582, 0.034448961310426955
0.06040168198600465, 0.19490365145345362, 0.030056081933109102
0.056613864980077755, 0.1999028873381761, 0.032505868411270136
0.05779372610842198, 0.20065072975708492, 0.029892126937149946
0.05730976631139731, 0.19766749846518147, 0.03311311546113355
0.05190374196743492, 0.1621266901550104, 0.04611286690304427
0.050746012758677385, 0.1490321444782362, 0.04875261246390826
0.05335584446221871, 0.1757929866847946, 0.04306146366011288
0.052446101276772863, 0.15667242594673572, 0.04596688287512209
0.05169641317538243, 0.16009705508885666, 0.04655591822378818
0.05231079683079428, 0.16258193598934972, 0.04557519526032278
0.052906829261047644, 0.18024147343668406, 0.04318863380035739
0.05254793816401193, 0.18990008852523804, 0.04271590098377513
0.054603288257965794, 0.1854269994630338, 0.04063834306248201
0.05250282862856792, 0.14050811622353246, 0.047419210497279485
0.050659290706779055, 0.17683509776625903, 0.04624138857876708
0.052259529170455614, 0.14454849877081485, 0.047334715431795266
0.055276759767928854, 0.19103322721928528, 0.039292029085563555
0.04901366740062979, 0.19230204882099114, 0.046786196095630395
0.05258899027393357, 0.17274830552172893, 0.044280218846813116
0.06077559609639911, 0.1267595663743806, 0.037693567854268334
0.05752357983173891, 0.17629165141089653, 0.037384855788263685
0.05572303972334105, 0.19200973121288076, 0.038597643891389706
0.06270621905064824, 0.13631622899989895, 0.03327139576654301
0.06314277867402412, 0.12058297587245673, 0.0343865807522548
0.05841781335351175, 0.1441404346409587, 0.03966015119641983
0.06350848970520265, 0.12889801454524993, 0.03278002664282413
0.05723319318925771, 0.1752615986650186, 0.03800184597336896
0.05913141202283063, 0.16443375811175548, 0.036044434983706394
0.06103767633417181, 0.1402920656905982, 0.035647032717393765
0.05804341245339473, 0.1659344936728272, 0.037722556532369875
0.06004002668593926, 0.1514196629533554, 0.03603314985033581
0.0574301435754985, 0.1551104162468069, 0.04004787886803711
0.059265239826485745, 0.12979168870467347, 0.03991097749875669
0.05885155827366481, 0.16453706226350312, 0.036509496458450114
0.058887638023460274, 0.1598508257112402, 0.037001889392409726
0.04398955062795041, 0.22113677659107772, 0.03562498359535912
0.043994651660294974, 0.2189443063166737, 0.037027148583806097
0.043845551663675396, 0.21877642131630912, 0.037316242814341434
0.04791129183979054, 0.21561579794605024, 0.03440407057725137
0.04536822954410042, 0.21740640601099556, 0.03634527589552085
0.037744722872221456, 0.22863991902666125, 0.032427236282658915
0.036350685839908345, 0.22693270034606589, 0.03665823383372528
0.03505374231968879, 0.22879525410113966, 0.03518684822911013
0.05034507612025165, 0.20395961619363473, 0.03893300462814178
0.04087310284585373, 0.22130943784712526, 0.03930252484125442
0.048300759374236876, 0.20183270685817883, 0.04278437139878981
0.05334249422938018, 0.19845899780584503, 0.03882265049688709
0.049478162018018274, 0.20086447090085086, 0.041975048082504254
0.04763713017909562, 0.20137004648086468, 0.04388829081105342
0.03700323241858504, 0.222209151813187, 0.04225645335580648
0.03673722438460157, 0.2223645647423323, 0.04240791650212876
0.03873660722656447, 0.22082070727022882, 0.0414745715099221
0.03972693299394628, 0.20739971990388442, 0.04792053439026447
0.04039396865140777, 0.2140557067546005, 0.04369493150787649
0.041488155833456386, 0.2095132583602125, 0.04520240172927171
0.04261003539683284, 0.20571709690168283, 0.046277921648660195
0.04663524536911553, 0.19965583897459954, 0.04601079153028503
0.042251125479767185, 0.21115975379465915, 0.043625940288917045
0.04111863649973946, 0.22014810051893444, 0.03972576095777117
0.04418909004287978, 0.2036563997699115, 0.04600005431967209
0.03363743806365807, 0.16576740766092135, 0.06057794510838099
0.03695029544284581, 0.18216614640519574, 0.05729999078778719
0.03432499540420651, 0.14177091985867438, 0.061842162864104426
0.033531997335939076, 0.17421521950098848, 0.0600457054069471
0.034305530839049345, 0.1335980685442228, 0.06243459961369863
0.03416755054979055, 0.16507918170362063, 0.060288486543442196
0.037297182133722274, 0.18491638202164273, 0.05688343860476383
0.03587612012938027, 0.17470041814183002, 0.05851532693719429
0.034140994070460486, 0.1497262192934737, 0.06139501091564378
0.037240515600633975, 0.17261822023830323, 0.05779238360621909
0.03276164724177877, 0.16995736761411923, 0.06083949175251922
0.03326463250441134, 0.15438387233992398, 0.06162373030844859
0.03353841074428575, 0.15288738108250255, 0.06155521749467341
0.033242966695288534, 0.180504649323585, 0.059783804107952955
0.033418708995764906, 0.19853243459289951, 0.056762994500515904
0.0350389014538032, 0.20802453118485137, 0.051133949365529514
0.03783479557800304, 0.2017129367098488, 0.05240512146567752
0.0339220598529236, 0.1962356215547718, 0.05755365153122373
0.033650878763626865, 0.20725021701476576, 0.052394583160333796
0.03783071941345503, 0.19568087861544003, 0.05532782107510531
0.023443530529268515, 0.1324012729979181, 0.06740953832412462
0.02528984179803984, 0.1678252419642272, 0.0642895475550316
0.0253014150145989, 0.15518169255546277, 0.06510997498622685
0.02890755979758666, 0.19334284418226716, 0.06104189450388564
0.026126835388756646, 0.163407798434989, 0.06421203380931574
0.02508563652420009, 0.1527185382997286, 0.06536512849301829
0.02534179414517175, 0.19376503163041245, 0.06257324661355623
0.02377503347389443, 0.16241071303509458, 0.06530531652771698
0.022646137538239013, 0.17197009456672618, 0.0651747340255211
0.026389525834001636, 0.14913464097481252, 0.06502907114126841
0.023493708538113642, 0.14885294444303232, 0.06631348467643457
0.02304817424099652, 0.17074293789817502, 0.06507908774541626
0.02399127946864442, 0.17606542140665515, 0.06431927110861345
0.030643474673649338, 0.19031175070760453, 0.060480867862808464
0.02413934165413844, 0.14483531440828767, 0.0662935282791977
0.02961942590584725, 0.22183256112334412, 0.04794844697717253
0.03149305092160562, 0.19901827858129717, 0.05776316457182899
0.032735241477481865, 0.20958707551714886, 0.05184932042226709
0.03270688642731691, 0.20866569379713779, 0.05231309492843126
0.03080349155070255, 0.21610947457481677, 0.049947894029702844
0.02872621102299509, 0.2302459072584385, 0.03868020996855739
0.020777352180650733, 0.2070818368361359, 0.05898018538190522
0.02055764648986668, 0.20695235992185465, 0.05913360089291723
0.02228791024457709, 0.2056100723195088, 0.05897181852038268
0.022306959524554498, 0.20743212451814005, 0.058156266778565086
0.019825218773452488, 0.22151036199932944, 0.0530041818509863
0.02307387982512689, 0.22719414634120005, 0.045919063600133994
0.022323639792625784, 0.22588484621234298, 0.04775633056388119
0.015089858459900502, 0.18355762542942516, 0.06643569822278528
0.016052313731838422, 0.15762103126254298, 0.06778873658518271
0.01669882462479871, 0.1902813946028567, 0.06560227114829517
0.014554636551073604, 0.14029206705276084, 0.06924870984579724
0.014359448519590621, 0.16330329114276426, 0.06787720425528025
0.015134821373613473, 0.14860573424031379, 0.06858420655396288
0.012828571637647179, 0.153298508895275, 0.06889313213786208
0.01443132405956479, 0.1580764123467563, 0.0681815821916835
0.012596136016753447, 0.14061071754701115, 0.06973766159470512
0.01570700591079728, 0.17361575627971496, 0.06688987041585227
0.012849617788311882, 0.18373335271002544, 0.0670066545282609
0.014800780857864895, 0.13733267771004296, 0.0693676869642991
0.01990652518250543, 0.1900904406526927, 0.06478099512301773
0.01671971797809302, 0.18355195552859752, 0.06601275481710668
0.018435586656937796, 0.1703477815756478, 0.06638320135111417
0.02758323266226505, 0.20341704752936993, 0.05762832916111933
0.030390734158035188, 0.20077639622625246, 0.057570804221344765
0.031034539174749107, 0.19784442773708524, 0.05858828882285091
0.024765416427230662, 0.20155637252123648, 0.05968458614528595
0.025703144421189143, 0.1956606042939185, 0.06188662260891463
0.030707006695351785, 0.19939818489033678, 0.058043121860658756
0.0079294258791691, 0.17218029407324115, 0.06832842403255965
0.0076483880086790695, 0.18959028903684846, 0.06730960561690304
0.004255352945098395, 0.17563530436274943, 0.06848194641850561
0.008163079686969577, 0.17460868309988659, 0.0681594931221782
0.003136761095004612, 0.14998108442070532, 0.07013388722495778
0.00492403868220145, 0.1753273399898757, 0.06843472001925027
0.008542867044408708, 0.19420118050460397, 0.06694452885205208
0.0043682508188545325, 0.1411993864965968, 0.070540655808687
0.0038034408786874587, 0.17998677332365573, 0.0682648230851986
0.0035506549160307785, 0.164270226847328, 0.0692343339193618
0.005826016945593821, 0.1655274793387317, 0.0689350798769075
0.005555612962369006, 0.15239547234548978, 0.0697509761543867
0.00490324234921845, 0.16236698938491093, 0.06921576035927837
0.0017952112336944875, 0.14422516364234111, 0.07061173770335581
0.018695425113109558, 0.20375586724645128, 0.060972701007654145
0.014014378742244624, 0.19535509397661693, 0.06571182034131719
0.02202611057736132, 0.1949796441849868, 0.06378855154524879
0.01858570514760994, 0.21235253483562821, 0.05739563723773547
0.017311977624872545, 0.20206291304393573, 0.062042046011268996
0.015253087495618885, 0.20419682657209504, 0.06168177075695419
0.015147437708893312, 0.2258210250903685, 0.05058325021011549
0.017456714391017536, 0.2253315442978461, 0.05051767253607822
0.011883894968444438, 0.20895153988941267, 0.060562602371005594
0.014179916118187558, 0.2164976568425266, 0.05680135466853674
0.011097841874144395, 0.2190423546899701, 0.056534529599489236
0.013255237697760061, 0.22248227645710708, 0.054531477190627564
0.015899325754511976, 0.2189864853640933, 0.05531095404416843
0.001436444712243042, 0.1995104168422117, 0.06561218330872062
0.0038960417404361523, 0.2141253472219413, 0.05940860752384273
0.004070069109445642, 0.21643732000623056, 0.058448390165077954
0.003701231534059635, 0.20574636893367948, 0.06284574565067677
0.0019012532417992305, 0.19741601293278832, 0.06642084755222752
0.006692383273117676, 0.22827738996187075, 0.04975548731014594
-0.005118683396363023, 0.15044405689425489, 0.06989550188378889
-0.004086957936051242, 0.1444795540458426, 0.07031495321876344
-0.0072929698584470026, 0.1436476837505702, 0.07017199288599071
-0.005745619699932581, 0.16174506517520287, 0.06918062106119705
-0.009480394132910115, 0.1260851924351493, 0.07109281945466978
-0.008513870843361067, 0.14734697377455674, 0.06987690038638601
-0.0067897902801784945, 0.12683560661823498, 0.07120966447161023
-0.008966904505367933, 0.15800602979181766, 0.06921094492317734
-0.008929936460180424, 0.15915734183896832, 0.06914417941587037
-0.002309065778724289, 0.13526443959207088, 0.0709740611938256
-0.0013293044735321648, 0.12460955256768445, 0.0716714439116793
-0.008646729202147835, 0.13288802429970184, 0.07073531730028482
-0.008056715036783716, 0.12525148194672076, 0.07122839608877458
0.00019528363400872004, 0.1256394853892134, 0.07170141620423125
-1.6165769586543776e-05, 0.12855240795108655, 0.0715141520756437
-0.0030459058496008677, 0.1480581338996756, 0.07016312632697032
-0.009865071236677014, 0.1987981826177989, 0.06512717507227872
-0.009060320853428337, 0.2217231538020888, 0.055774052136003484
-0.010952759778666466, 0.21750307915910838, 0.05711274369504984
-0.00791562187908322, 0.21948860170785542, 0.056954326480422174
-0.013015259879281772, 0.22146400965188565, 0.05501326843578906
-0.004393034604981148, 0.21655333295204843, 0.05836030813093815
-0.002350021120786871, 0.21961255169938168, 0.05723890052114497
-0.003603268587364632, 0.2108181033899085, 0.06074046889158362
-0.006630410741305852, 0.22062120075541478, 0.05657125491438814
-0.003690719155978144, 0.22235102700763398, 0.05604446787652816
0.010190833500300728, 0.20268827678091966, 0.06345523440359765
0.0036533257875400716, 0.20188039311596295, 0.06442747943582315
0.006151885838754358, 0.1983190682488563, 0.06563459870084629
0.008455016484977925, 0.19897185656133476, 0.06514189449247877
0.01026477725362003, 0.2121818590679725, 0.05957530986196656
0.007126968564969426, 0.2086444293014617, 0.06132678275059346
-0.007464526714933717, 0.1989132689788931, 0.06535028330970545
-0.005647290533501739, 0.1949301135675664, 0.06707961636601392
-0.004677995768435268, 0.20810204355130513, 0.06178053354251635
-0.005871444904404381, 0.2150382246407323, 0.05888763832767144
-0.006373332146019067, 0.21083356002267262, 0.06056760542028397
-0.005028100735584649, 0.20361524634468056, 0.06358437876146886
0.001045054906349035, 0.22318740055009545, 0.05571070588872137
-0.0035748463987241266, 0.22531618355653005, 0.05318009153149937
-0.02889356285991843, 0.2016470732426084, 0.05791599709818002
-0.028243551579013308, 0.20438508469094085, 0.05700668223596489
-0.030487948847700966, 0.20783255209993823, 0.054094616607355504
-0.028778374140711348, 0.20470124332519363, 0.05654980714454093
-0.025100091272134868, 0.21996104650980305, 0.051513966569908566
-0.028198384886249893, 0.1321186262465375, 0.06539050447411032
-0.022267214631597358, 0.12938257507010956, 0.06789565918603918
-0.023491015978779325, 0.12190050061106396, 0.06789577130411951
-0.024866822892859006, 0.15241190392295006, 0.06539503228364818
-0.027140989320008087, 0.12762234428856306, 0.06609467189275511
-0.030471495307021125, 0.1512476236340628, 0.06326870737173862
-0.026238921321224476, 0.1646014071260522, 0.06407296689040239
-0.030310259967301436, 0.1296255803584454, 0.06472128729931692
-0.02426115023367388, 0.13286683892661444, 0.06688870697156869
-0.026706838987826213, 0.13506037853623604, 0.06578726850978635
-0.024442434929080797, 0.14052323708452988, 0.06632557248540133
-0.031149665787824347, 0.11996839517135877, 0.06501211873229906
-0.024104032548149135, 0.12289850921992689, 0.06759089634024666
-0.02669977427162277, 0.15584315936161747, 0.06445470955854625
-0.022957192517825405, 0.12768473001353708, 0.06773377284187732
-0.014604432517004173, 0.13745895650044787, 0.06933461404295238
-0.014040352346892937, 0.14465426600124218, 0.06901788049247276
-0.019001190361768026, 0.1195199207831, 0.06946758002248525
-0.0198417924432838, 0.1753708540726464, 0.0658629375006525
-0.012831197309409684, 0.12886741046087075, 0.0702501246658992
-0.01796516672446886, 0.1780969131212592, 0.06610811665186166
-0.016415400418804203, 0.12734843270918292, 0.06955604287856315
-0.0197019605952578, 0.17791695004697688, 0.06573773401623628
-0.019783457129185146, 0.17401302697319837, 0.06595889488898421
-0.019080295269917454, 0.13591476500167302, 0.06844626633906345
-0.019658687274834497, 0.1458504086655865, 0.06771083906541327
-0.015614695576522121, 0.1490099478160025, 0.06840543100268988
-0.013355274992575954, 0.12369966667793421, 0.07045148436581997
-0.020636201350634945, 0.12428742513608326, 0.06881658974616486
-0.01675613384946397, 0.14223229943593133, 0.06856980021242137
-0.018908252804612502, 0.15266926577356946, 0.06745808136808629
-0.018501781414437278, 0.22018698745155185, 0.05401761497966478
-0.021394767538242425, 0.20601355417580525, 0.05906457528164804
-0.020967726267820598, 0.20488295215352925, 0.05972550950433984
-0.02156291160220733, 0.20762500108481985, 0.05829555049051522
-0.020162036633502307, 0.20036049135682724, 0.06201483997900908
-0.01182569163326244, 0.224309082583315, 0.053060347835282795
-0.007218153238352303, 0.22939797374652482, 0.048567954105331664
-0.017581955268240624, 0.19740367742993686, 0.06401223064291814
-0.01547031123844021, 0.2159312727795948, 0.05677407974119714
-0.016484199574325988, 0.19704347942176187, 0.06440303234042957
-0.01802202060705322, 0.20791102305771317, 0.05954771720048031
-0.01840696518607445, 0.19488652200530365, 0.06487743211025074
-0.012824882900593386, 0.2046051763349631, 0.062063245822842
-0.019729051961286565, 0.22608399964320097, 0.048640261866079865
-0.016880923557101815, 0.22587890200436644, 0.04999160629682615
-0.021472670602666, 0.2048189136605886, 0.05955513932333392
-0.021945574634682417, 0.206626227174049, 0.058580980460957444
-0.024494177332175633, 0.20967694358284147, 0.056249208572103304
-0.024410549276652854, 0.21828722974556866, 0.052525830179064495
-0.023741998549279743, 0.19580396769446376, 0.06259666863216982
-0.023658811202246034, 0.2110715762337422, 0.055968872671833085
-0.052892691807777656, 0.16888624841461872, 0.04431523821265936
-0.0560382459870845, 0.13742288156642324, 0.043606884876473725
-0.05222406662720862, 0.14462581073791106, 0.04725216799333417
-0.05360999137473822, 0.16748155498446668, 0.043634212230023825
-0.05168514808117575, 0.12738822999026694, 0.04941079547896262
-0.05313015003711567, 0.17761981592464077, 0.04326161570164832
-0.05228181426430505, 0.1435421184808659, 0.04728472669381406
-0.05463903938854963, 0.16305735233537005, 0.042874092231718855
-0.053090388323231416, 0.12149485820652339, 0.048359453243445996
-0.05575631580991838, 0.1436171789990743, 0.0433665767648127
-0.051441138190342066, 0.14476572107402805, 0.048120946861796916
-0.05261234788276656, 0.1216447044071492, 0.04888411236221739
-0.05600868891143297, 0.13159189630663265, 0.04416513730452128
-0.05560241866125054, 0.1383167776063054, 0.044017034177791306
-0.053949107370848584, 0.12212569834168788, 0.047335961035196605
-0.044978252362835924, 0.20738690315971894, 0.0431260545419042
-0.04511636526340071, 0.20698818124158108, 0.04321310624679186
-0.051608307637347174, 0.19547399479490962, 0.04290859802110088
-0.04449076062601302, 0.20969175501555656, 0.04227286766446433
-0.04606797225231726, 0.20267836925995558, 0.044763380027660477
-0.05233075627421891, 0.19583562862025605, 0.041875332962125006
-0.0493930673291258, 0.12348141537473116, 0.05219717966234767
-0.045750820218155394, 0.1555661509587409, 0.052709068518577366
-0.043568924731133385, 0.139492250832152, 0.05574852901745109
-0.04509014801219563, 0.12678812426152647, 0.05548081109868217
-0.047434003909759756, 0.14597981304629332, 0.052066710758662246
-0.044203746894189724, 0.1385334615289633, 0.055300549945927244
-0.04423578660198813, 0.13098422737298962, 0.0558587248255692
-0.045480229702861884, 0.17336551092358063, 0.05155347095450779
-0.04794023827988899, 0.15959704945924755, 0.05059590013483342
-0.04672820266506425, 0.13257175598487642, 0.05368549248276691
-0.04642599351168724, 0.15512405836884793, 0.052187888372999994
-0.04656259496129684, 0.1676855059282625, 0.051102894088287894
-0.04679553965781878, 0.1867950136614765, 0.04943163467155981
-0.04180472195750788, 0.12094128052674373, 0.058636184784235774
-0.042748152214087565, 0.1214623580645567, 0.05781975358315161
-0.044271877581037664, 0.15667461828071083, 0.05383984849507167
-0.036163557951931685, 0.21906899300179217, 0.04477014993131992
-0.0358999855544979, 0.20933635182767518, 0.05007750993870787
-0.03697021338593011, 0.2188800666593438, 0.04420539710659984
-0.03631186134166184, 0.20756173206056358, 0.05066688743186169
-0.03745509672192407, 0.2155527320307779, 0.045546846176213844
-0.03355538260181859, 0.12265129587976416, 0.0634866269935421
-0.03717916197209207, 0.16876512460411336, 0.05816504911312315
-0.03946243602562535, 0.1680844690562006, 0.056873428098039344
-0.035345999189441486, 0.15920124385000503, 0.05990293043312486
-0.03793630016470254, 0.17816504141216177, 0.057069465352857916
-0.03510391507964684, 0.1414208253528758, 0.06127747406719292
-0.03842918758658095, 0.15529729290921848, 0.05836572601990936
-0.03692208384474718, 0.1348348793965412, 0.0606679433053558
-0.039114259137736154, 0.13595602537537527, 0.05930483161974119
-0.0372519320773676, 0.1554445735868408, 0.05904580421339628
-0.03609541137090856, 0.1571265424786566, 0.05960733487586603
-0.035508710812512626, 0.13505257692181824, 0.06148158836567989
-0.037602378671612445, 0.15710670581167374, 0.05872509410489659
-0.03476807485080509, 0.136868879935651, 0.06178995097215928
-0.03778898654891536, 0.13566094077112784, 0.06010236638835388
-0.035431898596983716, 0.13710916927512193, 0.06138405779337128
-0.03246372910448932, 0.19869043018812954, 0.05721937463468798
-0.03282379552225741, 0.2069397463273597, 0.05314586603942627
-0.03312308595204513, 0.21026906752168661, 0.05141156602495716
-0.03112754750274752, 0.20143896867887415, 0.05671597203579711
-0.033294126475039806, 0.20512642025991124, 0.05371909444151214
-0.033695445486518406, 0.2077132163045145, 0.05227262407550523
-0.02661765221114616, 0.2237578267589434, 0.048107713388840165
-0.04054623622018231, 0.21219961240085283, 0.044757824560968544
-0.0394763873550725, 0.2142475865018545, 0.044566736554121626
-0.03921028654064471, 0.22074933764483795, 0.04138497420988556
-0.04117514048213533, 0.21355201463637866, 0.0435331170518242
-0.04063599546779093, 0.20423556090724337, 0.04884948772685969
-0.04244110118278773, 0.20250102663011976, 0.048271797102903524
-0.03824808744152649, 0.2229348784813957, 0.04088507325891084
-0.03792781859653778, 0.22325819429208205, 0.04070500105398132
