-0.14833367822804713, 0.3674398005445912, -0.15774857321563304
-0.1451583484768584, 0.3675709467695151, -0.20121091810764113
-0.13000071060371537, 0.49727379457667154, -0.08782113540228562
-0.10233835028966197, 0.49584510065198933, -0.10099191349973007
-0.13715609436542492, 0.4945195671965678, -0.09041530760000652
-0.04000276370167923, 0.9854247377257326, -0.3128061963403508
-0.04387070553986393, 0.9855965992248746, -0.31285278003906797
-0.1382662782923079, 0.9893173448912727, -0.31296498352878493
-0.06699816761064338, 0.9806267316691472, -0.3123747535074921
-0.15782977710576948, 1.007756628891265, -0.30282722240542026
-0.17576337447736315, 1.0097181784792584, -0.2994632025284365
-0.018023758098033336, 1.0037315253191406, -0.3053268082291113
-0.0387776870763774, 1.005666688846784, -0.30420626909813564
-0.1312768462354467, 1.0097574073904965, -0.298168560993859
-0.11681353564945995, 0.9929578279568589, -0.31285705977589184
-0.0232299018251276, 0.9042234485339073, -0.30011767615737595
-0.012767126526527475, 0.9231612373469285, -0.3033002089184227
-0.04051942868667023, 0.8986433860530212, -0.2990706801703518
-0.04152799631965265, 0.8952626272161517, -0.2985282302658101
-0.05979009486573888, 0.9166938953463931, -0.30199692437941655
-0.05323494361641087, 0.9320972108004553, -0.3046515992345643
-0.02922230437629559, 0.9519756996857502, -0.3079289706549019
-0.030040910117883332, 0.9054962823729279, -0.30029029470444324
-0.03879606878334842, 0.9164962497394633, -0.30205346888542584
-0.0652223560261642, 0.8857329514971419, -0.29684378165891256
-0.06395196870238208, 0.878903692382121, -0.29576692023155055
-0.017435820381878894, 0.9488469911617744, -0.30744923434571075
-0.040092112729737936, 0.9328016587418944, -0.3048090657715683
-0.045450066267685905, 0.9024273977421037, -0.2996612391654371
-0.152968963532765, 0.8866997197958654, -0.2967785835515667
-0.1582560554967692, 0.8899549874166823, -0.2973005463137399
-0.13172622725019004, 0.9132860155318122, -0.30123488745466626
-0.1313404866702572, 0.916796451191094, -0.3018549014500049
-0.026949976817633524, 0.9977718778991389, -0.24801963001498234
-0.016078844255108353, 0.993690153450554, -0.24136285459572182
-0.022250614637290875, 1.0142619997413183, -0.27856551759692566
-0.033053788622284565, 1.0147734486135997, -0.27678223781098765
-0.041591035144067964, 1.0106723111392921, -0.26684161710533433
-0.09182799986071483, 1.0119081836559953, -0.2550102075435501
-0.08363778535750241, 1.015710441330398, -0.27522572683038754
-0.08602015607113413, 1.015275271362538, -0.27077952139324013
-0.10219075926525248, 1.015809333633156, -0.2759373775887993
-0.02766765584089799, 0.9544851725882673, -0.22310590257771418
-0.041430076690011815, 0.9326779509953156, -0.2205207696711028
-0.04131638985519599, 0.9579928692537173, -0.2318575581548573
-0.03146612617673274, 0.9265435549182308, -0.21271271493735144
-0.028031915916674296, 0.9410662405392056, -0.21732030438685956
-0.06557600050227264, 0.9763201962822803, -0.2376445301803221
-0.07660811562037452, 0.9826072942260479, -0.23658716755041184
-0.064481397454258, 0.9902665238089403, -0.24701588091392948
-0.07191447169533276, 0.9878590190316345, -0.24186420867732422
-0.18105036557734375, 0.9888143345833644, -0.23878536139403345
-0.15870049380079596, 0.9894593026291787, -0.2485307526450124
-0.02830661466426372, 1.0067635750090713, -0.2572817772850935
-0.13265824081563374, 0.971410392956459, -0.2335638136121215
-0.11157528174938924, 0.9576904254061083, -0.22026560899719197
-0.13697058702841805, 0.947620350851662, -0.22320503668142594
-0.13767473452080978, 0.9485021316289456, -0.22398133293868058
-0.12768585325744497, 0.966706266765123, -0.22833189397420883
-0.1360275338339359, 0.9600968119680879, -0.22914758706933022
-0.12119391515930075, 0.937945569097986, -0.21245213469453963
-0.117839160023785, 0.950484178561751, -0.21778996289600222
-0.021025263638712367, 0.5429631532704569, -0.24795996712831916
-0.026531018078514393, 0.5429579736783332, -0.2479217951405131
-0.03602037169373629, 0.5853785137158959, -0.2537143157472195
-0.03747863547386619, 0.5825814179548527, -0.2533181717495624
-0.053550653600984585, 0.5512608317879413, -0.2489230277247771
-0.04386358306398311, 0.5191961249361091, -0.24451279933879927
-0.04072492741433232, 0.5216849053603578, -0.24486570334368107
-0.03157774540068945, 0.5414540473473475, -0.24767519550607092
-0.02709920135300234, 0.5237311354386337, -0.2452136994765695
-0.0272983597155189, 0.5279814899687016, -0.2458097450047228
-0.04198391970747563, 0.5415631676627413, -0.24763483653341306
-0.04896351754333401, 0.568288247333099, -0.25128696444777077
-0.052677834131371636, 0.5728595005475654, -0.25188379028287766
-0.12604227943757385, 0.583248263062468, -0.25296154894790046
-0.13458300254436945, 0.5825949712661016, -0.25286289407887014
-0.11682284183731279, 0.5369933097190273, -0.24676763836524568
-0.12320405684797886, 0.5373216712180402, -0.2467933541778454
-0.1535581479880118, 0.5513608470757629, -0.24866320623064006
-0.13977113854553258, 0.5275427751168735, -0.2454340223112319
-0.1391917074871326, 0.5242501364995912, -0.24498760221900445
-0.10869917792287774, 0.5080663678979628, -0.24287437673566165
-0.12520650499546634, 0.5393929678493896, -0.24706741837262663
-0.13425848697511836, 0.5489823045949587, -0.2483371703955712
-0.1595623301542837, 0.5935403846962751, -0.2543908599039728
-0.14811997903362148, 0.57481037570014, -0.2518220380152506
-0.14172770837925142, 0.5542857513548711, -0.24903343998888985
-0.060333905993696535, 0.7212744500314464, -0.27210563026284196
-0.047246757499777914, 0.7147972954016772, -0.27130518414562643
-0.0387825328176118, 0.6630182158684725, -0.26428909196005224
-0.035658087240326077, 0.6709252720548364, -0.2653801343747424
-0.06549668915683257, 0.634639435095751, -0.2601762053955554
-0.05669240005374149, 0.6359912629327672, -0.26043116212351575
-0.07365195587603482, 0.6824818763201574, -0.26655340713815867
-0.054306862732108455, 0.6915413754290916, -0.2679238925878046
-0.04717584660646378, 0.6739424155746285, -0.26564551833197003
-0.03631299485072315, 0.6405529427257205, -0.261248038204707
-0.037471401447137107, 0.6392889432065978, -0.26106388122374274
-0.0649371339189866, 0.6792128037034026, -0.2661810436319254
-0.05633659492304366, 0.6697015464285198, -0.26499429477667674
-0.06858472249226492, 0.7224101941977035, -0.27219725450157706
-0.06901879115097814, 0.7159075585607715, -0.27126526083069435
-0.14852037910962407, 0.7087516544879674, -0.27008266063584885
-0.12912102257738742, 0.6705780540640272, -0.2647201525784839
-0.13440459763598533, 0.6687992505004592, -0.26447460023708563
-0.1667300093254115, 0.6793751669301371, -0.2661185908576509
-0.16528062272716987, 0.6749525865376013, -0.2654911442715471
-0.15880851528059628, 0.6405542334307, -0.26073172045389925
-0.15954519692976848, 0.6484965377933631, -0.2618075975086216
-0.13774359688110588, 0.6342315781520736, -0.2598049200363762
-0.13673341175865888, 0.6449573013462315, -0.2612511970913094
-0.1489755375539243, 0.6869959108151962, -0.2670048653222279
-0.15803408014204096, 0.6784253163357039, -0.2658815387209652
-0.15571109253585702, 0.6847527963971174, -0.2667396418905818
-0.15951802693857892, 0.7127336209860713, -0.27072857899082436
-0.1615553668284643, 0.7084134568994054, -0.27013538379130775
-0.022239973623892597, 0.7931874619824489, -0.28283314579457564
-0.010070412212316648, 0.7989230168713497, -0.2838933469089684
-0.017425170381213294, 0.7679762921888798, -0.27930834061091603
-0.0196104064013865, 0.777008660478862, -0.28056407355538443
-0.05227889130149114, 0.8177537473227833, -0.2862074747565337
-0.041599141955351755, 0.8252846912289548, -0.28747894613299907
-0.028293996176359203, 0.8271056075180604, -0.28792471616564524
-0.03388926046978494, 0.8120349452014455, -0.2855429696810062
-0.03777104849818365, 0.7715713340676623, -0.27953315377613985
-0.0428824074919409, 0.7629625208563263, -0.27823976320126786
-0.019656141503512706, 0.8286555672311552, -0.28828286124899133
-0.021254804794859285, 0.825766091329625, -0.2878105129586097
-0.041837970743420966, 0.8067920751260947, -0.28464687402836125
-0.11428961448579773, 0.8025105123402871, -0.2835263090753045
-0.10320802345046463, 0.8178194358854092, -0.2858600221771971
-0.12053216020176619, 0.773801198166267, -0.27932976155850997
-0.11603316843565206, 0.7714720912796615, -0.2790024698346289
-0.13525574481678254, 0.8089875793324257, -0.28451870680737856
-0.12956216359589853, 0.8180455608397467, -0.28587603797121763
-0.1138208515335063, 0.8256847491681323, -0.28704322921253056
-0.1738066335449468, 0.3680974919553039, 0.2881568776869301
-0.14074966222775534, 0.3680659638878613, 0.29641994921802434
-0.15908307853125864, 0.36815178891429196, 0.2746694691049436
-0.059521932499340034, 0.36839147194555255, 0.23295988109370264
-0.05893899655956883, 0.36838138423288647, 0.23804642334713877
-0.07112026836355717, 0.3684654408787037, 0.18365017027764294
-0.07159213929724131, 0.3684733931650398, 0.1693496137778413
-0.0700624725831028, 0.3684579375107366, 0.19425365890099291
-0.050814766595549773, 0.3683775294285848, 0.17725128737694046
-0.05195491001297123, 0.36837237475957274, 0.17100796734125912
-0.04819514818677002, 0.36839186522300915, 0.22353525499637428
-0.047341356663046175, 0.3684069277443999, 0.2060731560235382
-0.04856220096243348, 0.36838822514111674, 0.22789179849680977
-0.17956315726026856, 0.3681978926808727, 0.1688390567044358
-0.16542647653840653, 0.3683465565571073, 0.18107371409880016
-0.1629492615021206, 0.36827963940359465, 0.23228479121167223
-0.16053854313891996, 0.3682576465916444, 0.23847895736146033
-0.17042374221181433, 0.36816994236044, 0.25757416383196097
-0.14751752879524377, 0.368513607044977, 0.16967506898772117
-0.14745390010890824, 0.3684306762636612, 0.19415150068738868
-0.15160624335800588, 0.368484984192985, 0.16574765615065834
-0.14181375483242617, 0.3683599637099822, 0.22165007806285875
-0.1445493697199255, 0.36822958755815216, 0.25133837299146367
-0.140475444444444, 0.36821402951501364, 0.2564457829975461
-0.06814535610253326, 0.36845871943598507, 0.15004495163357198
-0.06806484536262301, 0.36844686368269125, 0.137778238587913
-0.06041977028085609, 0.36843782018528576, 0.19578131237733445
-0.05039607561035198, 0.3684164649496702, 0.2001741300218144
-0.06154961728203814, 0.3684388867176357, 0.1980681544272346
-0.048497653620043955, 0.3683397966345973, 0.14738490649850464
-0.05106489461024355, 0.36837777861484794, 0.12360350125503955
-0.04810860578301094, 0.36834943822747424, 0.1738397538444737
-0.04513963839867034, 0.3683077894626116, 0.1673576974639064
-0.14124938267884862, 0.3684668069721852, 0.19274697269333835
-0.13246491051093046, 0.3684522889873191, 0.20039918465347778
-0.13840552732546882, 0.3685077480280154, 0.18177413583027474
-0.14600763836079828, 0.3683172314642377, 0.13613733662195612
-0.15184929778165693, 0.36829488063358407, 0.14062468611963516
-0.15145424009594033, 0.3683851286020933, 0.20081907819611358
-0.15585973478623885, 0.36837720222448334, 0.1897650296669078
-0.1621389073022437, 0.3683633009308416, 0.18667529982054176
-0.07573073091882673, 0.368467906792845, 0.08901167993520445
-0.08060749281967657, 0.36846445028222663, 0.09294946993171997
-0.06301238526032354, 0.36841339696056846, 0.13999496747881862
-0.06445632988019193, 0.3684362757017101, 0.152621749462083
-0.04482172832200988, 0.3682400952624184, 0.15254687371338888
-0.03692432864609642, 0.3680223485140523, 0.15884981023987968
-0.04247228548642126, 0.36818681537933984, 0.14529664778529885
-0.05847617394558952, 0.3684240960974451, 0.10253073679796273
-0.05683139707760884, 0.36843581895625377, 0.0939237311762355
-0.13852147837305862, 0.3683396360656568, 0.1372828176382429
-0.13612910264425757, 0.3684879148108954, 0.15420251837377225
-0.16341605101264772, 0.368347457387945, 0.16072115329115033
-0.15338789549102194, 0.36814487004087265, 0.12738360616446467
-0.14668131290639383, 0.3681610317698325, 0.11568939814702345
-0.1489680464573325, 0.3680707240627664, 0.1001315333668445
-0.1735487690422703, 0.36792740668476004, 0.13142601754406633
-0.17973741402857762, 0.36775735762638384, 0.12339469366170253
-0.17860533863085504, 0.367923419351896, 0.13701104779477707
-0.057859957345819744, 0.3684182688824184, 0.10573605041815747
-0.06646008612069906, 0.36845368726379707, 0.09807474860644563
-0.07639290300466497, 0.36855038115788324, 0.06817356676573146
-0.0692437352601113, 0.3685815135564629, 0.06737189689805179
-0.042629872109848276, 0.36826293978555236, 0.1059594300370829
-0.036255089441909166, 0.3680863465852466, 0.1196401540259661
-0.06258031320858462, 0.3686705550404924, 0.052060231778317353
-0.05651706519035157, 0.36855615900507105, 0.06883310999241025
-0.13082318078763505, 0.3683070597452506, 0.07575768776077482
-0.13280161720237893, 0.3682888866536761, 0.0846066859649369
-0.15356384607692528, 0.36801073472275037, 0.10095883295434804
-0.1537864815662341, 0.3679906679422795, 0.09757406017024556
-0.14285300212111704, 0.3681725786449424, 0.10394469083296698
-0.14021161552934772, 0.3681997729683063, 0.10004326108673198
-0.14719977526977207, 0.36791805007955264, 0.0555021535584793
-0.14807827495682088, 0.36792549719705014, 0.06096178954344451
-0.1480025672757227, 0.3679883283161566, 0.07696797958300082
-0.18040008837785088, 0.3677004758865135, 0.11468827166931612
-0.17546295136449988, 0.3676950426366757, 0.10105308549739797
-0.06883325069458704, 0.36885168536776036, 0.016431077139282102
-0.0744953520413156, 0.36875942881629464, 0.026169724329279685
-0.056524582825914126, 0.3685091142509882, 0.07639149930765028
-0.058110916679044215, 0.36854093041808167, 0.07185094843965467
-0.05218426285933318, 0.36870977781889397, 0.03706277175409775
-0.05405102010768591, 0.36877699562891575, 0.023078923173518697
-0.035499029924874706, 0.3681703752952665, 0.07871953593610759
-0.04619264145001034, 0.3684743798853008, 0.06981771703372888
-0.1310457027260039, 0.3682241031270533, 0.04629089935011292
-0.13938309808950264, 0.368028820891392, 0.03981711843014534
-0.15465648943237337, 0.3677752928123046, 0.0536852924823327
-0.16152859840166678, 0.36768204233745405, 0.05977423716604324
-0.1454218989008131, 0.36789653993123406, 0.04268915417579981
-0.15291404753234522, 0.36776516857002406, 0.04426495994584122
-0.17172840555587762, 0.3674659842729412, 0.05196273219342328
-0.17311395520433392, 0.3674981537675487, 0.060194332612111816
-0.08494474015834003, 0.36852979606407993, -0.02188659568867125
-0.07666969433494998, 0.3686758602516039, -0.00956863076171174
-0.05713663918089523, 0.3686766918618025, 0.04774778543310673
-0.0646982259992917, 0.3688195844521353, 0.02304457562008962
-0.06292024412227497, 0.3688204627900918, 0.021690317899091552
-0.04808527276718928, 0.3686528516078854, 0.04514710090168423
-0.046198046376428825, 0.368677611440218, 0.02772450058160139
-0.06327363389561588, 0.3686991219411947, -0.016782275752094792
-0.055626742517203565, 0.36870893609938354, -0.007780212087534245
-0.15732096447192723, 0.36763880657606246, 0.0330946558645122
-0.14742085020715065, 0.36774231668155655, 0.01250050608395454
-0.18121590078475558, 0.36706725784911376, 0.01705963288746866
-0.17751324417182332, 0.36710689046464373, 0.012377303309641683
-0.15480376214548086, 0.36754917500749756, 0.008918081543969905
-0.15294964876317613, 0.36754327252066543, 0.0029123138238779083
-0.06499126881169993, 0.3687198305568331, -0.014523554489988034
-0.059372552108508905, 0.36881882608467675, 0.007319353585092879
-0.07393525092411632, 0.36833077517542556, -0.04764783216098871
-0.0786519777469235, 0.3682436260899459, -0.05251437386038348
-0.04688655875710886, 0.3685678389791111, -0.014453272994276772
-0.04307212777725942, 0.368561448338607, 0.000248640823698432
-0.05065048512377181, 0.36820707016494847, -0.04828273407288931
-0.05297432519293645, 0.3683536659002184, -0.03988519681948235
-0.17867899314032581, 0.3667949426936014, -0.059421961402605944
-0.16795275484234287, 0.36699472567144853, -0.03687777220858013
-0.1657880268841357, 0.3670489489824209, -0.0526042518074579
-0.1780849099212481, 0.3668197150783761, -0.01783203117788254
-0.17151515206275197, 0.3669822869831381, -0.016119310212407156
-0.15378381907161545, 0.36734121340337, -0.019834267543802592
-0.15733576971603594, 0.3672265795919113, -0.023857131882000872
-0.14037303653654276, 0.3678603681664138, 0.006181530414821782
-0.14066815247802403, 0.36767674440037407, -0.016124265956911115
-0.15254445635757277, 0.3673312916366024, -0.06000525930504562
-0.14618957258926096, 0.367473586346072, -0.036665067379487784
-0.0627493941913654, 0.36828307673175475, -0.050545173691933336
-0.05542776003201762, 0.3684545282921127, -0.034339304494346336
-0.0693743395205595, 0.36814431424717087, -0.06302104298657032
-0.054513678236460195, 0.36776718358744837, -0.08301761448563649
-0.05919825516911337, 0.36801456936302424, -0.06833069574406832
-0.07209744707664847, 0.3679031596480219, -0.08493608997477012
-0.042866716888450465, 0.3682331243840057, -0.028713125420721887
-0.042221607255546495, 0.36822232626413154, -0.02749925826163421
-0.18280701330515142, 0.3668193179148908, -0.07344759886211337
-0.14723657772303292, 0.36745206146179554, -0.025096057900691526
-0.16123449228040546, 0.36713085738281365, -0.025916243588761358
-0.1371272317948207, 0.3676135178699661, -0.06649562750152228
-0.1562969704900587, 0.36728890937706815, -0.08429303948222555
-0.1510149514258852, 0.3673704516075171, -0.06344155909200784
-0.1459129671324541, 0.3674702320512247, -0.06284033157424374
-0.14457726299491278, 0.3675116957543326, -0.029841933902832303
-0.1421620443047645, 0.36756930560005746, -0.0381631383848548
-0.04361841597336877, 0.5015437394618779, 0.25593117449583336
-0.015414993950512657, 0.5023444536466661, 0.26435263672522563
-0.03405789330629069, 0.5036082611418026, 0.2573808718624585
-0.1516026502873906, 0.5021120888597013, 0.2571996161928065
-0.1486359507425905, 0.5031840269910197, 0.25562667120715343
-0.1482293229296144, 0.5019283728445654, 0.2612305619211402
-0.12314086756902208, 0.5048241849869648, 0.2611856544932754
-0.04709186740056762, 0.5087739984844042, 0.22178876698374783
-0.033362680516868214, 0.5062040696615865, 0.24794352041094644
-0.013593095144694416, 0.5105831854453355, 0.23293590474477066
-0.016940435802968244, 0.5083806114802127, 0.2419100652412273
-0.04151313141658443, 0.5122304679873233, 0.21204369350261143
-0.15620171548463777, 0.5077681833715617, 0.2163073956942292
-0.1397468061306097, 0.5082099040234463, 0.242587083894954
-0.14368270022076635, 0.510581504863251, 0.22544749642143005
-0.14800358594588267, 0.5105525602496215, 0.21407056520853268
-0.12527211316529768, 0.509968740338619, 0.2398534536960894
-0.13548668547855472, 0.5113678159930459, 0.23165665736539148
-0.050367215105739424, 0.5128647431015234, 0.18271082137379785
-0.0339087951757514, 0.5175421246366712, 0.1953070305529422
-0.04258252036477543, 0.5158349344368452, 0.1893118594048993
-0.01336268858515534, 0.5142038206470443, 0.21685281559324449
-0.028016080083530518, 0.5191828536390208, 0.1904151021509026
-0.04152252402641286, 0.5167588995351616, 0.18182132398711146
-0.15699199469148423, 0.5098236369295662, 0.18862550828567864
-0.1415287116593234, 0.5142119883452025, 0.20523039837060808
-0.14100057499689844, 0.5129461332791977, 0.21411141138479917
-0.14671941303751154, 0.5146091880330499, 0.18386466658297473
-0.15195005108965243, 0.5123129009910334, 0.1773623001810453
-0.1376075101385614, 0.5178328030269962, 0.1907230613049663
-0.12419944819138412, 0.5200580705509703, 0.19048897784544921
-0.053655310196858305, 0.5129671172858408, 0.13329746650787594
-0.03425934533183585, 0.5202136332204615, 0.17364024388480706
-0.04151790696822289, 0.5187528268543231, 0.1549090868139842
-0.045034884041707295, 0.5182681354861409, 0.1133753342866178
-0.02697409204541448, 0.5235333855473393, 0.1537918802658937
-0.01432955615650302, 0.5251855975430763, 0.1493804624576595
-0.014444666602278632, 0.5247481404352503, 0.1528002732175327
-0.14541066295091104, 0.5160687508085421, 0.1557716744933355
-0.14130768057802, 0.5183940253667281, 0.15312945238185635
-0.1245868780534693, 0.5209113849815672, 0.17659945569403737
-0.12966791274826595, 0.5206320073583529, 0.16415998432645623
-0.15525116392312202, 0.5114942441607521, 0.11820502300459904
-0.15213381342086024, 0.512791397592633, 0.14159650708866126
-0.04969175114207383, 0.5154965199714245, 0.10476767578870322
-0.05335949364738081, 0.5130192338211516, 0.08451788181160397
-0.04226685200027674, 0.5197127348268518, 0.11383177856267478
-0.04315226314166164, 0.5183118413863593, 0.07793085199586626
-0.038664844932399696, 0.5213073274912206, 0.09747019276988918
-0.020245804205975115, 0.5256479920287451, 0.12392177650704844
-0.030424477457020576, 0.5250023047153456, 0.11249955522272284
-0.1293527843080577, 0.5220861213328186, 0.12215458069038704
-0.1221101490718723, 0.5235727870874483, 0.12649498838124187
-0.15439749230972605, 0.5115568965673044, 0.0962633664264373
-0.147594311278964, 0.5147671718702526, 0.07679107104468877
-0.1429216237075686, 0.5180885698447101, 0.12675621704248174
-0.1425306197000901, 0.5184917131636452, 0.1181198556404414
-0.042173895364547756, 0.518773057885606, 0.07823140285963995
-0.03484065807519897, 0.5232708905904907, 0.09946732920497053
-0.054066482860584276, 0.5123304963327564, 0.0719379921128252
-0.04283694884157048, 0.5163230731137114, 0.05201175009535115
-0.04428660753268587, 0.5169796269680886, 0.0666324106272167
-0.016368130841516972, 0.526260965986447, 0.1037196438522713
-0.01568211928565343, 0.5242646598849905, 0.07715226899851182
-0.12941936584496716, 0.5216194017888911, 0.08029078823392724
-0.1299980927959234, 0.5213872091206817, 0.0745082932397256
-0.13153424985356407, 0.5173452447578375, 0.043095401418163114
-0.13081657383774753, 0.5171388523259035, 0.04006379245053884
-0.14732974634393747, 0.5155247167475827, 0.09650653868818879
-0.14599342864904552, 0.5162506708937972, 0.09606673976222287
-0.14023569541191666, 0.5189698486558608, 0.0792712778968745
-0.1535789171471481, 0.5086653925476083, 0.05387883376354846
-0.15065250022050258, 0.5095938540102581, 0.04863798111691732
-0.01825102035309556, 0.5226440850558491, 0.06057646710363954
-0.031028150798719942, 0.5193004780721132, 0.033797815470865814
-0.014039831196901116, 0.5213538443198534, 0.04441770796552508
-0.037090942708415266, 0.517827325327517, 0.04083534350636626
-0.039102309682839856, 0.5140616861554184, 0.012250690549915004
-0.040833262857229186, 0.5135651444958101, 0.015039786479944618
-0.14813003384416135, 0.5130389061398648, 0.06351183828919829
-0.1403913945888566, 0.515168094094365, 0.04724583478828055
-0.13235620970108442, 0.5135153791689268, 0.011472859267035642
-0.1320409534481003, 0.5140628233406855, 0.015520547300862173
-0.1460378913928226, 0.5070890796842709, 0.00918449503519787
-0.1524255453063716, 0.5038553379543619, 0.013171750939468901
-0.15789267671274668, 0.5070254103546646, 0.06175961483362369
-0.012506430882209638, 0.5185369306868617, 0.011261252872336702
-0.013317202105710715, 0.5188158302039314, 0.015454554603865845
-0.03752381244423785, 0.5154646302858528, 0.018783289554908093
-0.04740597111221736, 0.5114335627621895, 0.02488620407306865
-0.03874308393354932, 0.5078929027652371, -0.033023591801737334
-0.04198904688360669, 0.5086042101198824, -0.01892668094428259
-0.1441220980864638, 0.510741851080791, 0.029745636360836346
-0.13885887361365373, 0.5133057506486884, 0.026542402331143473
-0.13704115833652752, 0.5098029399655115, -0.009766244967460622
-0.1294816016671127, 0.5102948683080258, -0.02188834795748533
-0.15012353384785326, 0.49895109879972377, -0.033372475955464845
-0.13743160008371888, 0.5059949309126017, -0.03880571200620219
-0.02045408154625352, 0.5131754329137631, -0.025066803428732437
-0.02133790476003513, 0.512458861205081, -0.028859719138942735
-0.0370814351486684, 0.5124900325445451, -0.0082809296567618
-0.03460996943291532, 0.5119648925460318, -0.01867211296403667
-0.04206596646889643, 0.5076900729151433, -0.02467871061270225
-0.037506878044894804, 0.5027427472607824, -0.06148875045904471
-0.13203531638229185, 0.5049558048225463, -0.052167871764256885
-0.13337504198078243, 0.5053234442377124, -0.04868838576003695
-0.14549960914424015, 0.5049998483515006, -0.008997908367196512
-0.14195047962046903, 0.5063108521905908, -0.01521205540133128
-0.15425835482810935, 0.4982111199226278, -0.018328130365799174
-0.14735479967663534, 0.494226752401575, -0.06673871563422873
-0.14177219692591253, 0.49601575132855635, -0.07371434104623659
-0.02588296195133621, 0.5031697090422996, -0.07546629482875103
-0.011715880576352793, 0.5105567483685011, -0.04195246125845488
-0.020884211160788934, 0.501742387374988, -0.08243637279582494
-0.03195658701617113, 0.5067304124546458, -0.05422970632680639
-0.02620199560130423, 0.49696344224818606, -0.09623897793655417
-0.034663112215241876, 0.4984072840730701, -0.08704032724674149
-0.04278104305928149, 0.49886335701892076, -0.06760324549963764
-0.13853409503316444, 0.5049272685523725, -0.04101910263526769
-0.14683654422914877, 0.49875220306285883, -0.04622827192543086
-0.14870560579067826, 0.4884955543009921, -0.09121912335216971
-0.13758778372382113, 0.49746267510564884, -0.07814434013456557
-0.1409965581205944, 0.49394067758161725, -0.08513495860689499
-0.15374851614733176, 0.49288881122795936, -0.05268348698698008
-0.04194182978364101, 0.4251659621838877, -0.22817732408049274
-0.05443175206114198, 0.45846911699430204, -0.2352554245176236
-0.07174341062827007, 0.44527887022458873, -0.23264223499507478
-0.06413575178011309, 0.43420886830713057, -0.23025720949526504
-0.1435621718585941, 0.43291406849694847, -0.2285177602128109
-0.1474115167779402, 0.4456060617871584, -0.23159350152265112
-0.15465224993885085, 0.4308064169786635, -0.2277719700087118
-0.16459790439965263, 0.4449868769938887, -0.2311653769395842
-0.03651717556319321, 0.40434472859780457, -0.22271235763424427
-0.04962924607620717, 0.4376847220294757, -0.23103682922166177
-0.08557936213382057, 0.44004268854608725, -0.23154873844967183
-0.060759559143704685, 0.4111431056921162, -0.22454883097938294
-0.130201962936345, 0.4041638415888012, -0.22114884977122226
-0.1382314259033638, 0.40655930416263064, -0.22158902365075184
-0.15170142252999322, 0.4332968041207045, -0.22845700467801067
-0.15818939214281394, 0.41053315842912164, -0.22230757456997174
-0.17484169194882335, 0.43677170478788907, -0.22921650040494787
-0.044027414888611616, 0.3955236103516236, -0.22294691631569327
-0.05724089713150853, 0.42193286764556764, -0.22744844396045827
-0.0818330307454875, 0.3828804983328813, -0.2231933266160558
-0.07596513297751226, 0.39460078579043856, -0.22293144889749225
-0.07320982561369971, 0.40912382621404697, -0.22399576833488188
-0.06514641554964633, 0.3989472020502895, -0.22273349545945909
-0.15082719203395734, 0.4211864839503443, -0.22539720166947774
-0.14194084069449442, 0.39200989823146176, -0.22127519145200764
-0.1681254673417298, 0.38964661230739295, -0.22031161939365426
-0.15604313629817293, 0.37952284518544377, -0.22058315875433807
-0.18124630499620414, 0.4198717150454124, -0.22485784903982564
-0.15895842520093562, 0.3857756436754769, -0.2209930864519548
-0.13717233207761434, 0.3675538193556934, -0.18782466305926518
-0.1462794850241229, 0.3675838350401832, -0.2053440421607898
-0.1115650433635327, 0.36761436123590996, -0.20248617627264334
-0.12448062294040983, 0.367565497219886, -0.18470741452491507
-0.12067491775762192, 0.36757730908658226, -0.18727183285008522
-0.17161789711024666, 0.36747593805783574, -0.18257370435114917
-0.16771680153718382, 0.36820228339169064, -0.21424710713336312
-0.20221518188564766, 0.36756404899433365, -0.2110452743099427
-0.17367133400102783, 0.3675446596364525, -0.20030211871610398
-0.16332449413570518, 0.36749286756187544, -0.18154339119077814
-0.06020264455447627, 0.4894386723565409, -0.24037495143852214
-0.04761182304524395, 0.4632946186333455, -0.23612620374679508
-0.07377326759265346, 0.47456585967358417, -0.23817706311639125
-0.06165163274528505, 0.4511119963427925, -0.23380389088195075
-0.04614012622306858, 0.442674218268548, -0.23211153569558174
-0.052759074636221266, 0.46802433169070734, -0.23698204720544483
-0.05001804826280525, 0.47378780898978523, -0.23801348968562366
-0.061429927357171815, 0.4673037874374329, -0.23686361917716584
-0.15536349574666422, 0.4899820588137422, -0.24023967336053198
-0.1417758667597761, 0.45877643457721107, -0.23489561666341752
-0.16449823767064242, 0.4690501695871018, -0.23663350839274155
-0.15393142355282974, 0.44841999655046727, -0.23213809180904604
-0.1590206958045018, 0.4457727167900173, -0.23141214257337672
-0.12680775549202317, 0.44110112197366536, -0.23093266771638243
-0.14763283444588182, 0.4682582670782971, -0.23670090711682973
-0.17111936144151693, 0.48877320182971784, -0.24004300713101848
-0.1560230223999915, 0.46971515928395413, -0.23692457259414668
-0.016333723104144, 0.4893695863286077, 0.2962241678452958
-0.03247400591212931, 0.4599721010001686, 0.3232228648859369
-0.046413938464934176, 0.47584670164091525, 0.3114195331827949
-0.03956544260017604, 0.49311463889776175, 0.2853496850812617
-0.02384478041495864, 0.4969574810165647, 0.2780269679159494
-0.0430151631691049, 0.4771025010656855, 0.31188124701471237
-0.13522519685916173, 0.4798376085344655, 0.30675011612305636
-0.11939577446033567, 0.46354486421793756, 0.32206916349977616
-0.12234286482025852, 0.4683158733304925, 0.3182044908561517
-0.14380131279844205, 0.4884753333068525, 0.2933406209547743
-0.14527143997535671, 0.4757857353595597, 0.3109795895466434
-0.14170376492999368, 0.4845310524138292, 0.29963624839867187
-0.013479688582868696, 0.3815307800590958, -0.22310647635661834
-0.05992287205622903, 0.382802245723782, -0.22321272245809579
-0.04885285474152376, 0.3892915550231079, -0.22327200949079107
-0.03116860486917319, 0.3980503650585184, -0.2228289768758748
-0.04578128373437338, 0.38479535963266576, -0.22348884051663434
-0.10735343292192187, 0.38167622593736794, -0.22273339633172315
-0.158889161800007, 0.3993716243791025, -0.22048509466084815
-0.16255219528284837, 0.3842213424405711, -0.2208303058542494
-0.13967956951357843, 0.3773511640585344, -0.2209976441117315
-0.13206338907422288, 0.3979507100205695, -0.22121038024759723
-0.04060762001846403, 0.40301238443702875, 0.3218731916465724
-0.0208337939529706, 0.3867675041455968, 0.31869368389695163
-0.08009979188627864, 0.38532440692202213, 0.31769521996472705
-0.10365546233520008, 0.39157881328961364, 0.3214427081475631
-0.11531085111903448, 0.39926328589895305, 0.3237538326552878
-0.131624593512779, 0.3752672520235211, 0.31394917390355337
-0.10267229694886527, 0.38025961824104804, 0.3161968636382687
-0.13544447363033374, 0.39956177012312366, 0.3230757069257544
-0.11034424712282448, 0.37937945866253353, 0.3159591057678385
-0.07143421320289091, 0.36832738151939237, 0.2604858317034275
-0.07120741800124322, 0.36828014094672534, 0.27425682649298194
-0.06502987440378023, 0.3684401134555387, 0.2064054335015647
-0.051260292131330466, 0.36841273724104334, 0.20669977387610583
-0.05431205128649087, 0.36839935859133466, 0.22718275220520262
-0.04723712704056991, 0.3683640070663524, 0.24781572927612716
-0.0736561084266949, 0.36843953747993385, 0.2092846423663818
-0.07065939479107092, 0.36842458137577166, 0.21557474573315055
-0.0687425650188097, 0.3683376053396731, 0.25681438365883713
-0.03565853296496039, 0.3683022380823602, 0.27072910900922753
-0.05765075779374549, 0.368358170089756, 0.24998387880152495
-0.16336546469250396, 0.3681198450348848, 0.2851175162142624
-0.15853659539835474, 0.3683518992880831, 0.2163933669186381
-0.15227853709501932, 0.368340733027553, 0.2218907735624936
-0.1527400253157076, 0.36834918333827593, 0.21966919975780258
-0.15258908525573844, 0.36816539984448005, 0.271644503906707
-0.18016107822020871, 0.36829630621401394, 0.21805477947724416
-0.17907595484946656, 0.3683074296652793, 0.2158373243594512
-0.16565505122592872, 0.3681454990163071, 0.2724977068641394
-0.13689628380240035, 0.36812823923107024, 0.2834189041544983
-0.07604272129903396, 0.3682534645144013, 0.2780231027632868
-0.06289145366224035, 0.36818224525105336, 0.3008806503445865
-0.05139159469276699, 0.36830115846486594, 0.27313187270856043
-0.04282279624343163, 0.3682637007880221, 0.28328049855423626
-0.08953299863036582, 0.36828717086299645, 0.264180587988297
-0.06947610079276025, 0.368210460392447, 0.29079714130626133
-0.05486887096799314, 0.36828059201966956, 0.2784742737501701
-0.2330930322609659, 0.9848355064958396, -0.29801590657003213
-0.23363525005359884, 0.36809610205469556, 0.29981477557787584
-0.012520962774351725, 0.36822652730423855, 0.28469148393288046
-0.0283749710974627, 0.3682875580408622, 0.2737074743893757
-0.0009517653836041473, 0.3682184158862907, 0.28129786817530494
-0.24691030778668277, 0.4530739153441141, 0.16951602558138174
-0.13900207233060613, 0.7722004921578456, -0.27913363448875406
-0.13786124771121458, 0.7714304247416044, -0.27902112902235476
-0.12687934282407357, 0.8108714613928378, -0.2847920198061494
-0.1212135853560095, 0.8106727821454308, -0.2847498357545209
-0.1458298948380878, 0.8342551210213177, -0.2884404743128103
-0.14236740514617333, 0.8167002381640581, -0.2857017004222173
-0.14415571120728257, 0.8120470205420116, -0.2850136475837553
-0.15578000861337965, 0.7660261752469884, -0.27835207173559817
-0.14436515847474, 0.7609005811993174, -0.2775426767299681
-0.15923078948394753, 0.7990260869590553, -0.28315435839698716
-0.15828996680739452, 0.7970346721782517, -0.2828468898556797
-0.15130815340303375, 0.8233418322814356, -0.286741806931329
-0.13420763740513617, 0.8286577220422784, -0.2875164453814888
-0.12143602135077597, 0.8332753480088463, -0.28824103839634174
-0.23765556220490566, 0.9186728581700785, -0.24935832510257308
-0.2408843216096363, 0.8941517906904872, -0.2291890981322169
-0.23639718988605363, 0.9925625199917157, -0.27184261431733864
-0.23703962202451867, 0.9956906404053736, -0.26008822364280554
-0.2400160471010056, 0.9313806599523013, -0.2377435647016894
-0.23645700008090192, 0.9778432547422737, -0.2673665823961773
-0.23838353156204023, 0.9665579412574627, -0.2491860548057845
-0.23646587918698653, 0.997517416690268, -0.2945857637945339
-0.2348022976510425, 1.0075743621723086, -0.2750809279504595
-0.2411052180241278, 0.8388551197178702, -0.20661315848174916
-0.23538679133166096, 0.8176115452249104, -0.1853941911267572
-0.24208821678864037, 0.8243105923517369, -0.20487635562226691
-0.23766794885867462, 0.793890537478384, -0.18308874661424238
-0.2401332346689957, 0.6886433698361818, -0.16021719146990157
-0.24423858131236414, 0.7095517827989076, -0.1760418668129788
-0.2425589525804301, 0.6996492716905387, -0.16824994972197285
-0.23801611506940762, 0.6556500374789997, -0.14822943621433643
-0.2436106907087751, 0.6695083703988021, -0.16356875118664782
-0.24205085765612966, 0.8461859865109318, -0.22400052310405233
-0.2403355560150543, 0.8181527988904587, -0.19702920812496133
-0.24380792769199522, 0.7865684992990978, -0.19823455805666912
-0.24143179999654427, 0.8085513705834916, -0.21979049821919616
-0.2408445601612284, 0.8304053364061885, -0.22504816088653906
-0.24294257960084747, 0.8182345369312176, -0.20768719262324015
-0.2429454810043034, 0.8152601828251578, -0.21252654575213828
-0.24087220157845018, 0.7775019743483986, -0.1858902767329182
-0.24548077124802892, 0.7170493701897707, -0.19417290412652116
-0.24545667157039508, 0.7175355375438244, -0.19500430085321127
-0.24384443672475897, 0.6943350143332081, -0.17061113885885293
-0.24312852870262674, 0.6446002028404466, -0.15661283668335244
-0.2467212522318005, 0.6668365722518874, -0.17846230708567257
-0.24236355389972963, 0.701448921623896, -0.199940016518027
-0.24655777837310422, 0.6781517354877782, -0.17531461814520666
-0.2462296882542065, 0.6937526556447497, -0.17874148126387482
-0.23669365409279935, 0.6698135912573027, -0.20280689597928692
-0.24524909946326853, 0.6495752988948903, -0.18493972966907402
-0.2353315737164905, 0.7070623326257369, -0.2115547420809316
-0.245729975187955, 0.6895322906662359, -0.1901905128163468
-0.24682687898017602, 0.6556550565686605, -0.17848123214470304
-0.2429065956844805, 0.6846125014263937, -0.19600507499822678
-0.24025872109052793, 0.9193802442627692, -0.23852497984073473
-0.2397966104250387, 0.9379242636424445, -0.2486883837508448
-0.23831783877823778, 0.9366637467941682, -0.23430128136644957
-0.23906201304934344, 0.9597307546930607, -0.25557635076643714
-0.23949983464868446, 0.9372018768933128, -0.23822402973464224
-0.23713442923327432, 0.9321160567333655, -0.228795596252232
-0.2460054902462159, 0.5017134203308591, -0.15623382099262123
-0.24598127569538003, 0.4847480820291026, -0.1429952731219995
-0.24512697964386923, 0.4500399795002579, -0.1324223203961852
-0.21630047350611187, 0.3680983226907483, 0.2821153241968385
-0.21425558274012174, 0.3681611566637072, 0.23666542647554553
-0.20657386653750465, 0.3681420732922524, 0.2533249813795966
-0.2052749325322611, 0.36822931939014997, 0.21786916464635722
-0.21173098881479924, 0.36809207754098416, 0.2764567517370583
-0.24531925356318485, 0.4544045710901353, -0.13530266015145434
-0.24557466140560194, 0.46827993796201217, -0.142873008202956
-0.24519536085044463, 0.4584547295952101, -0.14363563900255344
-0.2428005321558718, 0.469183247844039, -0.12668035833856442
-0.24501466392417637, 0.3959201649259457, 0.30468482844152434
-0.24547233249275796, 0.39342626116099877, 0.29368460522368917
-0.24482936988734946, 0.4172425304729933, 0.30148278624302505
-0.2477679008565189, 0.4506283831087311, 0.305162291672354
-0.24411101909570235, 0.4141996779467174, 0.29233143140060375
-0.25007574217495193, 0.4561540306009637, 0.2901321082756263
-0.24620792780903547, 0.448218762801838, -0.051209258719334336
-0.24798944968923525, 0.4565149839430092, -0.04339840466566521
-0.24678414836580526, 0.45614431255656646, -0.06692661220001529
-0.24769812382644169, 0.4534616849828555, -0.0455341661552136
-0.24833272433581258, 0.4622825679241548, -0.045196569814340615
-0.2504050650774333, 0.4590840330598237, -0.01132659287328158
-0.24893170105991433, 0.4616218384738801, -0.035418171248252896
-0.25132333734956624, 0.45579498779356026, 0.018497491352664687
-0.24897267702806625, 0.45621544817594595, -0.028758511499544993
-0.248592233684868, 0.46557137290765915, -0.03507861554736981
-0.25257526701798066, 0.4637862034621536, 0.0295850299447108
-0.2514406557228973, 0.4614823673560424, 0.007646887077446532
-0.252066193453942, 0.4577461583167333, 0.057544145013495085
-0.2507855625941, 0.4693956813931634, 0.0019451483048716052
-0.25395361311777676, 0.46945700218907094, 0.07016508689562004
-0.2529821461867818, 0.4614342851740904, 0.06782035854474014
-0.2526425458124247, 0.46035185818613633, 0.10999596883319121
-0.2533688914715014, 0.4620149443432111, 0.10354826660301408
-0.252801316830639, 0.4715839382503565, 0.041167725881508306
-0.2545933639956504, 0.4720870737883423, 0.1000706814992728
-0.2536013515768315, 0.4629999530605128, 0.12752828470548222
-0.2538400751828023, 0.4671849673621123, 0.08471728781668535
-0.25434244093462177, 0.47141797629177257, 0.08444382856034303
-0.25489521660388975, 0.4717830851411281, 0.1513106719744141
-0.25443059724284856, 0.4681745280103781, 0.14755749925201395
-0.25272697541096856, 0.46506680130111383, 0.20069580914990842
-0.25446829827386575, 0.46915958645998646, 0.13055815489973854
-0.25488449882997627, 0.47376842911336386, 0.16558121123157638
-0.2538578306490204, 0.4714296860888729, 0.1962188386885395
-0.2545828509564983, 0.47629626084846366, 0.12714305789416855
-0.2524622949553402, 0.46661102985955377, 0.22145183137032362
-0.2533221018942173, 0.4661594829254907, 0.19490596309679792
-0.25505145512257643, 0.4729520211935515, 0.15502504019480387
-0.25280266085562797, 0.47258813063386157, 0.22670780878881666
-0.25338536751418084, 0.4744288834108661, 0.21704457620149706
-0.251883182431974, 0.4751099800416576, 0.2414419027877373
-0.2545360800029477, 0.4765475784877474, 0.18166336432264946
-0.2545112799383371, 0.47717400040939234, 0.17571803286479978
-0.2530886752149451, 0.47841120291769423, 0.21554328190479355
-0.2521909588657564, 0.4801365717755755, 0.22538093019162453
-0.24008079461899887, 0.48485781576031817, 0.28142137569738357
-0.25060461695626035, 0.47352831910190324, 0.2879128971503766
-0.24572606945615674, 0.4496909018625016, -0.11301565346801178
-0.24491618665386866, 0.46544701068387356, -0.10620697494682588
-0.2202528080409934, 0.9937216443205295, -0.3110882565960029
-0.24472116351701373, 0.4063624077224838, 0.29947244352946767
-0.2425076302553691, 0.38514267827313575, 0.3142964440341879
-0.2438022523417942, 0.38111835962653656, 0.30413313580868295
-0.030385302447233344, 0.3667524984803992, -0.18166126790968065
-0.04110859102245739, 0.36725695394962854, -0.19319164549090076
-0.03902077566290118, 0.3675368639355163, -0.20519267196945562
-0.019480948766141756, 0.3666826571207799, -0.1822098578278725
-0.02112433243513062, 0.36704443801302344, -0.19329726587019005
-0.018498017432629247, 0.3805313495650269, 0.3151643733194
-0.009729348091104435, 0.4035319684743652, 0.32480255926702023
-0.017372360470951073, 0.39152523783770193, 0.3208040286255763
-0.030648602709246024, 0.4006241146106706, 0.32262610608495546
0.006737712687391423, 0.3816329008710473, 0.31583307870790733
-0.0067677720945316985, 0.3881498627658104, 0.31981134376477227
-0.0007250028073236339, 0.4866521484560562, 0.300971253770908
-0.010431217376060438, 0.4893588254693614, 0.2965813664373354
-0.008409536350450234, 0.5007783734401036, 0.2686562854766512
0.0022061533191698574, 0.5001243752888829, 0.2705629812420671
-0.008851037096011849, 0.4912178741807973, 0.29246128791854115
-0.011859944662232188, 0.49378780971592573, 0.2864737887881779
-0.00272980025899416, 0.49418435920573145, 0.2854342197284429
-0.017308005549813266, 0.49767859205853887, 0.2768930695673144
-0.002854740303071254, 0.4909780292967747, -0.24067919328616072
-0.002245516069698578, 0.45977956326419284, -0.23548543302402325
-0.014520640420734816, 0.36804759240969775, -0.2166660898134784
-0.02297025735768094, 0.4166605836321488, -0.22600508713540027
0.002053838660266262, 0.38763718493410726, -0.2234256535808349
-0.008434788714249946, 0.4168056293409385, -0.22603234241692916
-0.01637349928134659, 0.4290979126215829, -0.22904739058049792
0.0024878652493391545, 0.40650396948753187, -0.22329121781117442
0.004691698688471116, 0.44960582001657023, -0.23346327942654374
-0.021820193284197945, 0.4544843025267655, -0.23443370487717055
-0.009002039526973524, 0.43619776622654033, -0.23065637326525584
-0.0018340785764804715, 0.45807700399593704, -0.23515282529984954
-0.02150275090094978, 0.4745582903382193, -0.23814707251942996
0.004805505427203615, 0.5000812352793618, -0.09245362027070272
-0.01645509623572989, 0.5033031685416894, -0.07835298511875782
-0.011076407220791402, 0.5024347076423006, -0.08297420426851371
-0.005692277185654117, 0.5072407032408706, -0.06229893912346358
0.002226863546409741, 0.5077711684716851, -0.06125512736602079
-0.010588232672640707, 0.5078649520306355, -0.05705350151131886
-0.007894835665967615, 0.5101294991471135, -0.04563383790816236
-0.022079891602636723, 0.5080733728986229, -0.05157453133837781
-0.021619088557552405, 0.506891254847346, -0.05746378904057815
-0.0021542512851736887, 0.5149355839688876, -0.020469585782629758
-0.011306753380096592, 0.5133961866345085, -0.026248032366899533
0.0023580874855913857, 0.512041165405743, -0.0369813328874791
0.002669319402861998, 0.512860586105309, -0.03218311763686944
-0.016866926864866648, 0.5158018263234102, -0.0110238905138658
-0.014018067445490065, 0.516836474055311, -0.005992952103652862
-0.003014988538603303, 0.5180404763693635, -0.0001719722981085069
0.005963797319613659, 0.518880978931726, 0.012717205457845611
-0.00662522724017924, 0.5193709762128494, 0.01904964914109892
-0.003772056259105433, 0.5198720451578895, 0.02401254856549104
-0.020004284001699783, 0.5195978499045053, 0.029962212332689444
-0.02553816174858788, 0.5172416407645158, 0.009445674545392415
-0.0021577586317410268, 0.521508437171791, 0.042122236052809486
0.0017610161692082837, 0.5211368512126232, 0.03792327639258804
0.0031049910944973874, 0.5221955438414756, 0.04992794889147001
-0.00961619207900218, 0.523751425731475, 0.0681059704541945
-0.016670400002289764, 0.5232478899328463, 0.0659320610659368
-0.021057127386331566, 0.5231515770972796, 0.06816419585481515
-0.02535742176776328, 0.5225597069949254, 0.06493832042183516
-0.005323358506404885, 0.5255147211002413, 0.08843278612255813
0.0005153691110906983, 0.5250096235979052, 0.08090779111383824
0.006342383350214663, 0.5250710149162098, 0.08313917502307884
-0.012257145721783666, 0.5243709331492302, 0.07594722669099145
-0.0017365004352686358, 0.5267189824490317, 0.12497482338907126
-0.0037621566323869206, 0.526438176923968, 0.13064986523954103
-0.024909110726170892, 0.5249806625330284, 0.09757617296764173
-0.028107365206826468, 0.524163293500838, 0.08927520242857465
-0.013107463967345677, 0.5258494909109483, 0.13651397793551215
-0.012822855004147959, 0.5262549431418372, 0.12738002372538054
0.004401810824101207, 0.5263062786941377, 0.1335090093163982
-0.030619989889127258, 0.5237443910988175, 0.14871940998137229
-0.021788608741873872, 0.5246937382925748, 0.14460404994134804
-4.2990298997110416e-05, 0.5247114887245687, 0.15764332966833144
-0.000980239360000296, 0.5249340621999137, 0.15556937508303362
0.011454773471584738, 0.5250924499785492, 0.15136575440145741
-0.009412941176648053, 0.5220828153154724, 0.17614537842217734
-0.012899084525013553, 0.5220396155817798, 0.175481221090575
-0.003326273828887681, 0.5157127321404366, 0.21133686811760033
-0.02807192015781372, 0.5209081576001563, 0.17694594927374022
-0.018411962880615, 0.520711840634351, 0.1834839205322033
-0.02492547667758174, 0.5087247813403755, 0.24042161414556384
-0.012820995185235573, 0.50429749454891, 0.2586785633433786
-0.002382613138217115, 0.5015504003674836, 0.26666469942135573
-0.007419756036039551, 0.5164482330533183, 0.20726155494338566
0.005835255072176469, 0.5194477789952808, 0.19365257953764337
0.002352159408364657, 0.5192452297771908, 0.19497126173742613
-0.002211131270856457, 0.5056869763012733, 0.25400953930189873
0.004915134497753669, 0.5130027556314758, 0.22412050367020697
-0.024329613937416776, 0.5149211339299318, 0.2122622503658803
-0.026198411134033754, 0.5137776753470765, 0.2181512195426679
-0.00810227667270365, 0.5121352307621517, 0.2269829909001827
-0.004784452920551601, 0.5091990829898951, 0.23936520806543926
-0.014110595707120959, 0.36659400256611147, -0.08632885871031534
0.009526435417502888, 0.3666301067817539, -0.07230404685173175
-0.008656952105950048, 0.3671393189855917, -0.027965490660296334
-0.009742178983537745, 0.36663650270557313, -0.07176114398062015
-0.007185190573543661, 0.3667496483337477, -0.05900417045736842
0.006654624168164612, 0.367035772812786, -0.03553485215927273
-0.015299325750013984, 0.36716585756115494, -0.0361389923371911
-0.016008112474415307, 0.3671171652293732, -0.04129787157700873
-0.007310306125317436, 0.36773177802094015, 0.007713817722094918
-0.0048470999453267384, 0.36728029757469, -0.017634503593460665
0.007993405842466174, 0.36755846596001074, -0.00253549244598789
-0.007458900354122877, 0.3677580893564672, 0.04780663288587368
-0.017328755457771402, 0.36775339015510894, -0.0031522027085175157
-0.01085514044206536, 0.36723514677062086, -0.02349925874285357
-0.0059151682013071595, 0.3677930514136375, 0.01588795044638538
0.006008352264554263, 0.3677552024081028, 0.04285650477045265
-0.005833631047158547, 0.36763350907219583, 0.0844851633548849
-0.010513905561630775, 0.36779744169643197, 0.04382712323383368
-0.022519906996532998, 0.3680849869720785, 0.022069756209744495
-0.014206100550293897, 0.36788794918667356, 0.035724518318117945
-0.005758070519451252, 0.36773892977348355, 0.05078030975052909
0.005185142209738317, 0.36768488493569673, 0.06767006359392531
-0.005745247012625937, 0.36754382169637173, 0.12104256032513384
