0.04947232735795284, 0.013803143164865474, -0.014390147992726022
0.04684196779798038, 0.011263769159909799, -0.014777336711306578
0.04625975991830536, 0.009912482964282265, -0.009858155561061899
0.04180974797530961, 0.008499476750584262, -0.017412029015612472
0.04476255000563832, 0.0113689178436711, -0.020455113326204883
0.034573482018683224, 0.008306316095625625, -0.028988292586653468
0.04325468616472422, 0.010088404860175867, -0.019572947895018924
0.03753239796430764, 0.010324600409626865, -0.0297258486297756
0.04480042425043887, 0.011776073780776369, -0.021346133580065856
0.04148861440927254, 0.010461727593247514, -0.024400534846418496
0.03202630249748195, 0.011006551573579992, -0.03687579813327238
0.032188061186891354, 0.011086947613439969, -0.03686848216979577
0.04220106601718188, 0.01296428391264134, -0.028176094462532268
0.03503673030711106, 0.009627542177156894, -0.03121623567931609
0.027901792057788494, 0.010455097229558048, -0.03902602931757551
0.033015253556112706, 0.011542492806826132, -0.036856566230131706
0.027940374941460483, 0.009264339016811209, -0.03702441644495406
0.0156860688894947, 0.008418217003789558, -0.04247383912296709
0.017945274499569668, 0.01088079066834454, -0.04520131886125148
0.03111221889532508, 0.01343055258257134, -0.04067500389297197
0.009950644401918545, 0.00874911956949618, -0.04458686174384916
0.023670189474734267, 0.011017666865201661, -0.042736891130127734
0.008815999356243593, 0.010460965676803583, -0.047310352399062575
0.014047806081492484, 0.012516641161579621, -0.048324350472450504
0.02353582899119608, 0.011752183432589812, -0.04375482671862712
0.014679510727894246, 0.008910209589262637, -0.043558398497148286
0.008367899857054955, 0.010547132601879994, -0.04754870849998207
0.00496548037120963, 0.00882042670242356, -0.04549191604629541
0.0009018695683956207, 0.011272540887758491, -0.04919104489902213
0.005557808450753505, 0.013283447356370777, -0.0507360004265364
-7.621706521248624e-05, 0.0096045756000246, -0.046988904387367
-0.0015198738790096456, 0.012280404799452683, -0.05015207038418415
-0.006828294993206856, 0.010285239377826664, -0.04732630316995965
-0.009483115170186018, 0.01048024694985679, -0.0471587089488005
-0.007580950590302341, 0.008654044843050265, -0.045004312351044753
-0.013776935909020752, 0.009354915743326378, -0.04442564133612659
-0.012651933467094627, 0.012212457175819192, -0.04840525270687621
-0.018065259881894412, 0.013480777813228418, -0.04808112222173514
-0.018000270849635562, 0.010865581206562072, -0.045152883238602504
-0.028991135799525967, 0.012971487237670996, -0.041638578030992524
-0.01940349181566891, 0.00959411291478049, -0.0425928763636825
-0.021823625869161187, 0.009925586411200714, -0.04196116412239977
-0.026245692839554427, 0.011297343725037039, -0.04158231453605127
-0.029339517584903028, 0.00946498561233584, -0.03637746273026378
-0.034334886140063296, 0.014147402311736033, -0.03896593434411215
-0.030343523817062054, 0.009413841392604705, -0.035498938401661094
-0.025970460922076395, 0.008023261288706436, -0.03614419627171306
-0.04305131236471254, 0.01356785563474634, -0.02794134905568242
-0.03367744409615196, 0.00904119552246456, -0.03144916330056022
-0.03874701257917979, 0.010152451825095669, -0.027583536769133818
-0.03158433595958593, 0.007835305877011206, -0.030936075070462466
-0.04429980457182518, 0.012513541309548532, -0.024044012770751546
-0.04080531817520551, 0.009985642642268144, -0.02424892439285902
-0.04146070078378134, 0.00951098719868988, -0.021564276819143482
-0.04916285757656572, 0.0136784776137354, -0.0150968453540404
-0.04921536454575412, 0.013430903992673552, -0.01401052751131953
-0.04409196005556402, 0.00989778244900245, -0.017164769318285925
-0.047318727585187965, 0.01098009288345239, -0.011509334494777819
-0.045374277712050104, 0.009221113751541169, -0.00953437212164969
-0.05091801595931478, 0.013505760819291543, -0.005851715410357229
-0.048471951376548465, 0.010981181086707429, -0.00458018897481873
-0.04618435344395999, 0.009502101795114667, -0.007675213104332654
-0.04637264263202902, 0.009381114699875648, -0.0036374563537027605
-0.05118148896410224, 0.013504603167977598, 0.002827792904122182
-0.04451405507056283, 0.008018584488860551, -0.0017399324559778636
-0.04876063547836462, 0.010996348512118444, 0.0015168859684011053
-0.04363127296850253, 0.008622376853825595, 0.012748289666690336
-0.04929630991021645, 0.013909441706252405, 0.015429459829488627
-0.04612844565027212, 0.010890760648929635, 0.015482676359064255
-0.04662491700810215, 0.009523139017206408, 0.0029675260361132828
-0.04390839628901403, 0.00880493367722554, 0.012820836989507452
-0.0406466944162985, 0.008454046798425138, 0.019737510690751504
-0.04193888174826807, 0.010492520040320943, 0.023693683534272987
-0.04583639371584944, 0.011081890483207688, 0.017229761671623028
-0.035440924719691125, 0.009034104022169628, 0.029656613023256152
-0.03866028274239596, 0.010287725799530016, 0.028027789079379625
-0.047659580634407075, 0.013234553431138036, 0.018426986348896036
-0.036426436252269725, 0.008907979589527925, 0.027950460811500395
-0.044126074495780834, 0.013315848060333542, 0.025997463186909552
-0.03103861821003509, 0.009408567540149744, 0.03479372746431682
-0.02555406748891692, 0.00850770945146062, 0.03736408782396249
-0.03228786776605203, 0.009602174518532586, 0.033916402745244094
-0.03663538289218307, 0.012166187478248741, 0.03405746157967087
-0.024978779133771344, 0.010046002532512227, 0.04039436054797749
-0.015494185397384529, 0.008224604927958373, 0.042227996066721105
-0.029780038455111096, 0.01007329458316747, 0.03707774653080216
-0.030693487631106117, 0.012505944013304697, 0.0399175760770175
-0.016681051716349538, 0.009733075350834258, 0.04407065228236523
-0.020790726981051402, 0.009244172004426756, 0.04142150737326857
-0.010214838351896651, 0.009724174159785154, 0.04589940141097726
-0.008337184692297179, 0.009265450024790917, 0.04575742053096386
-0.020864286154588123, 0.012070073092453844, 0.0453270858575294
-0.01748751212740069, 0.014051738013293427, 0.04888196632283043
-0.0108824243448228, 0.009138492166910296, 0.04489688174856202
-0.002796048652520596, 0.013412607872774105, 0.05109830850168916
-0.0010155781128245412, 0.009563851850493932, 0.046851195375244396
0.0021156371590448633, 0.01228464866504324, 0.0501039160011303
-0.007810493542419108, 0.010104072993337189, 0.04699334889453087
0.0025576200692721098, 0.009827995125523303, 0.04707645970160107
0.0037119251778984183, 0.010971830885700248, 0.04853516056717627
0.01914650076447352, 0.010917353216810987, 0.04469599825822689
0.012804565594926768, 0.010821816707112748, 0.0467490887831637
0.005352140948131714, 0.008111432999392912, 0.044344323978291085
0.05795731242021655, 0.02780826827375448, -0.0016741368125990034
0.057179860215664985, 0.023667612892611253, 0.0003660365808813967
0.057489974253533575, 0.025583488445120893, 0.002544309586568944
0.058066239712589444, 0.03116448092582403, -0.0005851579930168535
0.05775578785641744, 0.03225937753036043, -0.0041335916000876955
0.05713827758460454, 0.026759345136688678, 0.008927543084827055
0.0542105373020734, 0.021478996257446356, 0.014947063719160531
0.05480708992226461, 0.024798739876702093, 0.017061723202376096
0.057500610797805184, 0.029926326115008617, 0.007050287477608268
0.05512736071576981, 0.029484423388034652, 0.0179559350888768
0.05519514201657293, 0.030320363094317373, 0.017702971259386135
0.05440716720908118, 0.02592423850126687, 0.019316014568857544
0.05020474093673018, 0.02489268494725007, 0.028089156020590852
0.053360506686909046, 0.023181348877598856, 0.020026976699487466
0.047842445273825106, 0.023497288275009336, 0.030936785790859952
0.052921285458875394, 0.03271799981794819, 0.023504196690757283
0.04822329881114826, 0.026174238693880077, 0.03154630451520473
0.053393371644785734, 0.027276830244263948, 0.022239342157305303
0.04548490288083194, 0.027748740888705922, 0.035937996960651634
0.042474175820833474, 0.02171501205591975, 0.0371660540202589
0.0437919266712414, 0.02521431691993474, 0.03742392390666442
0.04761683659919614, 0.032104180771390545, 0.03293517437491093
0.04580336116253933, 0.030110788656972483, 0.03552508389800188
0.031030695208624712, 0.03048095905277691, 0.04895038767610495
0.03816806382147211, 0.028693231355468345, 0.043709642505065635
0.04039378722028237, 0.030471019160417712, 0.04148391331883306
0.04135042357054503, 0.026729345007309103, 0.04024075302489326
0.03483228886201521, 0.025255204524826776, 0.045725907431582405
0.03156928006440818, 0.02771748574598818, 0.048537248831689785
0.022357649182020788, 0.03001716373475856, 0.053455941969566614
0.0209936342099584, 0.024702159297738006, 0.05347661091868662
0.03644042809440142, 0.02444852027492999, 0.04439318107318211
0.028709354490736583, 0.027244523668867822, 0.05037012262773287
0.014341720428160894, 0.02808570082158779, 0.05609579398705861
0.010118515579648171, 0.0324884361586729, 0.057227397368759744
0.006579942862653944, 0.02644797661310238, 0.05728891532045255
0.0013151431971719705, 0.031019878839830355, 0.058002368076727984
0.01748669635246889, 0.027283967524834585, 0.055143933276180626
-0.0010207989030908387, 0.023170936589185977, 0.056948936180762286
-0.0019666219000093487, 0.022006136956500853, 0.05645898186957253
0.0032766726589379238, 0.026739016503032932, 0.05762908698640222
-0.000249803834718291, 0.024830125426493155, 0.05755823662951271
-0.00943851683705746, 0.03160936996848327, 0.057291667729948925
-0.013101356413887322, 0.022294817811279753, 0.05499925498819627
-0.007665433770634091, 0.027232377296105878, 0.05733187381569305
-0.012892360898086173, 0.025257230536783415, 0.056007420297821686
-0.016036953953520977, 0.029702662021188896, 0.05564154951707053
-0.018612403278713243, 0.028104459796501995, 0.054951460002271336
-0.02068109279207146, 0.02415458609962428, 0.0534294773980063
-0.017964354329808033, 0.02659127610782266, 0.054890313354959856
-0.028847664521035415, 0.029634896013107773, 0.05042958132652227
-0.02091055780342494, 0.026393855583035815, 0.05384233030298702
-0.023655608724708177, 0.027767865451126313, 0.052827865992534195
-0.03046777832359108, 0.02195978259468751, 0.04751718098718839
-0.0325246889929294, 0.028389211186409587, 0.047904266975484604
-0.03571830708515368, 0.029804245759686425, 0.04566806995289535
-0.03109135042472667, 0.024845569171767383, 0.04825773190079376
-0.03838689890889233, 0.021712535116648515, 0.041252119652182534
-0.03113015513571573, 0.02736534626062718, 0.048769409297258016
-0.042916931648910334, 0.02471679002055229, 0.038175678058379056
-0.04459348144566295, 0.023932579112232514, 0.03584111322198029
-0.03975698059963631, 0.026740778808968472, 0.0418370333260196
-0.044198283672243495, 0.029783543082008708, 0.03767941714464113
-0.046580646690933224, 0.025066815775980057, 0.03355406361760396
-0.04884656562247273, 0.027547293878757352, 0.031075542627024784
-0.05211091624572922, 0.02136768740577998, 0.0212121908347601
-0.050122093144513186, 0.02303003028879124, 0.02684713495831052
-0.05035556780816172, 0.026320317916688443, 0.028357481836828763
-0.04862723610115249, 0.03197188688403474, 0.03149219288966863
-0.053351208853183466, 0.025469183659233535, 0.021580502802871396
-0.054075211536949164, 0.02283207373887561, 0.01727283434821895
-0.05475411481750294, 0.025390235189573205, 0.01765978804684462
-0.052107616207307327, 0.0314474716180343, 0.025249126967856767
-0.05460298260981273, 0.029323758719980268, 0.01989778829752221
-0.055516792752246504, 0.027716817360485382, 0.016388101373034862
-0.056061218682515776, 0.021591615691425335, 0.004856646705598662
-0.0572213151593641, 0.02654841107754382, 0.007554412893462084
-0.056258200723696375, 0.030951000012985796, 0.013735559919984784
-0.057885823018626284, 0.027175349382541816, 0.0012191508481923959
-0.05677478301116396, 0.02273345773587486, -0.001263309716121013
-0.05719189669081229, 0.02469425705217386, -0.004164038307381277
-0.0575846843200789, 0.03137447942890733, 0.006089305238503925
-0.057997575692250586, 0.03046976172038434, 0.0013699575165683293
-0.05387903122624648, 0.02109765070960619, -0.01567115851464054
-0.05783187431691348, 0.02748422846634201, -0.0024566267601639786
-0.05482611189101408, 0.02491513077698646, -0.017069487606565934
-0.05741904073938209, 0.02975936347540515, -0.007982632220211673
-0.05252293987352992, 0.02299510922477216, -0.021669692966977825
-0.056156344216529125, 0.026777919295566586, -0.013365788926115115
-0.05563862112158331, 0.027040676873748594, -0.01547580988287256
-0.05505097790951983, 0.03225317101181001, -0.018241023381582226
-0.05210496809137769, 0.025755461688172335, -0.024371728552725826
-0.04656948766887733, 0.022645153427319216, -0.032237358396438404
-0.05096742308046669, 0.027364098209518174, -0.027477963359256934
-0.04831951239651458, 0.026147238515050096, -0.03140064667899183
-0.05164309175980246, 0.031911570495694846, -0.026245285123620305
-0.051193649071993794, 0.02977185473062817, -0.027209111720203218
-0.04547607835335926, 0.029491677370563726, -0.03599249934417782
-0.03751337004430127, 0.032040278683926504, -0.04436432729613318
-0.04171735736850497, 0.02805731541138449, -0.04016034215819948
-0.045217215901102475, 0.02773877965355571, -0.03631725854116799
-0.03838684642183482, 0.02711972221101805, -0.04330104020448977
-0.0420000483368328, 0.02269662673806818, -0.03812364895168647
-0.03520601797709661, 0.028816541901584114, -0.04602678644474425
-0.04369420734843121, 0.02722560321828295, -0.038019911680346796
-0.034892164669166295, 0.024914946294078616, -0.04561121618511856
-0.02068152342758286, 0.028444894835661948, -0.05423751715252445
-0.02111026761117155, 0.030084219644702224, -0.05403759077257085
-0.03595833978996536, 0.02508256568698428, -0.0449005194397661
-0.02167775649471563, 0.0255079842514398, -0.05331334440133589
-0.031552211404056354, 0.024496995219953216, -0.04783654895929963
-0.028367088715004013, 0.026434175087131268, -0.05037308779243521
-0.011759490672450051, 0.03161979394961824, -0.056787682151788574
-0.022031005308994215, 0.02396345922901923, -0.05272655051132323
-0.011298725193367467, 0.025331594961109604, -0.05644790406501255
-0.008880983081895182, 0.02163316786255232, -0.055723649590906185
-0.01856880401134267, 0.027230857651698213, -0.05484434173658123
-0.0009169640904121162, 0.028641594973460284, -0.05803720015131232
-0.0004024241766570365, 0.031049537312679495, -0.058082216387984345
-0.0031365748517764584, 0.024809885919264613, -0.057302112683807124
-0.015257816102555326, 0.02302244689862104, -0.0546837629613066
-0.009117805536406356, 0.026149341167181206, -0.05701435602949141
0.001365177608585118, 0.023001019506759583, -0.05685940274129572
0.0032635439750558245, 0.02471466468589948, -0.057274263994679914
0.0061683484220583906, 0.028633166797298958, -0.05757776445265818
0.0049667169074844655, 0.028042891741146506, -0.057682894570754345
0.0077030264151393656, 0.02621108242089729, -0.05714898876400083
0.014148760804600369, 0.02211117083708391, -0.054652371425480774
0.011970646564844069, 0.026632362173989548, -0.05650377006962728
0.019481487557988016, 0.029824054313774585, -0.05471857675404764
0.01252445243800653, 0.02726775643774966, -0.056470609069640895
0.01999399250895774, 0.0220768409252639, -0.05295146233307568
0.025201607722814483, 0.028373912334102257, -0.052129764600242504
0.02885635264137829, 0.032232605293156136, -0.05042552844034278
0.022200587498182125, 0.025260234085707815, -0.05302165677117163
0.02250512171957585, 0.027840186578092084, -0.053378319172852115
0.028206622141937795, 0.021191883261428072, -0.04877396083929241
0.0327784860476729, 0.02475182916909719, -0.047056318388317274
0.033894842543928674, 0.02792492314745698, -0.0469448738600485
0.03578511556876095, 0.02634682590879954, -0.04529215041797996
0.041341386114768806, 0.021238487123991845, -0.03806410361073042
0.03903170163117864, 0.022463412913553152, -0.040977102301833296
0.04304360433916334, 0.024678846971324123, -0.038039549450813795
0.046317427694435934, 0.02226941466035888, -0.03236914643562845
0.04318288154232549, 0.026563807240322625, -0.03836724620877696
0.044622821906693824, 0.02575111681102047, -0.036559048539028124
0.03958595536415681, 0.0326773366023497, -0.04229172798618103
0.050822819809248646, 0.022505495891876302, -0.024912091008844645
0.04816657950979997, 0.02680177451100881, -0.0318189200781624
0.05261926077446273, 0.025502096375871655, -0.02316374668124135
0.04821872493984352, 0.029939391900151806, -0.032075545725063645
0.04880058875123467, 0.03182003394468391, -0.031244557410391574
0.05689516871364562, 0.02535268893300272, -0.008878766305728206
0.05620179578375055, 0.03273158621557287, -0.013946036181994317
0.05382904164096678, 0.023657143473898138, -0.019301673946376594
0.05276498369430938, 0.026623986781882773, -0.02331626795109196
0.055826750824905846, 0.021966775419258816, -0.009035489561456014
0.05647534531350493, 0.025336929482280408, -0.011199857907550922
0.05576356735649514, 0.02579677606766604, -0.014167506031792291
0.05419720281057676, 0.02909262254982942, -0.020767951139684215
0.05420137047102102, 0.03178810321688841, -0.020759013601505782
0.005256000295116309, 0.009430672198215986, 0.04629861272478561
0.019010384587498624, 0.013146639590437353, 0.04729724878424814
0.01375455357789092, 0.012199657761415747, 0.04809748486137708
0.009336177905435759, 0.0090225091154946, 0.04514809362368993
0.007001132559851669, 0.011732387521568235, 0.04916048328575408
0.015720310321878296, 0.012559142015403538, 0.047917176876817444
0.01217723955335433, 0.014549208720423748, 0.05072688914028373
0.005759831725270828, 0.015565911624610414, 0.052565900114667725
0.016916739145948673, 0.015338236620712787, 0.05003363155692807
0.010880018606944812, 0.01724596319639459, 0.05303857988365067
0.02432223012847995, 0.015511831847323515, 0.0469494877219592
0.011942270619472565, 0.02562108338948911, 0.056327983610186746
0.02065953354744732, 0.02458994805127357, 0.05360682381202296
0.01850490474597909, 0.020890248807619284, 0.0530142811110175
0.013987648345946525, 0.02067950783864385, 0.054107944226385624
0.008380661828004593, 0.020066151491534536, 0.055035340307656666
0.018973023903177077, 0.023818306253911625, 0.05397522444644061
0.008088837884861455, 0.023173080896833308, 0.056331316060055
0.027328489560822573, 0.01985887616597393, 0.04843378339825832
0.015814445177397666, 0.021524409056739895, 0.053994506380265206
0.0111233573450743, 0.02252583405835306, 0.05561254780122466
0.04349678944991291, 0.21654122188256425, 0.0071172789477902815
0.03858235983636389, 0.21699998972434734, 0.020664198668399355
0.035726964954711046, 0.21687420369370117, 0.025286203890100695
0.02447788623680234, 0.21589076579333646, 0.03717942068994259
0.020702452035592747, 0.21609491883496398, 0.03914548777225891
0.01180858910066302, 0.215889537270671, 0.04290273536190692
0.004307107609742305, 0.2158695867009594, 0.044316627982758164
-0.008683587946378479, 0.2152171942763314, 0.04465532927550718
-0.025193201581377844, 0.21614794915063668, 0.03627716227403949
-0.031589841625660135, 0.2154024403381544, 0.03224440425035333
-0.037264774761920846, 0.21651669267595633, 0.023431011138146586
-0.04236730121884686, 0.21583023727957515, 0.014108123955418845
-0.04489793271965336, 0.21535450368956843, 0.005433672848789477
-0.04364191632253751, 0.21654397519279422, -0.005441039025744036
-0.039447544192019894, 0.21673892168653575, -0.01914679117198184
-0.0384828006153425, 0.2154710942651069, -0.023578521924725426
-0.022896163025537725, 0.216595402030473, -0.03758669410965546
-0.021736378577507532, 0.2154310186672629, -0.039626553079484615
-0.010527000941651864, 0.21688745741303284, -0.0424851828266058
0.0019151324095180002, 0.2149710939460163, -0.04571183307624483
0.010448626147561825, 0.21495889760341008, -0.04453398583397712
0.01871048610701443, 0.21624825644239826, -0.03994719082686916
0.03165315827273319, 0.21511853307336792, -0.032709002924141105
0.03781044425340764, 0.21637855490280622, -0.022783445543524978
0.04514593089753352, 0.21524812380066088, -0.004203888187522393
0.040967854673739965, 0.21702254866516857, -0.015519227028355325
0.022753552994567532, 0.19410574942329897, 0.053271328998085
0.03613752404082021, 0.18885442788851337, 0.045374544449218776
0.036591829220872174, 0.18492865526619995, 0.0450564362544059
0.035633219055575524, 0.18249135363920804, 0.04572766291569319
0.032549408709722547, 0.18926585597423046, 0.0478869720878941
0.03570189537266148, 0.1815220552674146, 0.045679575197978606
0.03605451013430904, 0.1910676898532101, 0.045432671464062886
0.029380610878330715, 0.19540836519963867, 0.05010579019108137
0.04218897492541785, 0.19552191808734837, 0.039688720945772825
0.04147392263823878, 0.18053918465872432, 0.04040377509226179
0.04258079999920961, 0.18517806144038934, 0.03929689485314054
0.043599105806730466, 0.1806915444838671, 0.03827858639777685
0.04445914167006371, 0.19043684323209087, 0.03741854829814113
0.04261960845467914, 0.18124199970251323, 0.03925808629675958
0.04504849863554658, 0.19538779869079362, 0.03660313855910451
0.048842444341327555, 0.1855343857883378, 0.03118482634220095
0.04914964949644989, 0.17984868432348589, 0.03074609221836812
0.04813078406175571, 0.18304701532954018, 0.03220118184281173
0.04971063887613472, 0.18392784716368782, 0.029944916912968293
0.0462646565425972, 0.17738339062544786, 0.03486628628011288
0.053002341367795226, 0.1957856568019556, 0.023330372259872535
0.05111871377699085, 0.19547039823223974, 0.02736981242325659
0.05457427705553209, 0.17969466208478865, 0.019959355514152958
0.05450038502002819, 0.18944670462657848, 0.02011781701547402
0.0536575809847472, 0.18713449824705053, 0.021925210624803317
0.054457234688276096, 0.18429584047580483, 0.020210352920126122
0.05653055856200005, 0.19500987321529853, 0.012719117611052497
0.05602921800982931, 0.19456240190694285, 0.014590150247685405
0.05611279477095836, 0.1775625711941286, 0.014278236824645085
0.057145009441729455, 0.17788081848370663, 0.010425950532100567
0.055105715367975025, 0.17682373277747263, 0.018036716808966978
0.05645993583362173, 0.17729970397144956, 0.012982685816560254
0.05649059361934753, 0.1798990995428893, 0.0128682691442773
0.05727947651556339, 0.1922931047169874, 0.009577853023388436
0.05795600539182727, 0.1795670524888609, 0.0018451258268869838
0.057974553633115884, 0.18825124757772402, 0.0016331193702641344
0.05808795440042927, 0.1798617836190027, 0.00033694824102714795
0.05775188976880034, 0.1837050246619188, 0.004178168043987496
0.05753668179835529, 0.1791416941272886, 0.006637995827177736
0.05794153162483608, 0.19201966101761955, -0.00201055893960485
0.057879976094399016, 0.1952554679477408, -0.002714132484299567
0.05753537645190142, 0.18512693918864023, -0.006652871867276705
0.05735060651065558, 0.1764468689304253, -0.008764773780757209
0.057280604397824446, 0.1850828015170518, -0.00956489091582226
0.057671482491973125, 0.17922176649358768, -0.005097193467827219
0.05585030414850142, 0.1955113653253685, -0.015257824774505668
0.055965787326772015, 0.19373020226944893, -0.014826834387565338
0.054927872529594204, 0.18324713948561405, -0.01870039681237682
0.055766376244212545, 0.17666725721847584, -0.015571048920967938
0.05569659045722151, 0.1806327510378075, -0.015831493808168118
0.05668133149226059, 0.17659923377761438, -0.012156379163045752
0.055338039000505435, 0.17943495659906167, -0.017169630092450112
0.052202363941937724, 0.19474866938657606, -0.025045878477272625
0.050906703218344104, 0.1750480318882139, -0.02782441990076225
0.05137719379445509, 0.18556477187041512, -0.026815453949043017
0.05066678539530592, 0.17650646289737398, -0.028338923117079667
0.050338608923508735, 0.17900146947718382, -0.02904269680142355
0.05063522743316737, 0.17517868571766745, -0.02840659909385828
0.050220570119760964, 0.19437968587224974, -0.029216612208788066
0.04643643321102194, 0.19488173309803658, -0.03462092416412899
0.0458320463147118, 0.18057064760578437, -0.03548407880365516
0.045820556916965266, 0.1869664167400288, -0.03550048737741948
0.04557009497294449, 0.17737774898697312, -0.03585818439290099
0.04707832132955136, 0.18205943253140588, -0.03370421218551411
0.042472122561855806, 0.1933113172858533, -0.039405542777085474
0.04278968691267246, 0.19287619413539908, -0.03908797644447877
0.03276804391856593, 0.18649371300406353, -0.047733867833358104
0.033571915997519346, 0.1851659634511708, -0.0471709897721589
0.03084444167866972, 0.1836083428163875, -0.049080790469010385
0.03299118370944966, 0.18790444070324602, -0.04757762345548077
0.03313158592131211, 0.19083641692919762, -0.047479312633559825
0.03834798755241417, 0.18359447775240015, -0.043529703523577684
0.04108297809789694, 0.18058987863217038, -0.0407946959101304
0.03855590735872154, 0.17603813286447909, -0.0433217824197273
0.03961363489086049, 0.18410142933517967, -0.04226404828674067
0.038436456903338384, 0.18018256576972957, -0.043441233620552196
0.021355510914385693, 0.18389885057478975, -0.05392322964402867
0.022470943840515418, 0.18096820807476988, -0.05340309454048222
0.022630510357103735, 0.18706786517898993, -0.05332868742492737
0.024427987676040458, 0.18629031266644536, -0.05249050968289897
0.0254779002195848, 0.18536259431499752, -0.052000927246556555
0.035194950741692654, 0.1921390277485472, -0.046034527051313306
0.0254860781394207, 0.19242862945677192, -0.051997113818531435
0.010680121929129087, 0.18746106311354246, -0.05707690209014969
0.013152593330063514, 0.18618785810302918, -0.056414403542368374
0.01709006431403642, 0.18769920049534916, -0.05535935845354461
0.010166461220059117, 0.17773313926903622, -0.05721453744305309
0.013324124470016687, 0.189275727630827, -0.05636844178480253
0.019551751870720488, 0.19311979577685445, -0.054699749436114456
0.01804859587417279, 0.19424758083543892, -0.05510251998562425
0.002948331614976753, 0.18582953611899827, -0.057859482053348926
0.004415204222003437, 0.18723469000220133, -0.057731146129616565
0.00019119418606990804, 0.18248883529884985, -0.058100702577272303
0.0013053321454295364, 0.19007480156174902, -0.058003227224951465
0.007412895924847812, 0.19064354281354617, -0.0574688796370074
0.006270317664485751, 0.19366597492285662, -0.05756884321651503
-0.005845193125270577, 0.18551051798224238, -0.05760603763373802
-0.006548022181698228, 0.1853530413404204, -0.05754454829481925
-0.00497368076521684, 0.1849379683040417, -0.057682284792829046
-0.005266964428231987, 0.19056419950193337, -0.057656625895562995
-0.009442845116281474, 0.19053054289453805, -0.05729128507681977
-0.006397671713597375, 0.19274474347979786, -0.05755770220586647
-0.011684380539688705, 0.19050456099444596, -0.05680780775432707
-0.01505814813066408, 0.1902191545346965, -0.055903813804416634
-0.017827492981874356, 0.18080157159548907, -0.055161773659918735
-0.01734393303498962, 0.19004810185612786, -0.055291342533474855
-0.012645612751165705, 0.18754369351818306, -0.05655024759933637
-0.013992456369105575, 0.1935672219406272, -0.05618936367675973
-0.018053278944633714, 0.19105016126065355, -0.055101274784757584
-0.028367802152201277, 0.17832873237528085, -0.05065335218994728
-0.025394017192044368, 0.1856780327624641, -0.052040048697100355
-0.02420730177740752, 0.18465333451883448, -0.05259342230767063
-0.02174301993318799, 0.18811034279432448, -0.05374253398581956
-0.027044883069142465, 0.18400438800206753, -0.051270238513707225
-0.03261650703437086, 0.18533378074694987, -0.04783997843237614
-0.02986969571683793, 0.1895487476885051, -0.049763313140220526
-0.03686323493786146, 0.18561621697559633, -0.044866392616918396
-0.03581718582842274, 0.18985900135169015, -0.04559884283854491
-0.025004776934394006, 0.19295701310225885, -0.05222155412299996
-0.023452880544994507, 0.19256151152899942, -0.0529452141493558
-0.04338238949156833, 0.18937803839726372, -0.038495310901030685
-0.04416089932911594, 0.18021148368014706, -0.0377168014683446
-0.03972998336708783, 0.1891367504785139, -0.042147715126089204
-0.04278556711436657, 0.18771230360817684, -0.03909213296785691
-0.041670887523762745, 0.18442867868363153, -0.0402068119787752
-0.032950053099380094, 0.19321572645181195, -0.04760642736193954
-0.04943570836845798, 0.19546772194701736, -0.030337556873642597
-0.04847734457359873, 0.19497162059795203, -0.03170624336836747
-0.04006596857546702, 0.19322369128645883, -0.041811730092438035
-0.052489692613809744, 0.19382490871295605, -0.0244297557092684
-0.054050067224574214, 0.19586742425050885, -0.021083543630882714
-0.04974832071489365, 0.1887813869267886, -0.029891099798630076
-0.04631520039840764, 0.1784832965336261, -0.034794107860020886
-0.05031346848853602, 0.17996428337739304, -0.029083984453228545
-0.047814648286473624, 0.17610556888886214, -0.03265267254605324
-0.04972986311935098, 0.18624584441594544, -0.029917459999088247
-0.05548508404660843, 0.19552128242943612, -0.016620912496239815
-0.05302587788285569, 0.18163120746996758, -0.023279910273975774
-0.05455311723404828, 0.18148904998039797, -0.02000475652032504
-0.05324454581673155, 0.1805285299206626, -0.02281097846975182
-0.054352784833723716, 0.1850102862775107, -0.0204343679053306
-0.051565674177111366, 0.17730987877025792, -0.026411306570324984
-0.057453625325038296, 0.19405943683018612, -0.007587332101734458
-0.05719127634581789, 0.18017304145095933, -0.010253297573826195
-0.05686868819495574, 0.17605383680754585, -0.011457216454585039
-0.05641613960758059, 0.18568868207156214, -0.013146155702184723
-0.05554413826202665, 0.1771857628220204, -0.01640051852101045
-0.056899926042943555, 0.18385251675215766, -0.011340634878707893
-0.057504002903832535, 0.19545050554560023, 0.0070114936968437725
-0.05737164207224332, 0.19518873326233305, 0.008524377789694811
-0.05776646424954046, 0.1749445359221229, -0.00401159853218032
-0.05804121466872222, 0.18390350290523483, -0.0008712147110792221
-0.058056092639648046, 0.18941710389022898, -0.0007011602328168905
-0.05771394831683209, 0.1788317094207671, -0.004611853068346542
-0.05760041230145045, 0.17751692195143798, -0.005909564157845837
-0.057675617381440294, 0.17836358343566044, 0.005049940492935804
-0.05728209118001738, 0.18133098165372882, 0.009547944344260812
-0.057379166285939726, 0.18271813264739198, 0.008438376039208571
-0.05757560637742512, 0.17667621809249848, 0.006193066108481896
-0.05698085853526447, 0.19209943023161025, 0.011038550754863012
-0.055053128553333275, 0.19548423250207153, 0.018232972991670916
-0.05537762413415241, 0.18274628844613228, 0.017021932937164794
-0.05522127429909913, 0.17505703504593928, 0.017605441385221236
-0.05504830267990661, 0.18193114717626013, 0.01825098348661485
-0.054701647242784805, 0.1865093724781538, 0.019544725664573326
-0.05651501743927095, 0.17801713930874702, 0.012777102093094135
-0.05366880732270226, 0.19531526463088922, 0.021901136717123404
-0.05280345534923398, 0.18052337773927327, 0.023756892839519577
-0.05422486062925857, 0.17552688379149906, 0.02070867473672864
-0.05057667583090461, 0.18367925236837468, 0.02853224420065867
-0.05033640427581496, 0.175491445594289, 0.02904750899818168
-0.05037630704119757, 0.18420063052035118, 0.028961937111331368
-0.04944684279386799, 0.19211880561420033, 0.03032167276595489
-0.04648490778039841, 0.19519588907020907, 0.0345517560110193
-0.047085974705929304, 0.1801180705179418, 0.03369334314264503
-0.04606702765347267, 0.1769186777304692, 0.03514855091547041
-0.0491561461962386, 0.1762195093744458, 0.030736830695294086
-0.04967466063912764, 0.1757449650068515, 0.029996315036707917
-0.04102445092618281, 0.1958489808665197, 0.040853248240159505
-0.043150061840993216, 0.1949452281065278, 0.03872763843076675
-0.04312130024725885, 0.17514068607214556, 0.038756400009543744
-0.040781513370501704, 0.17640955970483843, 0.04109618566950167
-0.03883126648017418, 0.1820171979978839, 0.043046431545609075
-0.03826769536455291, 0.18347465325220375, 0.043610002368146855
-0.038570161098993125, 0.18156302380769004, 0.04330753679100305
-0.02939682435365161, 0.18017622300796368, 0.05009442290253338
-0.03169214980991623, 0.1841802785346256, 0.04848721759402468
-0.02999715967649816, 0.19032754297451426, 0.0496740632907272
-0.0323798222443354, 0.18830616700408703, 0.04800570383566111
-0.0326125837082919, 0.18993058210301234, 0.047842722390277787
-0.03321083789515091, 0.19116184780158624, 0.047423820006594855
-0.023858185906036358, 0.18747438729504928, 0.05275621844086545
-0.02337790250341821, 0.1844057897060535, 0.05298017875338693
-0.022097750398993858, 0.18648098794337553, 0.05357712477279758
-0.023718952939913027, 0.18463482971133383, 0.05282114397948764
-0.02081603668545204, 0.1850070504879412, 0.05417479898407178
-0.015781588481760096, 0.18660694521489374, 0.05570997448384435
-0.012633834667905557, 0.18791621848061016, 0.05655341251264268
-0.013092309065742873, 0.18751065684091917, 0.05643056467725467
-0.014602766209964306, 0.18592247126838457, 0.05602583893577538
-0.01068352637844102, 0.18505707322558412, 0.05707599600439318
-0.023479478323590715, 0.19257798820656935, 0.05293281306823843
-0.012541900126538746, 0.19109589929732584, 0.05657804629690104
-0.017225009875421575, 0.1932650214718867, 0.055323210916237264
-0.003515569079784262, 0.1880318124993935, 0.05780985640473216
-0.0003833478522684428, 0.1771425260241389, 0.05808388913868987
-0.00014114307345799133, 0.18916414849173835, 0.05810507922486002
-0.000270077158311884, 0.18096770574975796, 0.058093798999995165
-0.001150838086918343, 0.17983733211624525, 0.0580167427170261
0.009183348184646445, 0.18360728358869952, 0.05731400086769102
0.004828516847807884, 0.1901369188898313, 0.05769499285988472
0.005140142299634294, 0.18842158845544033, 0.057667729622223766
0.002254097190895466, 0.1891426758744344, 0.05792022162259995
-0.005161123531032661, 0.19269083042248206, 0.05766588963086875
-0.006848151999581503, 0.1930204665380811, 0.05751829436542591
0.019827546574117057, 0.1847198725035138, 0.054625872531466745
0.012846678652255986, 0.1909518909354201, 0.05649638888834413
0.012515458350263641, 0.19091119193873013, 0.056585139026513395
0.019496838565417753, 0.18627048294280543, 0.05471448540117672
0.017523094852102027, 0.18356630618520323, 0.05524334799267189
0.0007532291235395127, 0.1914319055047359, 0.05805152836464636
0.010380666284687009, 0.19129323379151403, 0.05715715435782889
0.012575006366548552, 0.19430227914817666, 0.05656918319699086
0.02081236441807407, 0.19047525328201456, 0.05417652005701254
0.027380738050622813, 0.1821081653682009, 0.0511136372666045
0.028747962331946167, 0.17964802881813374, 0.05047609014213186
0.02779623910663105, 0.1813950533588978, 0.05091988595082404
0.0285238411130574, 0.1872029083398719, 0.05058059957821176
0.027837452031961748, 0.2039672283238569, 0.048148900861178894
0.0249836654708653, 0.20101011244336123, 0.05083737361891644
0.028656332410938713, 0.20852528119033992, 0.04418591766513102
0.024571869559920058, 0.20364307932579268, 0.04986948093796151
0.021731292661381386, 0.21013291119680028, 0.046518282076567274
0.02579958823671953, 0.20723152301614153, 0.04704976101705159
0.03934259484128033, 0.20611870926448214, 0.03738830889925088
0.03419562982393192, 0.19987377184290464, 0.045719649474289754
0.030990856031253323, 0.2038577730026634, 0.046012362858486484
0.03490182279638021, 0.20835442426455145, 0.03970105986698312
0.029916292107236807, 0.2072067376046122, 0.044440053187739414
0.02892653958094448, 0.20956339459524279, 0.04307191851004467
0.03996892004974544, 0.20105155774736458, 0.04009973461845657
0.043186799768666434, 0.20601691176985715, 0.03301190687522903
0.03716120184964894, 0.20354045019208297, 0.041520743775838524
0.04186558078952031, 0.2076344422881939, 0.033066571394834064
0.034060193630499336, 0.2100755707988904, 0.03862656144867824
0.03835098094947339, 0.2080384838206181, 0.036567327915399336
0.049038760319403164, 0.20619370839760992, 0.02312395094715864
0.04542985567523043, 0.2007954809101311, 0.03399815292633205
0.049320000455101196, 0.20040784826650404, 0.0286995557656895
0.04739044782574847, 0.20915926826402645, 0.021848719189168142
0.04725188995018601, 0.20592854154987675, 0.027288799752906736
0.04126407095757307, 0.20997135481846096, 0.03084636138088602
0.04581570871096003, 0.20842489073031817, 0.026452305876578156
0.05281567796781694, 0.20108992387059643, 0.02066930759009552
0.05565011343210392, 0.20065705423913166, 0.011642466695857065
0.050370165985601165, 0.20919595681797412, 0.013539398535018302
0.04910290303917499, 0.20395637263091057, 0.02581910722507814
0.05150375416703011, 0.20654023544703137, 0.01654665661164736
0.0488512955186631, 0.20977035260049426, 0.017366045599528018
0.04765771156650657, 0.20971444657426797, 0.02020942651500767
0.04982205042065794, 0.20782543666972297, 0.018862275768172423
0.05383513737527563, 0.20637434776314234, 0.0056205895740447775
0.05345777978925775, 0.20350345276942927, 0.015532341084421735
0.05166934240299517, 0.2092252482033753, 0.007626479788528826
0.04957864985924202, 0.21144737776490247, 0.008380616035360625
0.05196676882352532, 0.20860240452977138, 0.009199792674074073
0.056285914777970916, 0.201692930817271, 0.00345787641401356
0.05453054977834436, 0.20592194622974314, -0.00044951709773616245
0.05257384877166968, 0.20848903693435514, -0.003251228145456444
0.05550130311476238, 0.20381905062997724, 0.0022643295423115774
0.049287339802656066, 0.21188437061525872, -0.007043118674796802
0.05327615380341962, 0.2070526452214109, 0.006858854650975541
0.05636670270380294, 0.20019761725030882, -0.009060955574568864
0.05405382005069585, 0.20420428692256712, -0.011858921455604887
0.05541464386515259, 0.20393750213889056, -0.002527603623492136
0.054684771535346184, 0.2043858920255894, -0.008117052584090066
0.049333174731944485, 0.21130713177666746, -0.010040730983439314
0.052792913060954974, 0.20778528821226863, -0.006447688669999499
0.051243402869585265, 0.20591697472049264, -0.018746398362032412
0.049176023757617246, 0.2063880904144914, -0.02258342080335423
0.054645706242178446, 0.20135761630037993, -0.014361119405249187
0.048988782566635095, 0.2088876366164072, -0.0188747615934593
0.05215327100190821, 0.2046393119744414, -0.01805251171933374
0.04665056381534012, 0.21122057607780495, -0.019051975706791242
0.04966725189055801, 0.2089251290757751, -0.01690132674999162
0.045046892676164185, 0.2049734476193435, -0.031328809535598454
0.049495031160097236, 0.20078131830378543, -0.028068216391211657
0.040824314079609014, 0.20937094041967658, -0.032416293434028035
0.048810337393828104, 0.20457063258526928, -0.025668744005491004
0.040274425874567026, 0.21142471751189493, -0.029901148898292998
0.047293324090034276, 0.2081588841854918, -0.02372807278377211
0.04479901765763441, 0.20192852613342302, -0.034147553320788775
0.039494312142940705, 0.2047178240259001, -0.03829663189819212
0.04356856741521964, 0.20478407137546348, -0.03361674280393866
0.03491183661861839, 0.20904317488844656, -0.03900336803019742
0.03528930167038055, 0.21193060087995272, -0.034955533890980106
0.04422776968215201, 0.20691777793319718, -0.030575062771467553
0.031452474783310244, 0.2011682602265839, -0.04703922583773994
0.03866789747882615, 0.2007379103826038, -0.041569472860800524
0.03183731419604761, 0.20612344440066602, -0.04393965280169371
0.036809342432222114, 0.20415243522876314, -0.041409464864293935
0.030315987903769725, 0.21140783945998992, -0.04000314558333412
0.027479974922072076, 0.20852662196952487, -0.04500843437254379
0.038925386269887646, 0.2067110504895903, -0.037318185415938634
0.020581943238993525, 0.20258439945370277, -0.05222910404681109
0.021558224311897217, 0.20081195883197833, -0.05251784161589778
0.03150340983807419, 0.20461670727927314, -0.04515768081689939
0.02026087773867823, 0.20467111965895618, -0.051272752912407515
0.02906859938350337, 0.2066089488638913, -0.04554878112389129
0.02408523604040433, 0.2112670798910835, -0.04425576996304105
0.020471620103202942, 0.20919924164760195, -0.048001443160919685
0.025792574684589203, 0.2046375628211303, -0.04871308192496727
0.013449546117925645, 0.20280963242928562, -0.0543181117559217
0.012917076849348643, 0.20644780138393198, -0.052527483639456786
0.026124048753815892, 0.20691536922304726, -0.0471447044550866
0.012564422143914945, 0.2086654994845264, -0.05101909571816242
0.007628915949452398, 0.20549169133285403, -0.0541335273934662
0.015074215085753035, 0.20492291112662583, -0.052794206785530456
0.0009171218158900749, 0.2019379207980021, -0.05641463801450747
0.015295306405258214, 0.20690342680621102, -0.05157521596637914
0.001168238230100657, 0.2047756882684185, -0.05508335335954127
0.006850854554166249, 0.20680907767869017, -0.053449457521122845
0.01719864079874942, 0.21009519114701014, -0.0485831004016521
0.006449602334109614, 0.2087268673178766, -0.05212548558157071
0.005181775155062812, 0.2104964906770424, -0.05074697546947221
-0.004624647736218663, 0.20622002362633562, -0.054005152272930707
-0.007697348711415044, 0.20937338885883533, -0.05155814712169418
-0.003115142716375473, 0.21146967263925262, -0.05001847898023366
-0.006362387603020421, 0.20081282007523524, -0.05636788314950863
-0.014092631876658601, 0.2061361929597854, -0.052385111672592174
-0.007302971022769909, 0.20401279936450895, -0.05495639712182292
-0.01621440695777773, 0.20945178071537335, -0.049466416778836834
-0.007679117607327521, 0.2088869569037982, -0.051904460537830176
-0.01041994928358428, 0.21212127367266637, -0.048447042396741524
-0.01877249318693793, 0.20274297458554452, -0.05291809458341019
-0.0258920466559023, 0.20606480011646225, -0.04782407202069902
-0.023897491691021858, 0.20586146792537824, -0.04887419548527183
-0.0172085527080275, 0.20591575650904503, -0.0516723249911668
-0.020502829634741558, 0.2081442107606202, -0.048808721153581675
-0.012827916203393271, 0.20703748115525575, -0.052138370815596684
-0.02838923702544984, 0.20396883403678523, -0.04776146727934239
-0.02656907440050063, 0.20110575083431353, -0.05005793343080879
-0.029866675727785646, 0.20887409786663108, -0.04303779028657227
-0.026746888080679897, 0.20380533605190698, -0.0487594496480832
-0.022260894460903177, 0.20967571072560315, -0.04674086824364272
-0.024325853644365555, 0.20675041275648837, -0.04811172396940586
-0.03329204851633457, 0.20115377657843717, -0.04575788856023071
-0.03787374275952702, 0.204913512360062, -0.03976915780703273
-0.03242002258119344, 0.20505015809016638, -0.0442327341149048
-0.03735025106815703, 0.20803412993096343, -0.037572387146464784
-0.031077648525880387, 0.20705655583126847, -0.04375627134573534
-0.026355908248481965, 0.21084586451604392, -0.04341460003810034
-0.04341182941345899, 0.2002852427001066, -0.037069099762933384
-0.04475840912622986, 0.2051162307621264, -0.03160766569022767
-0.039176744375285136, 0.20353396676006913, -0.03951009368403022
-0.04216545851401547, 0.2081044785162905, -0.03205977891352013
-0.03872680874748968, 0.2068294264909905, -0.037398609675018527
-0.03258064309623794, 0.21127172607206657, -0.03853152927651174
-0.0462968612231144, 0.20148317565468496, -0.03230383673705892
-0.049725518986026465, 0.20523618585847989, -0.022863507420866607
-0.04886001076883294, 0.20646286826724314, -0.023166480196532974
-0.04627587654543876, 0.20432802593230798, -0.030175805553410144
-0.043572408042444506, 0.20334860074537325, -0.034950450778392324
-0.04522730245335728, 0.207773386842577, -0.028094535209418795
-0.042849017516000246, 0.20966273140849961, -0.029083667954613035
-0.051717258470617394, 0.20585609995727766, -0.01716417395097977
-0.0527773925994566, 0.2027729959143073, -0.01923639609346717
-0.0504517665802853, 0.2076717167715263, -0.017392444891621554
-0.051205295765770785, 0.20426220439784362, -0.02092329663913603
-0.049027263138138655, 0.20808508047338645, -0.020132953095981086
-0.044968330365240734, 0.2099100580856118, -0.025545996420115524
-0.04781757347847598, 0.21201840570422917, -0.013139144145791029
-0.05407445310268238, 0.20625524867739595, -0.003616485801507185
-0.05415624968456324, 0.20005508324640292, -0.018102392615948034
-0.05380451798687469, 0.2038973712762988, -0.013423925697890079
-0.05251052114532738, 0.2086611720380096, -0.0025809446758818183
-0.052098023388287576, 0.20841691001556426, -0.009215910224227516
-0.04969673982890602, 0.21153171459697373, -0.006130117228570996
-0.056759786281084225, 0.2006077304294414, -0.0027782073727830965
-0.05465873371872433, 0.20507449270266895, 0.004187206152497857
-0.0544870189530932, 0.20569302722974703, -0.0023525592894338234
-0.052795015126623906, 0.20852794917838846, 0.0004082611414126895
-0.053177541398049324, 0.20739477913127252, -0.005214758392485389
-0.05061057166099542, 0.2109802956429272, 0.0015740368136032388
-0.05687173941974216, 0.1998659589226659, 0.004736313276388593
-0.052811021396554414, 0.206374000157165, 0.012011479447828093
-0.05539018816128159, 0.20354653822775437, 0.005207379667560383
-0.054893494490583145, 0.20393992380411818, 0.00846942530264858
-0.05166162863854888, 0.20912561361903897, 0.008521578522208108
-0.049218581197362485, 0.21150295548127587, 0.009764230377389055
-0.053788218383483466, 0.20017224516365076, 0.0193037461970635
-0.05451454555625308, 0.2010914838529978, 0.015241899670600087
-0.04804464995835486, 0.20603137369943525, 0.02546134819632383
-0.048619600936101494, 0.2092721165862294, 0.0190242821767334
-0.0519607160814165, 0.20478583076314844, 0.018468300601164493
-0.04810003854073176, 0.21003030583780474, 0.018565189276867254
-0.05135267914639842, 0.20671857857548587, 0.016630085020065632
-0.04515226276798223, 0.20577522154601433, 0.030430414658669552
-0.05114647471128357, 0.20145621141504652, 0.023919248690988503
-0.0455273589941963, 0.2076268960089763, 0.02784629769930099
-0.04808703425024462, 0.20441566834938346, 0.027416157638604673
-0.04700966037363144, 0.2069856017638441, 0.026296371496077345
-0.042677649052438, 0.212125106607797, 0.025332458304740166
-0.03936659898705039, 0.20653386112096, 0.03705014348304226
-0.03839413201720277, 0.2013505071674592, 0.041513687590106624
-0.048012234479999555, 0.20003705032182922, 0.03081318651408488
-0.03727896766611904, 0.20887730069418126, 0.0368018611631864
-0.04311549817675611, 0.20437143158493193, 0.03464880691544394
-0.044374512359865524, 0.20682164961226937, 0.030483854515699516
-0.03441048261992834, 0.21211558933174748, 0.03559087205310905
-0.028248062777523092, 0.2029763301922794, 0.04844331443699987
-0.03598774380567328, 0.20400469114468378, 0.04234288831968093
-0.030265627456467672, 0.2048335452821931, 0.04588276489230171
-0.03796047679565301, 0.2071768118334774, 0.0378181144215422
-0.032513207745087744, 0.2110360991194153, 0.03888705252898336
-0.027629550922063782, 0.2081168308641189, 0.04525688154912305
-0.033272947652662296, 0.20502679297805151, 0.043650783886500344
-0.019309643391614003, 0.20326555911374664, 0.05253647873190245
-0.02082447656800973, 0.20269320826036405, 0.052070345124547945
-0.03165015647974565, 0.20749898154376276, 0.04297410230410054
-0.020906571107814666, 0.2045664395038003, 0.05103346981629098
-0.02047147195491315, 0.20895383096772713, 0.04819268762366366
-0.023294811518506285, 0.21081827271186243, 0.045085307451328306
-0.02748789191337512, 0.20377416745259858, 0.048432313705704465
-0.011495092796157524, 0.20048984728517039, 0.05575544856044055
-0.023998005303172608, 0.20681125930351824, 0.0482172017945489
-0.013252279395547953, 0.205188893616783, 0.05313505781184116
-0.011508479742941042, 0.20749564912893387, 0.05215705985498762
-0.00016911090935981644, 0.2017711364193031, 0.05654377073522147
-0.014128042354776502, 0.20332999112304756, 0.053930159196280636
-0.007666384821181807, 0.20633020640344427, 0.0536798661571512
-0.0177371947830158, 0.20668508229083982, 0.05108049885714436
-0.00044219050364272786, 0.20844316810217944, 0.052852119891898794
-0.012862022513560134, 0.21016421978572233, 0.04967859402435002
-0.009104169384185297, 0.2060052656405492, 0.05372861208605088
0.00504627917028786, 0.20219957988023857, 0.055953458830590705
-0.006154076157624897, 0.20674844945827087, 0.05355339215360451
0.008120750720021573, 0.20463500851636882, 0.054550656041340184
