0.17865701394139383, 0.03326302851849024, 0.17538928695007086
0.14654198005501431, 0.03136564980247462, 0.14484893186790165
0.06398919714196336, 0.022662474501077917, 0.0663439186389764
0.10792491540252651, 0.018338110771151793, 0.10812536903465628
0.034565624779883786, 0.0195462996004554, 0.038363057732116325
0.18431250707414354, 0.025826811356234998, 0.1807674864456766
0.1943035959979701, 0.0217789836315923, 0.19026869319935646
0.18038323364128364, 0.03270177295482798, 0.17703086664063444
0.07590337422727153, 0.02629561673358484, 0.07767391101672268
0.10704890192359126, 0.025599606451640833, 0.10729230012640334
0.18580184216654, 0.03166747383697919, 0.182183789089783
0.18023649999659538, 0.03795307164694198, 0.17689132158054363
0.1541973753135687, 0.019519132992388097, 0.15212897866130176
0.07995684553406347, 0.026861666001258073, 0.08152863031265127
0.138531617515876, 0.024326827757858462, 0.13723134467816583
0.12425204330717635, 0.021699982151237234, 0.12365193505937637
0.19004483283262993, 0.01991298646826288, 0.186218749507482
0.005048981822342117, 0.05210834859426331, 0.010293670612644398
0.21860270723694264, 0.03971318636144677, 0.20239173467505406
0.04837679222093866, 0.03978190714423295, 0.04051247922768759
0.044104797859307786, 0.05219982792123369, 0.0364499595144053
0.044638165534943104, 0.044777517682713264, 0.03695717066441838
0.029211179939461825, 0.030724161097561757, 0.022286606183497787
0.14060597643576722, 0.0425487248370981, 0.1282194074486625
0.0955573905982739, 0.04984171607128413, 0.08537968498641649
0.05742537448314986, 0.03888597189930955, 0.04911738345278924
0.10105956339773661, 0.03372649133226778, 0.0906120620196999
0.033465294103570395, 0.027293690770330847, 0.026332127261172768
0.03171952143772874, 0.03333413426623949, 0.024671958018148886
0.05299889190250045, 0.025729285664401434, 0.04490793672658098
0.05472549132158534, 0.03370087682249914, 0.04654988039547294
0.09103282899800957, 0.030437956184424634, 0.08107696496411584
0.02898059391721958, 0.054820152672163905, 0.022067339436046274
0.18643002701988584, 0.04424551991777989, 0.1717965762765874
0.1229304288408779, 0.049255944734833426, 0.11141054550866678
0.1435741853668455, 0.04645335823235419, 0.13104207881456606
0.01596305733899229, 0.03236297336048611, 0.009688077348763
0.054639031075776695, 0.050301520486572965, 0.0464676684895349
0.10744163897421896, 0.04377213025053427, 0.09668121181461482
0.09801348370293611, 0.04565505510822014, 0.0877153466496238
0.014510112226736762, 0.057822515046246185, 0.008306387966239902
0.02080575762566981, 0.05242783397422716, 0.014293337175228484
0.07245029751183528, 0.04529480564410575, 0.06340559550923452
0.0839665695560672, 0.04104813043729172, 0.07435718990770747
0.05393958443464692, 0.055145157683302824, 0.04582984258840956
0.22542677408293502, 0.01783390421035161, 0.20888125012634207
0.21372393284574803, 0.015117558801828685, 0.19775223440318307
0.1009062725398166, 0.01587084369915319, 0.09062343591342441
0.19189082852365463, 0.02837556782076507, 0.1769896369010669
0.07685032925762032, 0.025192707958233657, 0.06758987406217158
0.07422136671559044, 0.01723868063900512, 0.06508982904242534
0.20607974451504957, 0.03229065595207528, 0.19048282760891422
0.1004068526623132, 0.02842296730967212, 0.08999135541340957
0.19172431439634255, 0.024856924147344094, 0.1768312930218373
0.13785899169424295, 0.01809786911418689, 0.12560713634484463
0.04470108644602724, 0.018359393668810113, 0.03701700218737508
0.057026693464627604, 0.019953186959541323, 0.048738250465873344
0.17259410600749758, 0.01429402645935901, 0.15863910482337143
0.13942865609515762, 0.02270573876856161, 0.12709982869009512
0.16441124340931262, 0.021208471176827497, 0.15085745793994593
0.12788983495064807, 0.027076828707897977, 0.11612677860394115
0.10816148431891988, 0.026478230048910166, 0.09736576066359683
0.15363019016064694, 0.03263350652303095, 0.1406050091506189
0.17478660172096228, 0.021562667536433523, 0.16072408520200754
0.1660947931914926, 0.03588571829718229, 0.15245843545494459
0.1457326741245369, 0.022330414117606126, 0.13309474511502076
0.13900964290966464, 0.021912057928752872, 0.12670136206843458
0.13859856040981638, 0.02885906592483845, 0.1263104248795866
-0.005711148312781518, 0.03439896287357863, -0.010923354255109685
-0.23244258962061193, 0.008039953677837436, -0.2185117645893604
-0.2251394279475698, 0.005301502884998048, -0.21842628154035706
-0.21858875238927056, 0.0072121392428174235, -0.21219680083602388
-0.22325740163900554, 0.0026183113791495684, -0.20798452598912118
-0.01119565925812592, 0.05853779452053187, -0.006185721181722821
-0.2332762910554641, 0.008265443262623995, -0.21908002964085563
-0.226601076402587, 0.026625544602347298, -0.22098257382081127
-0.23400043992239988, 0.011890553207054039, -0.2170345275277077
-0.006995654074542704, 0.019255879029173792, -0.007044535704226815
-0.13114505493349407, 0.01456665072234783, -0.12029988090024836
-0.13055365932625854, 0.014569396540993608, -0.12073176093053996
-0.0243863872962501, 0.01880701083843456, -0.020226866499908267
-0.03737256654174351, 0.018279759872815625, -0.03294423967477043
-0.184553810508356, 0.012431105167886812, -0.17103893911413467
-0.20623876864106774, 0.011567229348203966, -0.19148799938061664
-0.17953588406972665, 0.012580289814173926, -0.16871824531069768
-0.17783540419007943, 0.012574159084725558, -0.17062682866154233
-0.13825283128488763, 0.014220419968499957, -0.13000134397903979
-0.15301270525933441, 0.013614996396349291, -0.14474848341952656
-0.0689123139258417, 0.05380193174165749, -0.06738956789412269
-0.09841371629229988, 0.05151268024665076, -0.09291611266166339
-0.06227856623923297, 0.0544212797793755, -0.059201780027459364
-0.13326121510043773, 0.04872867996658059, -0.12493862787768989
-0.13619020571221677, 0.04849478809994805, -0.1276276456458919
-0.12552520694758784, 0.04919238982108956, -0.12144188338993914
-0.18886370489843468, 0.04397611441239549, -0.18329935525794913
-0.1177335104898593, 0.04971828469355373, -0.11654261261967822
-0.20025481512927135, 0.04318509418035797, -0.1909811346630521
-0.22082072507503414, 0.03598738016562339, -0.21548560306285872
-0.21899677685167035, 0.009802877400920895, -0.2057636413898209
-0.21541460997297873, 0.01864332648051982, -0.21034458241839432
-0.049939471109879126, 0.04615240425570233, -0.052983073826436466
-0.008980742486966632, 0.05161819659046179, -0.014032638659846258
-0.025016119343951287, 0.04919515487832209, -0.02928176705895616
-0.1645075395800807, 0.0421520724232504, -0.16193362151299612
-0.10192779276975067, 0.04102275146119721, -0.10242229684787496
-0.06991968212159055, 0.04772151400524906, -0.07198361075930526
-0.04565763234937806, 0.05304839825004831, -0.04891117988161807
-0.02337829166638506, 0.029788980912477624, -0.027724254341291457
-0.015582200555492219, 0.026042451425110955, -0.020310424279766627
-0.056437799812890134, 0.051822606405083835, -0.059162772743166975
-0.009293202518823537, 0.02036041543349772, -0.014329792095000064
-0.0780965113947009, 0.0316152456802875, -0.07975951945200283
-0.08487438247448793, 0.030810229491895425, -0.0862050570727249
-0.05194932812530034, 0.03624766578679672, -0.05489438760006022
-0.03620513387793888, 0.031062028299380328, -0.03992216789945334
-0.02785632706429407, 0.03979740966897205, -0.03198271740213861
-0.03998316713109638, 0.030453727610472495, -0.04351495620471616
-0.07652845335330521, 0.047662253140104215, -0.07826833953272525
-0.07319447837930346, 0.02797516930769474, -0.07509784545021309
-0.04076197430438558, 0.024269809910450173, -0.044255579531541196
-0.04507103619930604, 0.02381762015921881, -0.048353358914747145
-0.1237319134042073, 0.04557795993930326, -0.12315731179434507
-0.1345880279539875, 0.04645043498879309, -0.13348112695082487
-0.07299338279124327, 0.02860903129384824, -0.07490660973404195
-0.028426696493684005, 0.0388445113269439, -0.032525120799730994
-0.14800005224865706, 0.016373628251808547, -0.14623552952008406
-0.08002917416156106, 0.02352816867298836, -0.08159741993478688
-0.18386666665378426, 0.01930913868334918, -0.1803435232049988
-0.08807078203359801, 0.02150228308722295, -0.08924472894381094
-0.09467223847291023, 0.02591003186234947, -0.0955225022228808
-0.1435780585597637, 0.023177728566583726, -0.14203035813463316
-0.15424095636867496, 0.02152542565709944, -0.15217042938785288
-0.19128506567184775, 0.03164103153957208, -0.18739818473996922
-0.17125459868196435, 0.024097375050449822, -0.16834985490909468
-0.14857148876684045, 0.03307631766602561, -0.14677895190190765
-0.12613496225320336, 0.026341109692506026, -0.12544253733625338
-0.0769617514583271, 0.023053534392547557, -0.0786803997983847
-0.10785548030910025, 0.029777021055698204, -0.10805934086387038
-0.08064389565168009, 0.024613176214448716, -0.08218200053932324
-0.12525533082839982, 0.02281819566350223, -0.12460603524756803
-0.04333205012266463, 0.01888357705818507, -0.04669963790897747
-0.1887005264629319, 0.02177869116169139, -0.18494036858563262
-0.09024809464596599, 0.02874708054637943, -0.0913152850107389
-0.15739924675144223, 0.031185089849747574, -0.15517386433623934
-0.1617089509956998, 0.03045115688819529, -0.15927225378928866
-0.2131576317407376, 0.03311718608288494, -0.20819826797759716
-0.20769361800417355, 0.02832719014671406, -0.20300218054942315
-0.1193969542940908, 0.04946802543383988, -0.11865960731318106
-0.008399339701380723, 0.048770270693071556, -0.013479743209253903
-0.22149180017993114, 0.030056545915874387, -0.20513921965731235
-0.2138857642020411, 0.028358335863880417, -0.19790613047981856
-0.11352512227110385, 0.041856415659929584, -0.102466414043449
-0.015610657710737927, 0.05541646387302162, -0.009352934052904913
-0.12254122395782195, 0.03445493616883132, -0.11104043534427835
-0.10356385575658066, 0.03588142043969818, -0.09299357390734142
-0.015641287482992736, 0.021817935083622172, -0.009382067593769625
-0.01771227948199665, 0.050803793355260966, -0.01135150891541038
-0.07301428683424975, 0.0376805371014894, -0.06394192512895104
-0.18792217738960357, 0.04422777512563446, -0.1732155983094465
-0.08602252794279325, 0.03677090524751993, -0.07631234035820021
-0.05150043812095268, 0.02572272439690791, -0.04348295529271871
-0.1564905703108956, 0.0398569454638818, -0.14332516090558317
-0.024967120476982234, 0.05331351272258315, -0.018250626806500293
-0.03241922426137266, 0.028699592331413067, -0.02533733974588327
-0.09236714454014117, 0.0500290104920202, -0.08234586259250523
-0.0781167510013103, 0.04168429436169528, -0.0687942022678384
-0.03061468652199599, 0.04100336556847387, -0.023621280868186743
-0.12818776388548217, 0.037659183816669176, -0.11641011100583744
-0.06929024582729605, 0.029021727010418552, -0.060400484453795575
-0.022446589000579144, 0.05561728811382679, -0.015853682797553253
-0.03100425828286453, 0.042977623674178574, -0.023991750637853894
-0.05714887692670042, 0.049553522916065906, -0.048854433274523226
-0.09318931697924598, 0.04684822760979553, -0.08312772242849432
-0.049935530392614454, 0.047491877431387206, -0.041994775193964815
-0.0158059032223491, 0.04529084912499445, -0.009538607891425523
-0.12989917778058627, 0.03810185272778774, -0.11803760999751092
-0.10140982869856911, 0.05129294182026986, -0.09099430119467436
-0.08456255786038369, 0.01653432074351975, -0.07506863147713246
-0.22641652354306271, 0.011994554405142539, -0.20982247235629095
-0.1325561647326007, 0.014547652735944461, -0.12079477793980921
-0.17927554413469388, 0.022972557944713985, -0.16499293407212476
-0.17713630984706707, 0.03438525796349921, -0.16295858994705048
-0.18115174366134407, 0.01802414817089968, -0.16677713968306826
-0.20536918041309327, 0.021983429627615517, -0.18980713534442262
-0.18468081758397495, 0.030768822167167153, -0.17013317247186416
-0.1599899243401024, 0.03534157401190544, -0.1466529337421283
-0.1839490471061054, 0.03941212566989421, -0.1694372811706077
-0.1882476302596781, 0.03775740791106426, -0.17352509447528164
-0.07493759182980816, 0.024284688015017448, -0.06577092796301076
-0.16084236836834637, 0.02945987188003, -0.14746358124801487
-0.13308149559568386, 0.02627785749287457, -0.1210638928285871
-0.10586891933702734, 0.017013316531148258, -0.09518561753230607
-0.19782440784532818, 0.03829321071369053, -0.18263229902152334
-0.10088643226505224, 0.021082049844556732, -0.0904474334289267
-0.13630765311218213, 0.021748220432963632, -0.12413186460479636
-0.08927086839636392, 0.026582937523157633, -0.07940140837646198
-0.18339904419975697, 0.013929605588159592, -0.1689142501791819
-0.1688359444104181, 0.023565028575121483, -0.1550652135050791
-0.18336083190947033, 0.03135571403237729, -0.1688779088509153
-0.2812063462048353, 0.531780468888503, 0.07907206070053317
-0.2819405420148427, 0.5296427406316222, 0.09944039244072192
-0.3029890199108132, 0.5468169440083355, 0.08853221125320175
-0.30887392950924075, 0.549764536629906, 0.10413756847384997
-0.28545838374389243, 0.5361828629938292, 0.06995947898147456
-0.28881000148636504, 0.5391544652623562, 0.06513357164004102
-0.29368321337490266, 0.5396424717301468, 0.11193059500711865
-0.2987847537838479, 0.5431142837045304, 0.12185923068048
-0.29849233686901866, 0.542834916315518, 0.12485746012284485
-0.3171077133835418, 0.5538658938028181, 0.08992680430960828
-0.3159820072801069, 0.5527888126780407, 0.1127541340716114
-0.31968265546439, 0.5543501506454657, 0.11832660218539248
-0.3270806536817594, 0.557146863286928, 0.12517373622018868
-0.32537225768927963, 0.5572449378323394, 0.07739761909592376
-0.3326206611255078, 0.5592449945773931, 0.07116117694103477
-0.33911095177217176, 0.5601377208901313, 0.14317150183944893
-0.3467014056144274, 0.5604023271398467, 0.13617783877419468
-0.3402553755298927, 0.5602108694907448, 0.07923934745970751
-0.3591591671524711, 0.5560358923603651, 0.15077605397139782
-0.3541648646715039, 0.5576158121463739, 0.08383989508629489
-0.346963322138858, 0.5599435217640081, 0.08351682276282832
-0.266552298307356, 0.26267227562495804, 0.00942462906971125
-0.2640880328056366, 0.26759161162310974, 0.0058804735372871425
-0.28045786749632834, 0.25666210911657567, 0.04290440215676066
-0.27907366086423724, 0.2593493904394434, 0.04444322348592277
-0.2745210713131919, 0.25495017400706005, 0.019414662069794753
-0.2935207502689079, 0.2507603259679274, 0.03438718847324956
-0.3041524874361785, 0.25085351304425657, 0.05368677864711611
-0.2999653371107869, 0.2507804880962402, 0.020031954206819788
-0.3082613324090906, 0.25075813999171837, 0.03603627929441237
-0.30944875306947517, 0.25115108019895305, 0.023450819413497512
-0.2977931208459049, 0.25083471696890786, -0.006781028992715967
-0.321439682361299, 0.2547471856986614, 0.03894833567396264
-0.3186686239336465, 0.25657937894299365, 0.016256039182123018
-0.3232196752704105, 0.2607017792000876, 0.020080729989363784
-0.3132671922807813, 0.25508472188597753, 0.0010183588834335837
-0.322626001026811, 0.26226902568134863, 0.010748485039566293
-0.33332709801668353, 0.2716695106988599, 0.03855826659195749
-0.31662289596476156, 0.26487358321035065, -0.024540323125175383
-0.33500088036868647, 0.28121090107796914, 0.023005753586055215
-0.33225108986042695, 0.2814484072952127, 0.0068038039224900225
-0.32827571219393437, 0.2756484665963412, 0.0004766777237475671
-0.3336576296075729, 0.2844567117613443, 0.007081420614097749
-0.34161508333330964, 0.28796781219990186, 0.05072109641971752
-0.3420717636196333, 0.28638310356717733, 0.057988845714911086
-0.3355247459275591, 0.30078486389471354, -0.01604518123813269
-0.33621587911752826, 0.3005671449357171, -0.01199121734306726
-0.3457248186414442, 0.2981328411967086, 0.058198595762802986
-0.3478028328723983, 0.30713288143484974, 0.054658318473919505
-0.34971898631490733, 0.31289327583893733, 0.057721074008005385
-0.3434595725690949, 0.31700925270415037, -0.003815374207841769
-0.34323673304315483, 0.3141480320552301, -1.187433813250316e-05
-0.33903018890078085, 0.31543759398807053, -0.025699830773443663
-0.35082712041455544, 0.35013411767996283, -0.01823373523738456
-0.34907795289190047, 0.34858496088354485, -0.027199743395706306
-0.3540188337832981, 0.3298650918908671, 0.059366411148198975
-0.3558172306777041, 0.3398386606829057, 0.05319092964830077
-0.34767932528755713, 0.3347083769283779, -0.009690408189981294
-0.3518916264467551, 0.34034532794387073, 0.006766747005433083
-0.3620643171740816, 0.36742811514420726, 0.05996238785987641
-0.36269465435764026, 0.3770302866517795, 0.04181355550036566
-0.36412224769915347, 0.3806280125183687, 0.053027930642747786
-0.3659007954468418, 0.3876328147513583, 0.059727396800530574
-0.3608120548162803, 0.39899982044795046, -0.024425415753248192
-0.35824527585231136, 0.39113424716815715, -0.03327014810036002
-0.35883003933437035, 0.3901214291572922, -0.02662500585800906
-0.35762141992176383, 0.35904409611317956, 0.02194993363415617
-0.35748971867172386, 0.3610972277177166, 0.014339300743550028
-0.3602096850602225, 0.36132392004137964, 0.05080133906984926
-0.3553851955571116, 0.37468245508269515, -0.027565364879194414
-0.3541174243523335, 0.3755222891612194, -0.03859438832089859
-0.35605044905069394, 0.38206511666913534, -0.035703754436246765
-0.372742857507536, 0.4452841992886676, 0.04383743865121428
-0.37237097311222633, 0.44812789672440556, 0.03186956013200147
-0.37296515101353134, 0.44069134255358844, 0.056442905594066235
-0.37216530632980904, 0.4420925980899044, 0.03958741509178925
-0.3689870878523668, 0.47032606373637986, -0.03698598910775924
-0.3693830707115924, 0.4539675743396774, -0.016020680978054827
-0.3680037916887192, 0.4604736809995851, -0.03777290782508046
-0.36981586262591476, 0.4653944793275715, -0.022877179507960997
-0.3691093414398413, 0.41344016508539594, 0.04501580968177295
-0.3676249582429215, 0.3991068132110127, 0.0578566360038687
-0.36736677143769086, 0.4088966360509131, 0.02786051209707502
-0.366715668892302, 0.4319920775746811, -0.0183892269985837
-0.3662876810550176, 0.44571359962854407, -0.04014410327050812
-0.3659626911058097, 0.4253004653408182, -0.017117616884437404
-0.3644605964267177, 0.43262166336082863, -0.041092515063032145
-0.37007925683943504, 0.49599186688476343, -0.038542337069059365
-0.37076592574030465, 0.49410864666321025, -0.030482122693068426
-0.3742510485319222, 0.4920326155006006, 0.018225499123478033
-0.3758505799829138, 0.4887430718352428, 0.04960005042842996
-0.37390977694834737, 0.459947779939138, 0.04226446939530945
-0.37376416149475405, 0.4692075202882039, 0.02750622556901401
-0.3753431224399839, 0.47689662608632943, 0.04650571333860358
-0.36978501333244584, 0.48645390158255675, -0.03966769306963032
-0.3727902912670522, 0.47877959564376205, 0.0014357289862495766
-0.3689981849318178, 0.5199534308654875, -0.020953961509124788
-0.37416151604986175, 0.5147131900219396, 0.04503324494529848
-0.37504247004613206, 0.5033398175853654, 0.04164627146824835
-0.37522021290499874, 0.4994962345547769, 0.041133862615678106
-0.369480394201124, 0.5104980663997891, -0.033249898838481486
-0.36330099411936184, 0.537709747918008, -0.03302304067438293
-0.3709531470814518, 0.5297016535394765, 0.03659993494119014
-0.3646343939010035, 0.5325717747367994, -0.03915541394577609
-0.3729356018366724, 0.5199557026414225, 0.03747026253519945
-0.37258711804310735, 0.5226968511099064, 0.03891803309198733
-0.3653384527270533, 0.5454290577552511, 0.03497723727490798
-0.36119022490120173, 0.5448203464921145, -0.02042775384155244
-0.368058346623006, 0.5385659987527995, 0.03163889162916574
-0.3581595440074211, 0.5531552533344235, 0.04454360166709156
-0.36215060766520235, 0.551449062820356, 0.040893791118739864
-0.12196090480315624, 0.5705666458770231, -0.26790585666961203
-0.17078942777046052, 0.5656304674413792, -0.3205651371939432
-0.13175033942788278, 0.5607215578670055, -0.3495001399596328
-0.07092907308546417, 0.5674933800651026, -0.3737850807395501
-0.01716481652781349, 0.5722983262558998, -0.38149535871747087
-0.039089839060629204, 0.5801064988582383, -0.38263236567103565
-0.08525810905538464, 0.5719781667198343, -0.3722245081619414
-0.16898618928285028, 0.5715140056567029, -0.3257976780104115
-0.00845689760679862, 0.2711296281366526, -0.25172428441832123
-0.015259984403173246, 0.26417159044819405, -0.24202652434359453
-0.026775240025460376, 0.7233824669304418, -0.41671335058081094
-0.021806993669460817, 0.7062674970932585, -0.41509003175145054
-0.010800776259409573, 0.6923719770534723, -0.41366083538016823
-0.010166040100827655, 0.7955207487875463, -0.40811004942865897
-0.006234965608538519, 0.7782860768482156, -0.4178858133877903
-0.011596795537589275, 0.768015714221241, -0.419236989102129
-0.02078110830507994, 0.7621865354613886, -0.41921455136159547
-0.02175735189580876, 0.7343309519818605, -0.4179861999917195
-0.005206604154111036, 0.6703900705735065, -0.41001016770836574
-0.015680066137300785, 0.6621252961303568, -0.4080775191258006
-0.02258238477697702, 0.6564199037604388, -0.40641441276982837
-0.016562327335905753, 0.6250447935749655, -0.398432641195886
-0.007560388367431335, 0.6167706619001678, -0.396070251952934
-0.00697113402580922, 0.6015502617484683, -0.39118511771692505
-0.027223804257560734, 0.5926193887533318, -0.3875416339433446
-0.025462687116160874, 0.5563381409493906, -0.37596178946251824
-0.028006980605125367, 0.5451981622552313, -0.37231048983965254
-0.0018615287579298065, 0.5310084003499986, -0.36855698821207883
-0.0070060873084489975, 0.5126154010128672, -0.3623639544625007
-0.012599989922954951, 0.48580100628113526, -0.3531406370052207
-0.013814075245767082, 0.4568363277357116, -0.3432898671314948
-0.01553939782409134, 0.4617184552147009, -0.3448861050979019
-0.015092301397142207, 0.46235060807735695, -0.3451166201393456
-0.011765767052455932, 0.43424550169738696, -0.33524688065597064
-0.021358287171720235, 0.3996574736849551, -0.3217035088583433
-0.02048929150649563, 0.432579875318567, -0.3344277652938934
-0.022433994109307884, 0.38306887903288767, -0.3147456799857936
-0.006753266776759873, 0.3955651471092074, -0.3202251025482178
-0.022212340615658452, 0.35481306641244825, -0.30187523551835027
-0.003699638510031412, 0.36358451227375566, -0.30614988271098764
-0.004970329931826085, 0.34756823495896827, -0.29875760915634675
-0.02087570311858765, 0.3263965520614315, -0.2883412129144385
-0.002718249040371838, 0.31187511680916047, -0.2810271850413526
-0.0192593222377245, 0.28604879194915506, -0.2648458969218666
-0.009335232479903234, 0.2587071386543577, -0.22948651417919805
-0.012661144638288121, 0.2556893354345356, -0.21441106908147847
-0.011990819185632919, 0.2568673848931378, -0.19629923428766505
-0.06011714327971246, 0.5689597240997051, -0.2694022017272808
-0.149048342314156, 0.5738924991223635, -0.34618555335879353
-0.027040640075915917, 0.579714515490628, -0.3833504595430545
-0.023232179425746097, 0.26985679229470655, -0.17610957691194423
-0.3621600954414913, 0.5541152607942386, 0.13896723774645764
-0.36764164172467045, 0.5489953600112777, 0.15366085332281654
-0.3645412964926887, 0.5526097474368609, 0.12671598101078463
-0.3713087115938498, 0.5357799609533268, 0.08190396597177572
-0.3742497624794358, 0.5306045507370889, 0.1387528504969703
-0.3717691330098615, 0.5399244941267567, 0.1518564701916238
-0.36787472885544054, 0.5440910758057397, 0.07151662997925418
-0.37759769698839457, 0.5099136189161045, 0.14050207090919783
-0.374221713150521, 0.5200913126440719, 0.06408857987892493
-0.37228377322656225, 0.5305938842478862, 0.06899112157561768
-0.37630379215311943, 0.5196249838860284, 0.13565289898246308
-0.37843033296095724, 0.4862012962941486, 0.13629800546371473
-0.37843737684238293, 0.48748101177849307, 0.1353644309542682
-0.37705204804526615, 0.4941071762795561, 0.07797629702829743
-0.37627688202932125, 0.5074381682578256, 0.08012725823510652
-0.37767461729958735, 0.5045918738291659, 0.1182051559197996
-0.37462931025155566, 0.4516029554913861, 0.07139043197037909
-0.3753017236208744, 0.45958876951335803, 0.07444540682375105
-0.37498095258611575, 0.45531760225678575, 0.07392227754066011
-0.37444219431948, 0.4239760167651944, 0.15154107227077693
-0.37493579658776627, 0.43173569195309636, 0.1422329965494122
-0.3763950569959128, 0.44691305775948753, 0.14575210841912675
-0.37805709509561836, 0.4773004453764119, 0.12850731109453462
-0.3775605649103911, 0.4625407950048652, 0.14916868417145424
-0.37752123236465773, 0.46863422702503155, 0.12817164902479752
-0.37716909581772645, 0.48208696447497373, 0.0898982703945969
-0.37679213933890293, 0.47932791914203454, 0.08048094068332451
-0.36799200401137405, 0.38296304814131243, 0.12356648151069517
-0.3680966740744349, 0.3834163835171209, 0.12444504592520844
-0.36921721004178976, 0.3846372194199868, 0.14972473531839714
-0.36842001239109917, 0.3944593087795168, 0.09124255482354779
-0.3678574460337088, 0.39418880924003985, 0.08024584293353959
-0.3700362960789424, 0.4118200976579771, 0.06785383116945057
-0.3721152596349555, 0.4055864721138469, 0.1486703732038862
-0.3721360032304884, 0.4055130620051639, 0.14974776347243873
-0.3726584857899562, 0.4088073568127544, 0.15274800260833837
-0.37348174476317153, 0.4364469950025371, 0.0809669400519921
-0.3739969446288635, 0.4467132586017115, 0.06658288424702158
-0.3714999349738033, 0.42336720965241453, 0.06589636474742383
-0.3724053313754182, 0.42426001506262734, 0.08632987684579985
-0.3602319907046622, 0.3323542249260307, 0.1502494792424658
-0.36068467063755033, 0.3362533945130924, 0.14472307705736243
-0.3599184448545666, 0.3554990158178589, 0.0657315905275682
-0.3600024614637636, 0.3433233380553062, 0.10682821937863884
-0.3645367473371576, 0.35562388907544334, 0.15167558032306247
-0.36348597216031203, 0.3494517619383335, 0.15206082918697103
-0.36244990234976926, 0.36633871983435395, 0.07232592368978506
-0.36398835722725625, 0.3752260535745965, 0.06962364053297893
-0.36375856382294136, 0.3681391411842776, 0.08962121946755278
-0.3531268414184563, 0.3239542180108383, 0.06789926697101001
-0.35328144039869597, 0.32346498392067086, 0.07144469506767588
-0.3535660238528033, 0.3085935429891316, 0.12385248258048952
-0.3578178508872166, 0.3235222281897657, 0.13921550381070336
-0.3571499642169742, 0.32146621885596105, 0.13513649765366217
-0.35570167345014947, 0.3308739950921674, 0.08171612328817529
-0.35445310451728756, 0.32642333446999183, 0.0784551160187876
-0.3426920521028399, 0.27567585362447333, 0.10343574256455099
-0.35131074728774986, 0.29288121762545716, 0.14644238543993376
-0.34651743669903323, 0.28555472442052016, 0.10993921058188993
-0.34631128252216564, 0.28904256077822194, 0.09717360662274116
-0.34900291751651785, 0.29664822354770365, 0.10258077145983159
-0.34903638778775453, 0.308547074308517, 0.06499607392452379
-0.03702474541729492, 0.4686691315152808, -0.1416517256301408
-0.04067829190815849, 0.4502040481354438, -0.13413565196321653
-0.04897645476921222, 0.47172288802509665, -0.14268326170775614
-0.07767088884512663, 0.45206671810004095, -0.13302111479768863
-0.0667954093385455, 0.47282771989426525, -0.14222066409606435
-0.08491848954370804, 0.47894717329734127, -0.14313024579433653
-0.09730554115550223, 0.4455420629882334, -0.12876172322169419
-0.10551273678293885, 0.471894386708933, -0.13531045537919179
-0.12147304791737931, 0.45167229447801716, -0.12444058225998086
-0.11868543575788566, 0.48037385748914974, -0.13501635175377885
-0.13586652258728688, 0.47256083226482776, -0.12571700182142825
-0.14851984814021169, 0.44519497667422425, -0.11395974870526097
-0.165087615442036, 0.47025709565152984, -0.11061321876482683
-0.15524150144711274, 0.47097657316599195, -0.11639849637602645
-0.15881167333043014, 0.4479243933348036, -0.1092425113599578
-0.2133926614873315, 0.45686478203883457, -0.05356786103655267
-0.19290787578777666, 0.4493187875248519, -0.08103468279748686
-0.22740445546599364, 0.46076919745426886, -0.03174753265023272
-0.207894080445637, 0.44152070299836377, -0.06041006565635989
-0.22147962345155348, 0.445986598151304, -0.038418737338620154
-0.23413534515619455, 0.45841736849214476, -0.015356566982767576
-0.23924917964261594, 0.4471621990080533, 0.008175724576879151
-0.23559027485097336, 0.4466834826684832, -0.00572383336639983
-0.22869060326407914, 0.4464007681158138, -0.024499244984054185
-0.2346274583990848, 0.43768144836489686, -0.007954782238257128
-0.24294738895437504, 0.43337253990033503, 0.028799916593686338
-0.24163366483969434, 0.4312236299214479, 0.022714917106016908
-0.2508930810624991, 0.4568201887466651, 0.05488877535163948
-0.25026747213706096, 0.4625132892279866, 0.046851194344103744
-0.2600187153389323, 0.46443207973884654, 0.10370326971050413
-0.2570660587800667, 0.4520509069050247, 0.09859186283032845
-0.2515870713024741, 0.43961062093477365, 0.07298086314055922
-0.2505969829254586, 0.43502774929449495, 0.06931364539079857
-0.2599943227060002, 0.448404410201721, 0.13370708491330618
-0.259782505252004, 0.45147820987391596, 0.12414051235397723
-0.25682013206677695, 0.43394929592450704, 0.11482775224681291
-0.25769012477996855, 0.4439576806665955, 0.11229691507854458
-0.2641024366192731, 0.4517663763762744, 0.1744999861427024
-0.2665584856824762, 0.449031231750483, 0.20411763908864256
-0.2658767749812111, 0.44783297105978703, 0.19957918258502366
-0.26173734655837877, 0.4398237895704994, 0.16769470800644815
-0.26441386867595684, 0.44110014721573787, 0.1949186210142206
-0.26728871370366697, 0.44384485045627275, 0.2187785899291722
-0.26436494179159853, 0.43015953832646503, 0.20824785688519604
-0.2695860415171937, 0.4344386713872584, 0.2403913308663556
-0.27478726125624153, 0.4519995902286875, 0.24743608772204864
-0.2828929850567994, 0.4434342581638383, 0.26481157992793547
-0.29259003017270674, 0.4495248679609889, 0.274008302501063
-0.2909149229880157, 0.4265012634758201, 0.2763047110470707
-0.3079455463862825, 0.45741023668955477, 0.2839044101713576
-0.3154676240264544, 0.4195134921971098, 0.2899545349069671
-0.32171729694386675, 0.4178430331352039, 0.2909325335713172
-0.33772945333042215, 0.4277269710453787, 0.2911912156793694
-0.3532074693313321, 0.44493485618737494, 0.28836174193487546
-0.2640962987097336, 0.5963875316286789, -0.23949044444158324
-0.2977900420116312, 0.2698859218118714, 0.21614696551372464
-0.32116170894158874, 0.251220263912133, 0.21868830084861002
-0.36275989205052117, 0.553859101814316, 0.2133685979583149
-0.2063374730896736, 0.793500028705763, -0.33750891484595724
-0.18229146428040657, 0.5763869336282168, -0.2934208879983067
-0.27179550691179183, 0.6468585224599772, -0.24439538635168603
-0.1324401706589234, 0.7969511317056734, -0.37965939391093967
-0.273468270931473, 0.69089680224086, -0.25815705479245865
-0.27839457325147304, 0.7609332444965129, -0.2846504342603697
-0.05261975505635416, 0.795379210053446, -0.4033428705852192
-0.09492505199305201, 0.7972099980469707, -0.3952445622972163
-0.24604111486346064, 0.5508994301683878, -0.2729362743329985
-0.36207431297762466, 0.4971269835102352, 0.2834108218344036
-0.34964791158641795, 0.5526478010397456, -0.04348644915578404
-0.34903380459885885, 0.30426347886109734, 0.2825869633279933
-0.35644673250791886, 0.3849562534980544, 0.28450327872839754
-0.3629395126234864, 0.4661573869444717, 0.28416367502533646
-0.362478727080581, 0.55333417430703, 0.23268769113618937
-0.26495598601468906, 0.5498873715962049, -0.25788077450072716
-0.3096262894644336, 0.5514095316742227, -0.18951204226567692
-0.3297769044897366, 0.2511483538894786, 0.22575681389837599
-0.2987902035436355, 0.25095007529252594, 0.0717278643431374
-0.306640740486432, 0.2507370233969498, 0.09579618815137213
-0.32086790677999283, 0.25082548921667075, 0.20162470478523323
-0.3169311673241516, 0.2505628511411394, 0.19091539014205838
-0.3120423066289941, 0.2510023440971909, 0.20236494357327695
-0.30786736498336903, 0.2513715801237958, 0.16509203730421734
-0.3096819300491558, 0.2516415192165063, 0.2038189659916249
-0.2879381769265338, 0.2689310338356417, 0.10110344930138558
-0.2944623093087293, 0.26486918975828905, 0.15112542991239863
-0.29655505534802334, 0.251645594461068, 0.07946829420639188
-0.2908753836480569, 0.2580067339138118, 0.09425420377203007
-0.2955520973310113, 0.25482930023729444, 0.10661363041208645
-0.3060527336329096, 0.25300113535678176, 0.19621142126390445
-0.2997055842885991, 0.2539659151623288, 0.13225902617178834
-0.30517522595259533, 0.25239192193902726, 0.16830173532990506
-0.30014693092139194, 0.26099474675043705, 0.2143672254812753
-0.2901732974575437, 0.26734471417699435, 0.11253329322243114
-0.29088143060769045, 0.26451260766397683, 0.11234604237506374
-0.2955778303647523, 0.26455530277512446, 0.1663194264008764
-0.2994027795406818, 0.2610558478814541, 0.201853700439151
-0.2980960097680043, 0.2649670964122872, 0.21123668591061703
-0.29829121316416896, 0.26090899878459334, 0.18229968166074817
-0.26685138269470277, 0.25190351695916446, -0.017406952277266272
-0.26874628857599175, 0.25115957330444505, -0.021222074704851976
-0.2647119725594401, 0.2509365453629219, -0.050445528786900215
-0.2674665227359665, 0.25088572385137553, -0.04505724988225502
-0.26341023315309486, 0.2661559538230388, 0.0033401025270868943
-0.2465010456080087, 0.2680872558882038, -0.03568551484036514
-0.2629251646896623, 0.2514295097469318, -0.030991573488118533
-0.2582269112831693, 0.2544076768583208, -0.02519899959102034
-0.2697473347686805, 0.25340591919528355, -0.00013456523529087588
-0.26619229278707024, 0.26246292052482395, 0.008221083672206753
-0.26025799618726114, 0.2578696835305205, -0.013736424498057414
-0.17410592850939485, 0.2545476219617975, -0.13924009497182419
-0.22130649928859894, 0.2527279538381738, -0.11804655260388877
-0.24845251719753988, 0.25151582276464857, -0.08626432320745728
-0.26860579465575773, 0.251102883139058, -0.05810041573355983
-0.24059477394376494, 0.25173492201386793, -0.07200357825266762
-0.2256829947557826, 0.25292527303248297, -0.08535689673991721
-0.1916106895748793, 0.2538525341371709, -0.12444747919945495
-0.1891651046808624, 0.2548004237497984, -0.11948454524313443
-0.2303918224530338, 0.2527310904045965, -0.0800926079063436
-0.2452392143352239, 0.2562977057243395, -0.046989609500404574
-0.23755823937647025, 0.2563485283299873, -0.05949659563857246
-0.228408359345147, 0.26264645818133864, -0.06603973226259144
-0.22455513726824852, 0.2684146353128536, -0.06748434852156411
-0.18200091310080457, 0.2545311470787591, -0.1284186023641683
-0.19064192628426807, 0.2597641503646002, -0.10713222351970743
-0.20581798504783666, 0.25338908995743853, -0.10849559197455522
-0.1995228166818827, 0.2689138077465784, -0.09485251140068336
-0.1729287917770763, 0.26424160878813213, -0.11808278605502544
-0.17422886523197645, 0.2725366427496252, -0.11364739310201846
-0.15434813206483755, 0.2702334997996476, -0.1283842454692689
-0.16597577413635425, 0.2636642347478666, -0.1237692534609258
-0.15337653273398638, 0.25737066225070765, -0.14239920057853134
-0.12735485041953343, 0.2672527646277514, -0.14393232271624742
-0.10150765892527701, 0.26952816063078766, -0.15255125541362974
-0.11317812454211587, 0.25741377327871273, -0.16370868194349683
-0.12421399778520191, 0.2679173464762966, -0.144819090726547
-0.13196984735864326, 0.26429019521010844, -0.14390608504993602
-0.12825976064620168, 0.2568225218276039, -0.15867071525313975
-0.117450345047091, 0.2561901001967387, -0.1667623959256038
-0.11465593318845044, 0.25536521739686086, -0.1835061720679903
-0.1153003467162767, 0.2554462682146548, -0.17302717255160144
-0.13282828017426132, 0.2551828891876946, -0.1736160500478446
-0.13949192392647386, 0.25769295016340915, -0.1501451564875407
-0.16959910520557725, 0.2547123387242682, -0.14260970128665768
-0.15896246095628538, 0.2549065276001789, -0.16136751272843194
-0.13819240085160023, 0.2550144601745993, -0.1667972917602196
-0.16114377165889096, 0.25541813697894233, -0.1672610470293708
-0.08330568159573787, 0.2700808486396087, -0.15848840410708037
-0.06839915459109032, 0.27375597467556473, -0.16135608445737118
-0.06947322825379479, 0.26865748657383975, -0.1648812469618821
-0.09175522160824291, 0.26974539755628485, -0.1558665240129379
-0.06131558193534199, 0.26385055727810364, -0.1726277967690124
-0.07295285034992559, 0.2639531164966004, -0.16817309388615895
-0.032699532324392225, 0.2743439811106577, -0.1712213276371372
-0.048596820670037115, 0.27113408744994805, -0.16965254693087534
-0.033856377477122765, 0.26526032617431616, -0.17861332343054637
-0.04292174917472297, 0.26371099736251374, -0.17832306605066114
-0.029910640488694573, 0.2598107558279429, -0.1867868790405974
-0.03840463573959006, 0.2554333602486601, -0.20206533805838028
-0.024038915339978068, 0.255501600305364, -0.21080002258971725
-0.0912939616747676, 0.25991159924801044, -0.16694389613365465
-0.07596252449370207, 0.256843833702752, -0.1811800278061222
-0.061023559421094796, 0.2558829633588795, -0.1911066813503907
-0.06964362245630541, 0.25709015993890555, -0.18249967197928751
-0.06935798997347964, 0.25558100015699664, -0.20277295829585965
-0.05778858287305319, 0.25540461579607476, -0.20252494689299735
-0.08462847093472672, 0.25546250423775113, -0.1866864503452936
-0.0814550989992936, 0.2562336348065573, -0.2041317872757703
-0.36452351956979523, 0.553521957945838, 0.16303324150742077
-0.36982384276283775, 0.5460081627806805, 0.18056915214736274
-0.36718657785837344, 0.5506617770595202, 0.18314125822297947
-0.37509200057128333, 0.5316028017299492, 0.18554618046640353
-0.37322678406460424, 0.5351035447695764, 0.1438164049640522
-0.37208323458404347, 0.5412614614884265, 0.18292522801176125
-0.37022383722794233, 0.5421302922894794, 0.11416963913720063
-0.3750805395801383, 0.5344149739152133, 0.21737407871705428
-0.37334608958436455, 0.5391892210791688, 0.20990602760484417
-0.37020137744048, 0.545818896709481, 0.19213183025055836
-0.3756110909439253, 0.5213354523775621, 0.1143950460071338
-0.3782154223897844, 0.5116136195117224, 0.17883454570896617
-0.37623783272892225, 0.5240750238725402, 0.16498766498335504
-0.375026922629699, 0.5252923056281255, 0.11697276721645239
-0.3785385792393481, 0.5143605423890892, 0.21228267565896022
-0.3780757816374742, 0.5182226816363216, 0.2146340043965164
-0.3758963616560968, 0.5273216191195882, 0.1785401042058154
-0.37941627047248866, 0.49230833625757675, 0.1816614383517684
-0.3784355105452437, 0.4956560885304301, 0.1324291912929682
-0.3777525383417947, 0.5053620166225984, 0.1256159327430646
-0.37910327926121945, 0.5039689657356272, 0.18906117710123793
-0.37982123806971013, 0.4898230331922804, 0.21122438146741684
-0.37924949673919456, 0.49698315087606804, 0.17804510571378665
-0.3781223433606581, 0.5097047516213523, 0.1656615966363838
-0.37942045954061016, 0.5025551880748245, 0.2062245235920646
-0.3770116900489462, 0.4631875682754305, 0.12130322253669278
-0.37688917878479467, 0.45731199662107214, 0.1329877432910951
-0.3765464206555491, 0.45097200119323944, 0.1363791356346963
-0.37740324438286393, 0.44654782652025715, 0.18785336310144235
-0.37640064842134696, 0.43469470260385046, 0.18725462651073568
-0.37831364770794373, 0.47966869400081036, 0.1374808963339257
-0.37844697992990695, 0.4829017930003517, 0.14059381420204706
-0.3789287306403297, 0.47766209233853807, 0.17124345664286234
-0.37881340569426447, 0.4688033368844859, 0.1898840569416011
-0.3770134924769633, 0.43642291968866187, 0.20599469099171783
-0.3773820630188245, 0.4381725391626461, 0.21831669895146832
-0.37772997513783285, 0.4485933356140053, 0.19448074566531925
-0.37757168502417826, 0.4570156696087363, 0.16443882984117392
-0.3776471814821792, 0.4545027856050804, 0.17384219032720594
-0.37889289121913344, 0.49112750884391765, 0.15579250910531178
-0.37947444776896855, 0.4781142737923433, 0.1999167127283098
-0.37895935282093024, 0.4653832843927768, 0.20876764827423
-0.3706690618197114, 0.3999881994240234, 0.12702523627160547
-0.3707918261647987, 0.3973733840393561, 0.14071298991766934
-0.3689996602682204, 0.39208278743205993, 0.11269438052337885
-0.37072127086407053, 0.38662173326746735, 0.1799996920820027
-0.369691231099161, 0.37811429713629086, 0.18612111449754848
-0.36997151315438537, 0.3875416379984374, 0.15712957900899008
-0.3748618429349492, 0.4381810673745438, 0.11613245384361721
-0.37390133857759345, 0.4232390708504242, 0.13419582426474622
-0.3738628101156914, 0.4224307341466481, 0.13564591856808145
-0.37404996385093653, 0.4123938134786419, 0.1805487024158507
-0.3741183447541081, 0.41741751213626993, 0.16265772898479774
-0.37359826796633044, 0.4103213042821943, 0.17415083880014265
-0.3698591579788782, 0.3722418946830911, 0.21206677270200938
-0.37080099345152784, 0.3914311294977731, 0.1647301307779871
-0.3724553220177947, 0.40634458729745204, 0.15630854633773092
-0.37211310520178764, 0.39681893849478483, 0.18010263049194916
-0.37562172815164185, 0.42958376677276644, 0.17394876018813324
-0.37530994601664547, 0.4289528766954105, 0.16569077812937694
-0.37507909947797174, 0.425321757879092, 0.16890885806412692
-0.37450014425871503, 0.4081310489654537, 0.21273685878722898
-0.3754072875874961, 0.41800872069622325, 0.2038476191810777
-0.3624032209681589, 0.33913300191783935, 0.16617072441893466
-0.36063435423585993, 0.3444320108116746, 0.11426669064258868
-0.3622313326132968, 0.3535437138101847, 0.11186091598546746
-0.3655212368399639, 0.35836708613044577, 0.16171213376323249
-0.3668766438476345, 0.3606310641905185, 0.1829112181309025
-0.3662246103482226, 0.3724047055475855, 0.12457714538839072
-0.3659250696401695, 0.3643458071300015, 0.14894091883416202
-0.36668830619300175, 0.3750176292311449, 0.12473850171278585
-0.36409210739556974, 0.3360700211538974, 0.2100220878187708
-0.36505319249703444, 0.3534093932257885, 0.169122784963123
-0.36469059537525317, 0.34819637780790585, 0.17938644042789378
-0.36815498587303375, 0.3590941084952428, 0.2179747898547996
-0.3672945978142718, 0.3644284667480249, 0.17876811574632995
-0.3680908832128631, 0.37532782007317156, 0.15845421934481596
-0.35659798625861283, 0.30821471740949397, 0.17163691924420862
-0.35652203126670723, 0.3040252275471627, 0.1850628148592977
-0.35577660229314817, 0.31684577584079704, 0.1290487693371623
-0.35885291916168655, 0.31621720186291497, 0.181048957851385
-0.35971808032266095, 0.31940840608960747, 0.18522712864130983
-0.35918538984254966, 0.3338722061462815, 0.12597330493567985
-0.35993504109349284, 0.3393625408302352, 0.1193124420676704
-0.35810353745351176, 0.31436597883209244, 0.1749448821148954
-0.35946807309328327, 0.309090597820354, 0.21813612521271689
-0.3604323882385192, 0.31535956306435164, 0.2128590093171522
-0.3620270200840887, 0.3391975146868162, 0.15906146933435447
-0.3517198181034396, 0.29679728821119294, 0.13814930956214136
-0.3519558329914214, 0.3036790179531119, 0.11788832425610411
-0.3492729160846628, 0.2914951588434078, 0.12363790154157787
-0.3523094112495664, 0.2932594930159669, 0.15926695860613083
-0.35169023025201873, 0.2913156647453241, 0.1575371648797131
-0.3450883927771655, 0.27620040982902366, 0.12931687828154442
-0.34834130186405055, 0.27483082945936327, 0.17596496088956043
-0.3538631587150277, 0.299835893077683, 0.15859197360303037
-0.3542771092470508, 0.2965593007859991, 0.17607263940953094
-0.35452311530189223, 0.2895926631933603, 0.20763979722480644
-0.3525229959086138, 0.2896380593496475, 0.1763406248450646
-0.3279794535282369, 0.2530062072045821, 0.0966524206401932
-0.3441801773761912, 0.2713772348168949, 0.1378046584220924
-0.33772708791106343, 0.2669626488046247, 0.08957215536525609
-0.348043463898814, 0.28300843744248017, 0.13859956772369703
-0.33078904219865896, 0.25519705942287946, 0.09568794033013203
-0.33918441238544605, 0.2634297491900972, 0.12079040468447211
-0.34790574551944964, 0.2765611631203228, 0.16284924683042826
-0.34658273122007555, 0.27026527390469435, 0.1741098486882961
-0.33974500704589805, 0.2660292577946616, 0.11241821376323784
-0.3471239771504524, 0.2649556686925258, 0.21312408238676275
-0.34837134293967364, 0.2693302879620739, 0.2056267344002461
-0.34667902819120316, 0.2677219926093534, 0.18853715012285024
-0.3431645263577483, 0.26272458290425704, 0.17194720977939693
-0.3363285474303726, 0.25270422897799527, 0.1878961652625181
-0.3422938704406376, 0.25759871815902535, 0.2040547150441425
-0.3179595643668661, 0.25077896541642475, 0.11253685323296303
-0.3355507945445154, 0.2546269310223479, 0.14803787827713694
-0.32580145448157805, 0.2511097414693708, 0.11918158496272582
-0.3305985038491802, 0.25173854980448396, 0.1456074481273841
-0.32955490542665156, 0.25115520327674684, 0.1521703995263598
-0.33707641421426904, 0.2524860630974768, 0.21166074098413365
-0.3183659355076003, 0.2506413588564449, 0.18020825387786268
-0.3237025104167153, 0.25072900154922245, 0.16681490597678184
-0.3264020416693802, 0.2507313910138214, 0.15717596595258568
-0.3334034685128858, 0.25124817055279347, 0.19971469332246
-0.24859561369298933, 0.7446840301073131, -0.3304662189227998
-0.23253389122144835, 0.7409935815071065, -0.34380189105208553
-0.24123339625013895, 0.7361578064797059, -0.33636481309888633
-0.24796667447126844, 0.7427010631071359, -0.33091269797943346
-0.25922630723083473, 0.7420439367193239, -0.3203224341741006
-0.2419031609169483, 0.7262711989800069, -0.3348114320827743
-0.23768454547941786, 0.717187669029095, -0.3375720116220551
-0.2546104742974586, 0.7319733183978187, -0.3235248478633669
-0.25324571523683875, 0.6944776124698029, -0.3174098692415118
-0.25942640216936075, 0.6973174472539851, -0.31040867017185614
-0.2415020483326678, 0.7127369554985249, -0.3333990778532069
-0.22863740468008473, 0.7060706513070913, -0.34406285313295615
-0.24051359667998606, 0.7016819935634906, -0.33260691025976674
-0.22640811342230813, 0.6802233539329474, -0.34182154308107443
-0.22569606714684526, 0.7086519810838219, -0.3467518884428193
-0.2145518147913087, 0.6921704754976101, -0.35317612804613535
-0.22449481208226768, 0.7507477609625959, -0.3497992292979421
-0.23165992873257116, 0.7249807251351327, -0.3435190308208162
-0.22664809015469942, 0.717856921349336, -0.3469570377098486
-0.21758267637613246, 0.7149830517216499, -0.35361018857185955
-0.20870443647903625, 0.7117044761810927, -0.35946891080947746
-0.20880823487057673, 0.7328648899110876, -0.36075657347956896
-0.22147745206654867, 0.6078719634374476, -0.317930226812981
-0.2221684505603995, 0.6175281528776912, -0.32425408435972214
-0.24141431662191354, 0.628007956705819, -0.31005392747444643
-0.23103453474417696, 0.6212142907832446, -0.31787124167027087
-0.22229237539190658, 0.6415850369822349, -0.3351217021430113
-0.21631515604257429, 0.6698226592919136, -0.34789547551376854
-0.22324536858929972, 0.6822216783635104, -0.3448886932917192
-0.23164209215612214, 0.6855552013324852, -0.3382093551266008
-0.23680830147010948, 0.6654881744669945, -0.32852953446250793
-0.22586389612204577, 0.6661466332628256, -0.33919568703506714
-0.2302575137373835, 0.6523500157619969, -0.33132994494359463
-0.2346336267909539, 0.6563491515457511, -0.32818345323525094
-0.2458981535625871, 0.655151783780669, -0.3154669849964158
-0.24156330061958373, 0.6790813751810597, -0.3269573594283756
-0.25029353174936103, 0.6644721292659025, -0.3130196378075951
-0.24658243979190597, 0.677691043142896, -0.3211075999267418
-0.2511890361241041, 0.6939580246736748, -0.3197596825332634
-0.2541319006180387, 0.6636367512262478, -0.3077312268208265
-0.25504462664546007, 0.6592689242267206, -0.3050659822063084
-0.2529154743933573, 0.6164157484420351, -0.28939284977603846
-0.2374086082337985, 0.6452546105498009, -0.32163440372598545
-0.253648842348949, 0.6199104534235491, -0.2905049112393067
-0.25837973607431547, 0.6381805752946537, -0.2926795220380093
-0.2608551899795004, 0.6327293179158751, -0.2865419198702862
-0.26091398814904226, 0.625747025721115, -0.28317796361987513
-0.22558900793031672, 0.6137261446912302, -0.3186279492811956
-0.23449144218966753, 0.5954711475031083, -0.28575010014384794
-0.2520913607548131, 0.6085187259372934, -0.2847291181532515
-0.25659000076786653, 0.6113051112354361, -0.2809559437544402
-0.24371452601197469, 0.598812539574327, -0.28369889219419264
-0.2501048006513155, 0.5939276313717641, -0.26965130020879724
-0.23654671641517197, 0.5929966832148361, -0.2767533196641583
