0.0024881607110769765, 0.06435753294989474, -0.2035073083235463
0.018631537532244245, 0.0711942961130126, -0.20315046939415604
0.014425673002114314, 0.10249008783566689, -0.2054580934909721
0.0045757117606940335, 0.11223268830813835, -0.20641233627642613
0.001972098154915426, 0.04307195104827939, -0.19936458043065922
0.0013787177416392023, 0.05049698137468521, -0.20169138695715474
0.05959128248031628, 0.04337657187872026, -0.1903647018971023
0.03164093320191497, 0.09912600130879765, -0.20335855293472496
0.027369794448247897, 0.10773590900271698, -0.20436659246726335
0.033742375366552876, 0.07495943739752348, -0.20148803342445307
0.04934088052303496, 0.07591466458434207, -0.19832370954529652
0.04619707126243, 0.1037987339411473, -0.20078633549467995
0.04398368726035792, 0.0991179252276938, -0.2009500153982553
0.006585826343562077, 0.01856236107554288, -0.18247446038800824
0.0522423048216906, 0.021570329858316546, -0.17819953860891952
-0.003523648309998214, 0.011073041970208478, -0.1724690058787589
0.05001119214490378, 0.011334960345078828, -0.16554515709137946
-0.0008937687973259133, 0.0033179928619452488, -0.15198850030934966
0.024557940818016474, 0.004835285786155741, -0.15631379559284792
0.03302826792471063, 0.004078861935494097, -0.15201836526282658
0.04298502422898616, 0.004228090254275816, -0.15001658440772175
0.054466698118382575, 0.03409307198667369, -0.18728715552343944
0.09668996653628832, 0.03392996943102834, -0.16928189918936992
0.05814334474949672, 0.10996630185022614, -0.19795093075331904
0.054909381438827266, 0.10786496613252919, -0.19873559828131218
0.07122460000635752, 0.0701406005037262, -0.191013996642914
0.07795619200800438, 0.10235728221218829, -0.19066072108856802
0.06883761656589005, 0.10762557100663772, -0.19435288248356297
0.06568516715863332, 0.11098051791619773, -0.19572393304027916
0.08023925082701494, 0.0632565340808166, -0.18694394752424487
0.08453580573808583, 0.04406339858015247, -0.18084303547912783
0.09901990565417657, 0.04934702596767473, -0.17522362754599682
0.08426826460619001, 0.11088513395256144, -0.1883739999905348
0.09223005829966963, 0.09424181673206014, -0.18364112962733245
0.09695874101773125, 0.07193879360174409, -0.1794940341461741
0.09731057973323015, 0.1043370562531589, -0.18157354043019014
0.10661982203271528, 0.09179744148615046, -0.17553074413007483
0.10134282838827333, 0.10616415365176785, -0.17943751811228476
0.10762939704011354, 0.07384746286659173, -0.17358073254633744
0.047385124120007664, 0.018630417420406515, -0.17642833687437748
0.10452099535605146, 0.021564123922306836, -0.15348102431283994
0.047596981123511045, 0.009654890094011777, -0.16316483250848324
0.05529535057415678, 0.002564318562499894, -0.13709771671230697
0.06616067048232911, 0.003941934406779026, -0.14025843563594237
0.08800486356893476, 0.0033912913975280966, -0.12435998477585566
0.07551689541455318, 0.0030092262509109294, -0.12982579003215472
0.10582729438439148, 0.035228548132170794, -0.16464126712195848
0.14853832171827117, 0.031664953686970525, -0.12429120055358592
0.11935751498753401, 0.10566640805746028, -0.16806644088134323
0.11904284098871791, 0.09826939030685353, -0.16776182946544302
0.12021482803403635, 0.1094781019171999, -0.1677592215865375
0.12098943318438785, 0.06861695255276079, -0.16407279246626472
0.1376889596473291, 0.06945050815601606, -0.15026554977405537
0.13099811261308555, 0.10787125309113668, -0.15927069762747698
0.13204275907933227, 0.09427768760612987, -0.1574446915909833
0.12401528967033473, 0.04367030682214215, -0.15626146881635947
0.14144452431371513, 0.044482479897793824, -0.14127841523454188
0.1440996100445685, 0.09416205542390861, -0.14648328592229676
0.1449177535762654, 0.08545502962848436, -0.14504044099831376
0.14723726878500848, 0.07082267966150473, -0.1411082270353856
0.15638627641385672, 0.09664133233646552, -0.13360189784641363
0.15000848167371772, 0.11149764723857974, -0.14176509070296786
0.1528102078360256, 0.10673530767074751, -0.1383294016421096
0.15641078955550664, 0.07012507605428997, -0.1308766245230115
0.16307180059148008, 0.08198132682431564, -0.12376034942977454
0.1597041302702914, 0.09081253655931187, -0.12885470476856475
0.09859171682401908, 0.01891317414394814, -0.15418901862241396
0.1484627674205149, 0.02141682421724004, -0.11137358258877009
0.09202659441438106, 0.009130384915918286, -0.14171575744561807
0.12664288136493038, 0.010005479773914082, -0.11435659581309954
0.10935103694426128, 0.004850414959668665, -0.11431125510002896
0.1012563784116104, 0.004469540535298043, -0.11993348015515788
0.11144286977170141, 0.00399125060100007, -0.10814082516228851
0.11188574051860126, 0.003292101592870932, -0.10246262133929583
0.1849453415007528, 0.03452500179037877, -0.06290982097008573
0.1759066822687898, 0.032474471421030104, -0.08207131846717662
0.17432241354182662, 0.08538793959767826, -0.10787534436934028
0.17406336123009736, 0.09492345992509185, -0.10925700744046377
0.16736987727321, 0.07600555362673696, -0.11720858543007386
0.17563016214777794, 0.07637281175302293, -0.10451006642604016
0.15685435299164333, 0.04586120675361898, -0.12447896361954469
0.16431610794269325, 0.044003473352741546, -0.11336752119501704
0.1715587688715671, 0.045740672921126754, -0.1033853407616136
0.18150818323446422, 0.10804919558673967, -0.09786706322815564
0.18231920845422922, 0.10650106107935581, -0.0962348363464587
0.1896856308576793, 0.10064171560849293, -0.080009004659982
0.18689728620560558, 0.10193443417091193, -0.08623311095030571
0.18642415638167045, 0.09784181953260827, -0.08669344874667206
0.18304238380830656, 0.0735852529013285, -0.09046120576205595
0.18969215025484487, 0.07439420874919728, -0.07568192960059589
0.19512492148241148, 0.10794548056825268, -0.06680011863249444
0.19398057373601327, 0.10796663469303844, -0.0699026287136122
0.16409946123538277, 0.02027485670439929, -0.08441526439307478
0.16795020337029198, 0.02075548339361482, -0.07731686436838354
0.1393693572829327, 0.00992479513422596, -0.09826201162003276
0.1464993356923953, 0.0091979043443636, -0.08445331673642838
0.12395764228904131, 0.0028727687999702788, -0.08353666297195943
0.1345012218254898, 0.003959446761059707, -0.07732357769189592
0.14203378956680573, 0.0035365353952685106, -0.05726697297036766
0.14149907794485717, 0.003920588038769314, -0.0632969122601782
0.14535682542471567, 0.003953581528419081, -0.05415429333701391
0.19806365868887293, 0.04141805800020072, -0.016297517478736534
0.1995155522227746, 0.04334972636778687, -0.0005709708104321539
0.19845561104028103, 0.04072539334653333, -0.0005274088305722448
0.19471457295935898, 0.03624735809047022, 0.024337176822071593
0.19665895988665388, 0.040606598852633985, 0.02528349863330139
0.20155584784179847, 0.0627667058725727, -0.02694648863125218
0.20345161102262826, 0.07318759373706255, -0.017301365123157608
0.2021869542233663, 0.05595958275766082, -0.014572893391029162
0.20391385966324876, 0.07215064798438789, -0.0063021455356277725
0.20322870732932596, 0.0679122951854351, 0.01594794900007817
0.20191679123461745, 0.05295359036714944, -0.009165491323078551
0.20314007088210023, 0.06216266071214818, -0.007206879419317136
0.20293664638269351, 0.06170265307869865, 0.01110621300006479
0.20180521238925614, 0.057962375778492364, 0.020495235240807506
0.19070719226916377, 0.028713376602375506, -0.019130134858016408
0.18969182524468187, 0.026001089771578827, 0.0012872471650852578
0.18672015466004363, 0.023020519595448347, 0.01243702711659492
0.18697793791793724, 0.023538707146385514, 0.015536455898067746
0.1723185957650236, 0.011943767908239216, -0.023619501539623285
0.1757111519457897, 0.014350101238403015, -0.025152274966101288
0.18016488269069217, 0.01671293403225052, 0.01154635628125302
0.17271863409573165, 0.01176489493108373, 0.017748534438335375
0.16178405576291485, 0.006053099140928461, -0.004589536136410511
0.16227905981612614, 0.006515171069080599, -0.016683992344741258
0.1638061412231948, 0.006856891721596187, -0.009753460907632794
0.15813296993855736, 0.005020394475584784, 0.014570119189145633
0.16328316523650727, 0.007147483692248241, 0.021936707358341117
0.1959070580044192, 0.038664174157736084, 0.024377644027580997
0.18970117242365092, 0.03456976688128677, 0.04690421619239074
0.19589657098584873, 0.04655595282133923, 0.042789407724264955
0.1884115874623642, 0.041908727143507, 0.06370239022082691
0.18405606286794976, 0.03723839367020234, 0.06944720814492104
0.1787432839857478, 0.041907033711107294, 0.0871425110416015
0.20133529389909852, 0.06778249936397258, 0.03187210517796109
0.19891667114454006, 0.04941088041615802, 0.031712403123733704
0.2007659928498874, 0.06054007782343253, 0.031594877727791223
0.1970680165476123, 0.051821715138960035, 0.04404885086893799
0.19996178800262665, 0.07751225200983808, 0.04235927893190232
0.19340548142354577, 0.05507871788904826, 0.060304573393884314
0.19686610610089333, 0.07338242139111746, 0.05384770409746383
0.18811613892287377, 0.05794711984621881, 0.07606184673777323
0.19375270403856965, 0.05926045610569179, 0.06071520066423781
0.18823215636145857, 0.04906395119491988, 0.07105166649672695
0.18951390965483803, 0.06867532323287055, 0.07498467667744085
0.1885037546462571, 0.06849256483089262, 0.07768252818144755
0.18889922889709415, 0.031054302591837182, 0.04061892956202037
0.18258252331071784, 0.023058119098916707, 0.04111604494561165
0.17945675364020008, 0.02318611316755733, 0.05338141707876472
0.18036884429705557, 0.026579476557085927, 0.06012797861569469
0.17869116488733297, 0.02409844661674311, 0.058783964429441504
0.17032499993292105, 0.02698031772438976, 0.08514672128421052
0.1744272894441312, 0.01481105138256971, 0.03596772238628701
0.16946937474824178, 0.012216347369926538, 0.041423030404684445
0.17182215345584645, 0.015176345205489168, 0.048566426998851886
0.16844317821236546, 0.013246402618736731, 0.050677618247769916
0.15765805969804486, 0.010895086219813617, 0.06927373528120667
0.16198094670570443, 0.014978208745552134, 0.07452393998639954
0.15531496864749306, 0.004608975923618655, 0.025707065260516998
0.1584584602626152, 0.006092862793313889, 0.03348507091821858
0.15849654348404266, 0.0073856390899316214, 0.046863093997237676
0.1617313936205187, 0.00838452703166153, 0.04361292844553042
0.1573718512462854, 0.008510256745310106, 0.058171615018726024
0.17533602138115473, 0.0433345098170774, 0.09494555846452439
0.16978877852973107, 0.04210934014446193, 0.10387132433256116
0.171397700902451, 0.03537267566526185, 0.09460190568705079
0.17257580691647784, 0.03739006227972098, 0.0945841104901036
0.1579531039470071, 0.03946420578767132, 0.11913394949338679
0.1469908975891375, 0.03331724912965296, 0.1276569845738521
0.1469112409504591, 0.03960227717857137, 0.13254371431348894
0.17613588862853152, 0.06525367457999776, 0.10197931652848666
0.18170999350675934, 0.06380880736829216, 0.09168138307425538
0.1832227044195306, 0.059744929561959884, 0.08744995835099216
0.1740962815001073, 0.05657032699522239, 0.10390288465742958
0.18036413533583737, 0.0537791177449644, 0.09194576535128444
0.180601802312592, 0.06247693714953824, 0.09356985652801983
0.16680846003665897, 0.06716147781690428, 0.11691075339261932
0.17216377821731235, 0.06259386127742672, 0.10828783664155377
0.16211043118295018, 0.05540373052713218, 0.12153162513599797
0.15837185282635108, 0.05257365395801147, 0.12545332316058017
0.15793227936388335, 0.07729342369076089, 0.12977528166423463
0.15014840904352153, 0.05891740284309208, 0.13650458625045556
0.17240802727531637, 0.030066167289995293, 0.08591761309113638
0.1615521754094023, 0.02399305954211043, 0.09607390891023654
0.1541609152658866, 0.023030224538127093, 0.10600822832161083
0.15289673140356008, 0.02728092193744874, 0.11385565415339585
0.14407776281490148, 0.02290783153776257, 0.1192408968157279
0.1428225867415071, 0.024299011634650747, 0.1226902523643858
0.16620618461522152, 0.019502201595166073, 0.07807367507509366
0.15694254793041043, 0.01347362848273869, 0.08035443005484338
0.14534906054799862, 0.012779344146152682, 0.09783143395123811
0.14857187922101134, 0.017742253804695504, 0.10467762231120976
0.15119908156126738, 0.016948219793972878, 0.09910141120486979
0.13158027657774304, 0.013602337579869788, 0.1174986934870797
0.13634230037913753, 0.004293979005162616, 0.07636851809410761
0.134812455669061, 0.005036303724253318, 0.08407931048620101
0.13863072614802147, 0.007718117202283604, 0.09133163417436761
0.12252180835261162, 0.0038577955071838134, 0.09460934309472614
0.1262869228197505, 0.006029053286930597, 0.10111036165170179
0.132005425464841, 0.010111421410668103, 0.10848014038803117
0.14063557229905743, 0.04110151903526557, 0.14024775362637695
0.1322048904856018, 0.035287679550257633, 0.14432238024000907
0.13602770781706547, 0.039250457290120416, 0.1434884874323221
0.12312555656130442, 0.03901133585493617, 0.15453970390304983
0.09008531701597278, 0.03724365804240891, 0.175011676004598
0.10857047442798715, 0.03846194688792742, 0.1647685865363565
0.1382939096659192, 0.06289014951720054, 0.14906732001696268
0.15095434645542333, 0.07753114037387208, 0.1377949732952644
0.13491834357515173, 0.05874475920352735, 0.1515902201986371
0.14802731742593817, 0.05276493031479888, 0.13756165106651436
0.13924129646970443, 0.06125922577619343, 0.147957529474507
0.12871383711389464, 0.06312177752364137, 0.1574791656965973
0.12013587028697759, 0.060850589719560894, 0.16395065127314806
0.12814072075688537, 0.061524211745856754, 0.15772757133794765
0.11548678528022804, 0.06582358311826238, 0.16764432035477167
0.10686682814051979, 0.05933891198927523, 0.17269566665509867
0.09501007416793139, 0.05100003404706453, 0.1779636796575101
0.10118832533258598, 0.06745164930918393, 0.17675880858055876
0.11435247283547617, 0.053055020650221385, 0.1667085989330256
0.1275701941803669, 0.025986885739249996, 0.14024545936148688
0.13004635851656804, 0.024457907188633027, 0.13620576895640205
0.12092971845112921, 0.024720063379513706, 0.14472512569050286
0.12222690763906371, 0.026647872853048024, 0.1456859689639513
0.10784802338234994, 0.023586641001697654, 0.15350624351975073
0.10416899932893074, 0.028707844881411388, 0.1608703291564135
0.1317823177856634, 0.01813731957603148, 0.1257341292931233
0.12968974976094932, 0.016931022555128655, 0.1259805218809416
0.11948986799174435, 0.018325919475320446, 0.1378400113143036
0.10619305156188073, 0.014480530388852034, 0.14248843867390543
0.09920947404001426, 0.014289080328119399, 0.1470275872102932
0.10025286327909722, 0.019643237456541472, 0.1540483559335205
0.11782670596696576, 0.006107183287379511, 0.11117022561412582
0.10656059307342028, 0.006464941256952834, 0.123438107013734
0.10153665491888253, 0.007394485810086753, 0.1304250507198383
0.09707904907641896, 0.006177894581350957, 0.12999171504878346
0.08726203953241231, 0.006185256315271392, 0.13677423787633194
0.10066617340249803, 0.040841501924473056, 0.1709792709384078
0.09492345529679669, 0.035132853409579175, 0.1710603223896896
0.08730284889432613, 0.03254136640217799, 0.1735360815447026
0.08792914750966288, 0.03861717845784888, 0.1768202650693986
0.0591332472373659, 0.03941264543427712, 0.18881540329269186
0.03592296717237872, 0.03692737259646311, 0.19326515533232658
0.06011346510141327, 0.03756945190988626, 0.18760863190434302
0.08888424573252358, 0.0648791868262607, 0.18308440673840093
0.08216065473076531, 0.057668632433344115, 0.18541869667266186
0.10047234326289327, 0.04989192884476412, 0.1745839402251546
0.06678879534200136, 0.07284725581831947, 0.1928583533028308
0.09156393750845152, 0.05536639996682244, 0.1808114791625198
0.06524131242872269, 0.056185104889400664, 0.19191172259155564
0.05592199411699306, 0.06591940186091388, 0.19572750846071718
0.05106163189533251, 0.07279815684143456, 0.19760757570479273
0.05633141543690418, 0.05172616215109823, 0.19384520778465222
0.032522812147561385, 0.06304898616993024, 0.20086229610796758
0.03343934364488456, 0.06917365931205965, 0.2011265971647025
0.03344465547312534, 0.05645141419007324, 0.19997032576193008
0.0809656305105376, 0.02993456117680035, 0.17459663098414055
0.076494220168508, 0.023761461265267843, 0.1714193437075642
0.08606707196964378, 0.027234551527302954, 0.1701114167847114
0.06306261452615163, 0.028317704391888153, 0.18068074425847797
0.05686103165741045, 0.0228134131208254, 0.17814451490650912
0.038761957689335456, 0.026044730548409133, 0.185628626832082
0.07289624866219413, 0.011238624485462983, 0.15660902756079456
0.068999651705761, 0.014155646282376744, 0.16328466037987627
0.0812341519421823, 0.019441537403525732, 0.16467480213352717
0.062549937381619, 0.016884234245127593, 0.16952407967845246
0.04013888348560467, 0.013883791464453378, 0.17226338020224624
0.07323645728214709, 0.007597455293885171, 0.14873641941720256
0.06391098626017996, 0.0054571588141427456, 0.1469263821609718
0.05392372379492526, 0.005548063213061046, 0.15111827842348946
0.04552096214155637, 0.0076559333967817994, 0.15950225750594832
0.04517096593226891, 0.005513561743170992, 0.1538617699658015
0.04584861930969685, 0.008133884146804627, 0.16051969336126343
0.04388749552420606, 0.04141885235419221, 0.19376767497136135
0.04449532836404185, 0.035169590207872664, 0.1906359148681106
0.01515570077724888, 0.03878894902588907, 0.19703449500168693
5.305249055766481e-05, 0.04344120307224655, 0.19956758570514121
0.0008395585159047912, 0.03976519922106824, 0.1980440025655323
-0.025303939672653587, 0.035777738219257164, 0.19436726983213892
0.04623432864826851, 0.05743264113477496, 0.19753537295761603
0.01697636028790809, 0.06352428909238492, 0.20279458426311361
0.019833415799762402, 0.05639683644440577, 0.2017157578756435
0.014464430590200748, 0.04922647646669211, 0.20082044348388112
0.03032719896727005, 0.05958103313383947, 0.20081342888280923
0.003497606004749231, 0.07292683100481101, 0.2040805265412103
0.005272998539872108, 0.055510817606231874, 0.202507423306099
0.0005715330182055299, 0.05395156065971077, 0.20247198947035638
-0.009722163930064195, 0.05137470725981228, 0.20155488723493126
-0.0127995377349099, 0.06213617840065211, 0.2029158597125214
-0.021270977196960063, 0.05515866735073397, 0.20141241039815938
-0.012771321787270376, 0.0758593445676217, 0.2039231282024821
0.04274151194277209, 0.02353957802905248, 0.18268054299836994
0.005577197941207734, 0.019917339813765228, 0.18400345610633426
0.014597953128140438, 0.028549084573132627, 0.19108535257094666
-0.003478069131996895, 0.021580934320550044, 0.18570723842263828
-0.012062101504414115, 0.023910493236669446, 0.18749886842572858
-0.017931539967352632, 0.02657643841707044, 0.1892287037581943
0.018592309212156263, 0.010969270971848523, 0.1713019798495442
0.010269816472577013, 0.010977554744747292, 0.17204489767751946
-0.00906096761712943, 0.017513189064228704, 0.18121808222260605
0.004786044043287486, 0.013541580077642515, 0.17624516251906744
-0.007964927762651447, 0.016438406320567353, 0.17996222610769697
0.03247596435972667, 0.009468641667768018, 0.16646323264301405
0.016487591991873805, 0.005618820480160541, 0.1598041571462882
0.016464031358373425, 0.007343849815641886, 0.16437388218424331
-0.011861521202820304, 0.009739162658336114, 0.1697820296595341
-0.02301390583212686, 0.005492322781122449, 0.15867783808136526
-0.02383904051097788, 0.008076893213029542, 0.1651492225623849
-0.0343139643117079, 0.03429120682263316, 0.1921460869848288
-0.048717899634274184, 0.03468810436018064, 0.18926053728758424
-0.05843195578056299, 0.03945477697437993, 0.1890309530211547
-0.047842342112373926, 0.046687245974710634, 0.19485588736065873
-0.05099693024891501, 0.042210922265283585, 0.19231526275375577
-0.08669534731994807, 0.035998073773793014, 0.17597025867402946
-0.03790593234984965, 0.05876190996827604, 0.19933464384735997
-0.031185294664672684, 0.0800854263218312, 0.2023023768182424
-0.030769168590414692, 0.06265163364725315, 0.20109036479737996
-0.056473772570924896, 0.046726853956549574, 0.19243809989771493
-0.04662280787204752, 0.058879313602274705, 0.1976152051201386
-0.039337449806093855, 0.07390896785284234, 0.2002995741547757
-0.07698062823044917, 0.05448155269950386, 0.1873831428938567
-0.058809188213507516, 0.07346853098126402, 0.19547475785707616
-0.0563543049233967, 0.053200844399032846, 0.19416818942038494
-0.07722690671167928, 0.05026693850430869, 0.18630314984008492
-0.07284251808989392, 0.06168614796221546, 0.18972950855198167
-0.0722432692966423, 0.07898519003783457, 0.19131182100211358
-0.07652945011315129, 0.07954907082178707, 0.1897720491794894
-0.023450568943029392, 0.027464166948586305, 0.18924769701877586
-0.03705034589104747, 0.028683725140656993, 0.18799493890215493
-0.05224806627981783, 0.03104975823287963, 0.1859948952863527
-0.054570684879520624, 0.02782525286886206, 0.18302798741626664
-0.07928650355414245, 0.023185139908059087, 0.16958702345130397
-0.02024609482798316, 0.01703335133919373, 0.17974535710923667
-0.01591083181034228, 0.011876680839407528, 0.17312146012362908
-0.0497713441086719, 0.017642404675213375, 0.1746236069643043
-0.04844992376424762, 0.016259583308386578, 0.17326601717893114
-0.0789133507151607, 0.01299117546030135, 0.1568763887504935
-0.07847938575210828, 0.015556460818292397, 0.16095496007088023
-0.017857695453461806, 0.005995485537249978, 0.160691502711205
-0.02910399026400791, 0.00508906879768053, 0.15630777522741288
-0.031442091431370486, 0.0066060027128486895, 0.16031244545222584
-0.0437017933511597, 0.006736200589525733, 0.15779133062778483
-0.04997344795792141, 0.0043931568441913545, 0.14849746128325841
-0.07275364255191127, 0.007931617104441645, 0.1497813762595568
-0.09161295662590002, 0.03298403963584824, 0.1715029829945251
-0.10807034605746632, 0.03325449769210029, 0.16178393440224847
-0.1043878963862126, 0.04044842429752782, 0.16862805662197933
-0.11194510801092336, 0.03788532958665618, 0.16217404970573418
-0.11808490981082577, 0.03919140947470898, 0.15862871767949002
-0.12892409690344936, 0.04576317985452713, 0.15330496521352838
-0.0916534333142849, 0.07487200495779825, 0.18259379992008556
-0.09880086327505816, 0.048376567148518505, 0.1750375393900868
-0.09067266346062433, 0.05753231543888762, 0.18147657618211033
-0.11135785313397764, 0.052737433342119326, 0.16862601855746298
-0.10505463992368372, 0.07571101276317382, 0.17527110416474595
-0.11008042741671073, 0.05911175040115029, 0.1705206367857357
-0.12364102096947582, 0.057212244547206456, 0.16069186142405406
-0.11942418657449792, 0.077407362728422, 0.1660109189775083
-0.11523079451827109, 0.06255311298129478, 0.1675224554398424
-0.12126808424421513, 0.054050878118889506, 0.1620780116363566
-0.1368393993385826, 0.05736423479382101, 0.14961338674312602
-0.13029208368786227, 0.07971307294860448, 0.1577449304679558
-0.08413156878382619, 0.03137176064184636, 0.17417876891597384
-0.08296112958154839, 0.027854885365709802, 0.17205831876490804
-0.09731709756387255, 0.028062070714462765, 0.16457650668195908
-0.11655472653824796, 0.02739039446009968, 0.1508725984354375
-0.10019829803458014, 0.021180618250157334, 0.15591851543536794
-0.12333202981929375, 0.028422994058096916, 0.1465169628142012
-0.08971927073949013, 0.018603705521409, 0.15907875106117353
-0.07034772884425064, 0.012093223135985688, 0.15933099685273672
-0.08266650369662205, 0.014510433787152754, 0.15734902735907413
-0.10212832776406859, 0.014500230887121704, 0.1454419148353623
-0.1208410074985598, 0.01245736317691681, 0.12625719859266163
-0.10747037433055504, 0.013910384809229811, 0.14044126843157956
-0.06601839382378617, 0.0066440656226335135, 0.14957201653041355
-0.09056862103323095, 0.005963375255808513, 0.1338277361122384
-0.09169516547817859, 0.007397550229925676, 0.13752647473536833
-0.09053494811712824, 0.00520210433196727, 0.13118107687798355
-0.09698733087476444, 0.004959775312573464, 0.12542871126036356
-0.13614287175736386, 0.04669287289883134, 0.14722772764113026
-0.14863437671882165, 0.037640792969996735, 0.12929661018466387
-0.1508747866808968, 0.03786086647018975, 0.12685761967373077
-0.14956778556128825, 0.04544644829681161, 0.13298167524478757
-0.16099528870343627, 0.04222869794338749, 0.11713216933890605
-0.1629399462101996, 0.03803516414427697, 0.11093088856218887
-0.17036877660936434, 0.03982463147887686, 0.10089166374036365
-0.1411116011474854, 0.07628604731834959, 0.14776609911112634
-0.1389281216992414, 0.05326051186313189, 0.1469088822847902
-0.13499539665491883, 0.061626510172197, 0.1519371329585771
-0.1519288088989489, 0.05954256157448151, 0.1346773479828559
-0.15682055745693635, 0.05789855631974975, 0.12866672113010916
-0.15415842258957096, 0.06629528364559935, 0.13314694504201308
-0.17155682206214226, 0.07226974579574663, 0.11045728794338162
-0.15992377940024272, 0.07484020472761314, 0.1269674773770644
-0.1721304675408115, 0.05502281421890839, 0.10688507669929852
-0.1644948866519536, 0.06218570730255993, 0.11967559941049985
-0.16687245247658283, 0.05323724194366488, 0.11417761680812559
-0.17299219176051608, 0.05566041107760859, 0.10567672354634677
-0.12761065869319863, 0.02750124551143413, 0.1417613918870511
-0.13818484629312588, 0.02411928569079267, 0.1274784560969907
-0.13690894820449162, 0.027580077729797325, 0.13294551770796909
-0.15527090776683183, 0.031145065229098597, 0.11520335661298174
-0.1547801141968206, 0.023107546292110624, 0.10520033800468503
-0.16448946080099155, 0.02599136821372367, 0.09428004243924398
-0.11897861920882771, 0.014185851396888754, 0.1313493900931477
-0.1290578330716378, 0.012316675431384216, 0.11747776356681186
-0.14414700459132315, 0.016599158748977872, 0.1084458638453482
-0.15103331418878366, 0.014773317595697001, 0.09443861191294312
-0.14079306841713682, 0.011373186267894738, 0.10062302910639274
-0.15743734843914117, 0.016106185660847372, 0.08667797835005671
-0.12510990770098826, 0.007487163928743803, 0.10845487253927676
-0.12299106850391303, 0.005546403718321498, 0.10313145020787641
-0.13278167119183573, 0.008466023436191811, 0.10241582195486636
-0.1217874873320069, 0.004439829433470329, 0.09874257571515928
-0.1469291405417293, 0.008647330358918053, 0.08154138507568989
-0.17717544947998062, 0.04040191688304852, 0.0890484788768248
-0.1714518784985264, 0.03887527808266793, 0.09808769175730483
-0.18317446335596782, 0.035995506296858104, 0.07006946075275139
-0.18982306961703332, 0.039922466796423944, 0.05633722468002204
-0.18824574768779545, 0.04027761097351998, 0.062194910101217554
-0.19327797158912247, 0.04478628034015028, 0.05103574331348804
-0.19074449410942165, 0.04191029809721105, 0.05611259890695866
-0.18122710948438264, 0.07567921583939305, 0.09441030047316278
-0.17647158892182113, 0.053190037139513764, 0.09863993412128558
-0.18522583351963928, 0.051143992433112184, 0.0800592497304871
-0.1865584245280482, 0.06029048705164301, 0.08035650867873495
-0.1883938179220357, 0.057532130563406975, 0.07518220169632435
-0.1872771525308969, 0.07673231460665621, 0.08181713278015817
-0.192693028695844, 0.07377225494792869, 0.06742730076993551
-0.19719047734636924, 0.06080905788442442, 0.04911989261990948
-0.1912312105841064, 0.05370770694397964, 0.06608607961065693
-0.196908212350167, 0.04825109412598053, 0.040168020202480295
-0.19801801781700315, 0.08001028552626227, 0.051506038676377784
-0.19753559605387633, 0.05770939869371274, 0.04638419278840983
-0.16219821427221767, 0.02562866744913845, 0.09779145848640658
-0.16633080982613047, 0.022027302073133304, 0.08378405003810459
-0.1748027476532557, 0.03130664605699733, 0.08267651775412192
-0.18116692750967678, 0.026366032328870567, 0.05712464326924803
-0.18012736280887265, 0.023286240887568747, 0.051317549282044364
-0.18035312459560413, 0.022419848475609343, 0.04764729319740468
-0.15837755300496842, 0.01712702486634579, 0.08761898299840082
-0.14943242084473152, 0.01223206010228906, 0.09004243325192383
-0.16392751144594483, 0.0162696934494933, 0.07417014060361178
-0.17696602533051808, 0.018501461965295438, 0.04495184380654302
-0.1606023479684941, 0.011293522708134933, 0.06402094646915862
-0.1780683214443186, 0.017615712469675672, 0.03535545105561476
-0.14090984751722055, 0.0068800915281944965, 0.08428304514535795
-0.15172057720308924, 0.0058752507539886496, 0.05490689318447681
-0.1446882498799011, 0.005731533847898078, 0.07057664343987405
-0.15234027936859953, 0.006786506107678815, 0.06051003038434899
-0.1555416125957102, 0.005371068209459889, 0.037736033263708224
-0.1538592534789707, 0.005709746856069765, 0.04718238694615959
-0.1981958967524989, 0.042160391129513586, 0.01780287915296838
-0.19599973466134085, 0.03739759589170295, 0.018302792030644135
-0.19775816484653874, 0.04005792335977955, 0.011132419431608476
-0.19551425917617088, 0.03471094950163166, -0.0008114068849025723
-0.19704196445413616, 0.038659148518798425, -0.013352044878355066
-0.19991018390185097, 0.04595962761928915, -0.013266236061287014
-0.20235213280265135, 0.06439498045662868, 0.02123700893206935
-0.20012063397315455, 0.07655887926520902, 0.041210166719259485
-0.19944332399294035, 0.048959877677643794, 0.02634216620206142
-0.20121638479370602, 0.056614221461839274, 0.02424231579889863
-0.20036152992235093, 0.05426954971417495, 0.02915533916023849
-0.20079756423684583, 0.05964322854914213, 0.03051687595486896
-0.20432692314023665, 0.07559208992412376, 0.002089492501168577
-0.2011238963358997, 0.048939004454910735, -0.0047820074921596815
-0.20242481531016562, 0.058338922547952025, -0.014974100515974791
-0.20212601480217096, 0.054142520635879945, -0.010346520247723881
-0.20392816600961994, 0.07757836009060529, -0.01574955022367271
-0.2031973357920085, 0.062299460894637414, -0.006129317578217365
-0.186862044783217, 0.028251205725674938, 0.04108053510438721
-0.18612486326717848, 0.023311963783273347, 0.021081083755003265
-0.19016490163618197, 0.027130830110888883, 0.01084547356684985
-0.19126015206797872, 0.02806183715329029, -0.0009059859606708664
-0.18389085489709558, 0.02046915736823919, -0.01700099184808042
-0.19102172487276672, 0.0282948699474644, -0.011363854031329208
-0.17288902279241333, 0.01419807063745316, 0.039298456317632284
-0.17140514167350157, 0.01038472027663155, 0.0017996752282703223
-0.18118989619069137, 0.01721112702040887, 0.0013491338012917365
-0.17623106681696604, 0.01342565153545922, 0.0009463524908073455
-0.17707667965824936, 0.014196268225619778, -0.007471881305461403
-0.18293057709906435, 0.018975846752712078, -0.00659708871881899
-0.15968021117171013, 0.005431468299018128, 0.013127558112418785
-0.16360162153020633, 0.006644435079666488, 5.72102393241199e-05
-0.1648139061807276, 0.007171875521118075, -0.002604647595145892
-0.16314037480077914, 0.006538513796974374, 0.004295993017497644
-0.15991325557435038, 0.005516655769158724, -0.013164480645205697
-0.19301577541329984, 0.03941042118036246, -0.043389000638106294
-0.1920543723752674, 0.03671296335225145, -0.04147419210705891
-0.19502113757943013, 0.04174127589535118, -0.0382667032566206
-0.18828521652057195, 0.04183033642425376, -0.06395041604114551
-0.19071452987982307, 0.041449535017403505, -0.05551273540273819
-0.18334717979674298, 0.037662581260889165, -0.07196918091314045
-0.2023949154369445, 0.072406598850387, -0.025741499670906623
-0.20018963228693568, 0.05811860934030931, -0.033251983101015646
-0.19719059774991068, 0.05143040878113762, -0.04299995747204972
-0.1967682450553913, 0.05135324862382201, -0.04504019113423643
-0.19780254034499528, 0.05996062153500387, -0.04627141013979275
-0.20202224961653248, 0.07983171245460714, -0.03284113335474552
-0.19449072286728183, 0.0689591817902204, -0.06111363912787828
-0.19539105115067024, 0.0744600342491469, -0.05936796300195582
-0.19330614794384798, 0.05400805191068387, -0.060055099203391166
-0.19142565468816347, 0.04891838239381123, -0.062286686920092094
-0.18863147624860244, 0.06949238066736188, -0.07754283224077575
-0.1894995931492495, 0.06979791279106436, -0.0752549695691635
-0.18592023343151842, 0.054845565038699265, -0.08035491370574922
-0.19002307177627906, 0.028729858862999468, -0.025007305598468116
-0.18387730096610314, 0.024295254952097153, -0.04004366290889501
-0.18438837776320682, 0.026974776638794322, -0.047379474501707826
-0.18433057710751966, 0.02819214777490129, -0.050965995265671936
-0.1659572587083548, 0.020267083170428163, -0.08050270690305883
-0.17773270091614596, 0.023113850386401284, -0.05894175099924889
-0.16974435580643857, 0.011077032084916765, -0.030720658724031544
-0.17414638877180832, 0.015389830710067979, -0.041104650680718176
-0.17012223788565434, 0.01549612272419721, -0.05590500474248933
-0.17445011997370577, 0.01670068221039448, -0.04628666894663984
-0.156581204082184, 0.01256860278075942, -0.07810910334072113
-0.160989826095832, 0.007082180036900506, -0.03428271893395913
-0.1567888442628042, 0.0055925985382504675, -0.03478260541287099
-0.1637689916094673, 0.008310144025449856, -0.03437730739018427
-0.15649949545492908, 0.007654148834258145, -0.05501053259595271
-0.15335867410071444, 0.006441602012730342, -0.054996023274354267
-0.15218144513977835, 0.0077219852076737825, -0.06643153768758535
-0.18280148162499962, 0.04177905393974872, -0.07821680637192975
-0.1790020902588117, 0.03486977484167529, -0.07863569926380642
-0.16560129692060832, 0.034842580948367376, -0.10399132356520105
-0.1629544068190797, 0.039737033032941994, -0.11235229317688479
-0.16286350112524617, 0.041844445884753355, -0.1140653675567724
-0.15443723394021028, 0.03782136022516099, -0.122310013541514
-0.14570503412724484, 0.04002076473356253, -0.13410408348069708
-0.18457106054035044, 0.0744063958524685, -0.0872870683519601
-0.17944841824281788, 0.06425945076068935, -0.09591617670028794
-0.18121771217296082, 0.06097567123228216, -0.09210990903271049
-0.1740500873644925, 0.06183966144068728, -0.10513461007145598
-0.1730995939656124, 0.05388683047787727, -0.10497032450357421
-0.17521142949680507, 0.0614916193885433, -0.1029840861742635
-0.16932243658742624, 0.07359461879071438, -0.11397389680595499
-0.16895228396260065, 0.05967159710102044, -0.11253650928160754
-0.16017241779336727, 0.05296029146331215, -0.12330491099446782
-0.15622283305011195, 0.052236887594846744, -0.12806050733326244
-0.1569953804864272, 0.07339957570054928, -0.13051335530567407
-0.15438273616593248, 0.06018426348001367, -0.13212426500635496
-0.1723292772515819, 0.02988942307829539, -0.08581023296736545
-0.1699588578863523, 0.02464108174984752, -0.08146160576026706
-0.15984615322469203, 0.025138407999886963, -0.10074973601480114
-0.1605055456115937, 0.027091560447791083, -0.10252309989091858
-0.14903259006929015, 0.02322493965483835, -0.1133986585729132
-0.14395368026828545, 0.02730973491612163, -0.12502736675582987
-0.16391195745402265, 0.019297216367323334, -0.08250767611738774
-0.15678106863698715, 0.013523931537157247, -0.0807901522799909
-0.14789609351892144, 0.013169134277446284, -0.09502163822827843
-0.14228119957886876, 0.01565418091843841, -0.10889771257951505
-0.13745341491904461, 0.013854899506760122, -0.11112970858339352
-0.13459606169906202, 0.016213242237647047, -0.11934906911775975
-0.13901513657539025, 0.004680308706535836, -0.07428867743386491
-0.13019940782086126, 0.004328490226040805, -0.08664425964949587
-0.15071112432078812, 0.010264432708936521, -0.08108305872072241
-0.13334743924897868, 0.006843930692558136, -0.09567682853014838
-0.12523850051780408, 0.006000404208902679, -0.10231124870833747
-0.12019389134720937, 0.007150102938617871, -0.11266137742016374
-0.1313341245381896, 0.03947907344052881, -0.14795993217063197
-0.13601134493786768, 0.04195947690972669, -0.14503854967516236
-0.12487280892502689, 0.04088809814708503, -0.1541795799519079
-0.12227892268094487, 0.03437347371233732, -0.15216430860889785
-0.11438759641841016, 0.040274605050784604, -0.16186397272193306
-0.1088109593141936, 0.038807934841297444, -0.1648125490561076
-0.1335853751558515, 0.06887774591355819, -0.1540043410385071
-0.15168600834721324, 0.07494025902544058, -0.13673078857934676
-0.14547233782611832, 0.05963997359202841, -0.14167449190949583
-0.12815256674691022, 0.05076263762337079, -0.15574627216415615
-0.14062261009373744, 0.05828931060421864, -0.14624904402019645
-0.12054547661895793, 0.06496047863280216, -0.16408992961628188
-0.13889689395629884, 0.052609601121713506, -0.14674693297813943
-0.11275282533879565, 0.06738536603984753, -0.16960400563310055
-0.1080462751072775, 0.05692889162849593, -0.1715991890680558
-0.1288642274440262, 0.05006631546195177, -0.15495366279165945
-0.09580853976912629, 0.06672259488044213, -0.17971047876699142
-0.11608978983242317, 0.06148124736547399, -0.1668114547860231
-0.10069335158632692, 0.05620130753074029, -0.17584778373969376
-0.1258404066143491, 0.020184613372387472, -0.13470340582857826
-0.1271525448979442, 0.024162784376592947, -0.13853691696880208
-0.11472217187907816, 0.026396188869135664, -0.15136440559623401
-0.10671919397011569, 0.021466125043989107, -0.1518984123977669
-0.09587772609816676, 0.02082872584378194, -0.15830080875658262
-0.08833852666129235, 0.02802419350273854, -0.16956988907250767
-0.12534156653315867, 0.013917795719340336, -0.12491015179099799
-0.10963955564267985, 0.010588835919337469, -0.13217468122832635
-0.11322752320232328, 0.01632503672670539, -0.13993713994991835
-0.09982993294515971, 0.013021314341887177, -0.14443098321671388
-0.08981764616980518, 0.01409234927973546, -0.15266005950877218
-0.10768116496989025, 0.006978718890120403, -0.1242775840051891
-0.1162969504491612, 0.006933085306465248, -0.11616115496680661
-0.11559124662174652, 0.008252057870835484, -0.12083880052372098
-0.1073350385567927, 0.010149706336173356, -0.1330013723264646
-0.09825094013939412, 0.008032811256220466, -0.13483380572762443
-0.0764391510033405, 0.005469339088909789, -0.14082575062060532
-0.07715185840748574, 0.045304817496775826, -0.18471834080816718
-0.0764457213991921, 0.03636740148609096, -0.1808978205171338
-0.08714337478352287, 0.040788808427731936, -0.1782311117244452
-0.07252274436045587, 0.04268897156763824, -0.18550007359624177
-0.07098151424261472, 0.035101014802187594, -0.18231648849554716
-0.03886843768692519, 0.04392936967222278, -0.19575576328550437
-0.10425340289754577, 0.05585017943620501, -0.17381203325713826
-0.07832879806752366, 0.07680011149513041, -0.18889134306933558
-0.08761038562283255, 0.05617440909578028, -0.1827296794830144
-0.06886173095815895, 0.05101069034349154, -0.18958770265508246
-0.06550105588884278, 0.07050869489442418, -0.19315553727384657
-0.06548096491529433, 0.06608054299745372, -0.1928254804442362
-0.06681637943287361, 0.061776212618283304, -0.1919650090192578
-0.05321991033941641, 0.0644040352515211, -0.19637601225061202
-0.05866703626080445, 0.054651857766262066, -0.19381945911539292
-0.04552316123439641, 0.05075643240799523, -0.19654134191090203
-0.05652872049299687, 0.05998979601620204, -0.19501268998290605
-0.03401069468205077, 0.07663967828838437, -0.20155714205115377
-0.054226723410792585, 0.05372241321988428, -0.19488413796234622
-0.0766688913387767, 0.027555376573746737, -0.17471213302903119
-0.07030440551139859, 0.021085875702493782, -0.1714810023687018
-0.06144578229377036, 0.026972443874823435, -0.18019766764780704
-0.04647726222752419, 0.02850899721343705, -0.18584296602795902
-0.0563477429046592, 0.026460173592293263, -0.18145940140430086
-0.08053241874356885, 0.016536455517447247, -0.16136129663873902
-0.07739933495024148, 0.012856040517544642, -0.15736168756342414
-0.07162191298678679, 0.017144667916176436, -0.16631096846303242
-0.05040755574394682, 0.016140359595540714, -0.17255931386094875
-0.038557448050426796, 0.011892543762453618, -0.1695534707969354
-0.03613134226910118, 0.014837668979722558, -0.17442875739973135
-0.07829428039624256, 0.00644189096304299, -0.14287221759474786
-0.0574474619543561, 0.00395543816621041, -0.14414761006452204
-0.07457516213507617, 0.010326784989744585, -0.15417254688771692
-0.048626800333858265, 0.0050793940905694245, -0.15144106797043555
-0.042247592596315, 0.006669797298922869, -0.15801008830346236
-0.03431247151560539, 0.007878125311822849, -0.1627974985638427
-0.04169070683848937, 0.03687517888032384, -0.1920927105270285
-0.005793188272785338, 0.03704844750329142, -0.19654821940465744
-0.005424880050660484, 0.041427762210120636, -0.19855379083478517
-0.01395362608940459, 0.03311595039684374, -0.19407966605466662
0.0009121809357227457, 0.03781840254984474, -0.1971205700074745
0.02054202470198991, 0.039831859796466626, -0.19689681778232737
-0.03077034980108202, 0.06327203872985848, -0.20114115509431074
-0.02252586021856937, 0.07280054649956962, -0.20280445242744502
-0.039690993905989985, 0.04881794444942403, -0.19716335076884467
-0.001325510132928, 0.07402342745903533, -0.20424492217968077
-0.00015589177876745343, 0.07599279634149131, -0.20443213845686725
-0.011579788756684481, 0.05506528497549207, -0.20221013484397146
-0.015224461028010125, 0.06246053411828914, -0.202854392554016
-0.005333852130188999, 0.05036576209110992, -0.20149833641323528
0.0011958558876529212, 0.05317260251286414, -0.20227952444248593
0.008384091785688328, 0.07367327714351583, -0.2039403858706314
0.023060145912665343, 0.05546912396772068, -0.20123364369207175
-0.03634630681934825, 0.028283792210077537, -0.1878278165929008
-0.019333997414622255, 0.02439423108409745, -0.1872665836596788
-0.006906276696119327, 0.030595848643471403, -0.19277275968753527
-0.008910224302290756, 0.027372617670617574, -0.19042374367093212
0.007595269619284452, 0.02358579518589369, -0.1873970143885304
0.017093836144099754, 0.02373095934024664, -0.18695933428852393
-0.019471398894224, 0.015153399047082804, -0.17746340438260083
-0.016475756140589944, 0.01278142678278777, -0.17447858505370206
-0.012141101008272034, 0.013923099716213408, -0.17650044453174105
-0.0016756769598939522, 0.015892773064884503, -0.17952647184480233
0.007740318710966283, 0.011788040816676578, -0.1734780279807036
0.0023780319846191792, 0.013212149572459867, -0.17586850271211188
-0.017365747466125306, 0.003860741698355655, -0.15382233218583347
-0.003441370637477141, 0.0040042933759976045, -0.15527465370858765
-0.012667517144706621, 0.007399780767994564, -0.16492517057331157
-0.0006960709172864639, 0.00699779502502674, -0.16450012331939323
0.005146948410291089, 0.005041595641502651, -0.1587445913420805
0.03589234375097948, 0.04146920866609012, -0.19537771751520136
0.041157414501422344, 0.03589569706636372, -0.19170741442304845
0.03962986423045092, 0.03862752513257858, -0.1933811660124186
0.04867741641445468, 0.04211824684461341, -0.19292872217265106
0.06211928055989728, 0.03361500900180394, -0.18468179154153833
0.06726056910046542, 0.03785276521327789, -0.18518565520685024
0.06964528864514924, 0.046664134757229865, -0.18803748762743988
0.03164280909707015, 0.07073198093589478, -0.20157480184959287
0.035949837054688905, 0.04743596384839213, -0.19751575147646555
0.01613885930323352, 0.0628210399392907, -0.20284291349262115
0.03660953095956611, 0.0603098286747464, -0.19976046259193658
0.04603842559599233, 0.066674886973971, -0.19844070100367495
0.04795164911631379, 0.056652626727173895, -0.19705945854776094
0.05170465047904967, 0.07989348503231561, -0.19795336296020033
0.06716301490281702, 0.05459933467218854, -0.1910218978898659
0.0608807163120789, 0.05560882090769772, -0.19330180936491773
0.08323370456263393, 0.05123674304392306, -0.18378359476920647
0.07487388212668791, 0.07853600720541243, -0.19030627964073968
0.07866999920038065, 0.05792175998210636, -0.1870583422327462
0.03198699415647371, 0.02734958211572794, -0.18797677984357014
0.02676982544189738, 0.028067737775945012, -0.18931200273273524
0.034069706806961995, 0.031483170704674275, -0.1904886529582647
0.054784207447503286, 0.024081812084227203, -0.17985962360497776
0.059075765095101124, 0.02137130103011451, -0.17592356989522384
0.07890153445993775, 0.026019074821995176, -0.17240823376244585
0.04141190786940614, 0.01659426341724756, -0.1756250886300347
0.0495344231272455, 0.013051806641660828, -0.16847576917043244
0.04382406457087457, 0.014766542869982859, -0.17262415368737807
0.06498705917963442, 0.015790607173964574, -0.16716217825761964
0.06433014583519281, 0.01717793268618485, -0.16925919071105017
0.0176728042328993, 0.007741677969833186, -0.16512583160149683
0.033237190098931, 0.0061483668126682154, -0.1586643359823894
0.04833729454843147, 0.008753718955029851, -0.16117517109544272
0.04248331212296348, 0.008304578043961428, -0.16186393516663905
0.05954389211239323, 0.005834187428070295, -0.14988711488244477
0.06255204234744957, 0.008373329265527427, -0.15542805129054807
0.10237199190134914, 0.03930590670317614, -0.1692930819290502
0.08732018524793983, 0.04197740165734098, -0.17869349829154868
0.10356863895462452, 0.03579194838487706, -0.166529027279515
0.11577989699395436, 0.04405778647130514, -0.16272769665942458
0.11738259121081394, 0.03633770945705718, -0.15739460550127704
0.13084046743701477, 0.035826970780805364, -0.14599137311585256
0.08898143120516161, 0.07413641761676264, -0.1837683530736515
0.093367629799816, 0.059011895563736184, -0.18029188554997425
0.09993085886194747, 0.04690957044108909, -0.17393844095564523
0.09538352464943713, 0.05423879515129556, -0.1785529998955011
0.09314225726840795, 0.062472969575565605, -0.18084065227984486
0.10465893760827735, 0.07249769853482024, -0.17522935504653384
0.10459057299692937, 0.07537742064933725, -0.175503562177812
0.11580254720041733, 0.07087677783560759, -0.1678678368777263
0.11286798070815943, 0.053580445419566275, -0.16783574753668037
0.11904611305397236, 0.06273482464332346, -0.16499813246520878
0.1319118041150164, 0.06264849371139172, -0.15490536553965684
0.13615869868162528, 0.05795139015697893, -0.15032808774197753
0.13057517889689996, 0.07446107255539966, -0.15704339232750703
0.08100504890476676, 0.025009317452573877, -0.1705172510625222
0.09199801051125053, 0.022411006379248657, -0.1622378231541934
0.11023813059409662, 0.025911152332017802, -0.15428503042098773
0.10780926541040095, 0.028576223439625917, -0.15832035568705874
0.1270225318149136, 0.023407082344570194, -0.13777455204189973
0.1184686004974302, 0.027953646518368035, -0.14990319771766525
0.07020061635074787, 0.014692098113709818, -0.1635763280727892
0.09559258167598574, 0.013083933279599292, -0.14736831356563362
0.09582114491136964, 0.015455625447035149, -0.15113892584837071
0.09332009668013473, 0.010959269934056395, -0.14485157074345809
0.11955658963243544, 0.01754506772586211, -0.13660495209949824
0.0726073190858165, 0.00845265926078787, -0.1511312859220122
0.08262763006053071, 0.0056320620235166255, -0.13787774125487545
0.09637195527638077, 0.008776816059631914, -0.1380053758691248
0.10598144787596903, 0.009128642232824384, -0.1315951577197489
0.09205143265029603, 0.005280385413990771, -0.1304892700272862
0.11267707965311918, 0.008711394269497056, -0.12484289994239871
0.14983250529903153, 0.04074343246841197, -0.13008312685135298
0.1518681872613011, 0.03305358278082292, -0.1214339083339912
0.15246263667344373, 0.0417025198226066, -0.12759597890681457
0.1589942541817476, 0.037101657725769926, -0.11596156902370852
0.1615225104083591, 0.03924676048369429, -0.11412699208191787
0.17317077389404598, 0.039640591031796055, -0.09572952288256524
0.17668248909293602, 0.03857353984171888, -0.08817627705982344
0.17681672077830113, 0.04067542325003987, -0.0900966972040881
0.18112544626410193, 0.03837106425592635, -0.07830557801263
0.1822767931104396, 0.04532252904518915, -0.08245982218446103
0.19667056862550603, 0.04584323698074818, -0.03763766344611323
0.19395828398784307, 0.04339631251983477, -0.04685908044021362
0.192451055738376, 0.0363485277344175, -0.03855759730032552
0.1887268885853491, 0.03693480527965716, -0.054991560033663206
0.14396174473619697, 0.07948694108498004, -0.14544219472890121
0.133430456041227, 0.0627572203343877, -0.15354839377432317
0.15258274145293477, 0.05192703606807023, -0.13236997928799574
0.15355331245549436, 0.0685666337331518, -0.13404052890030527
0.14773349076493042, 0.06250315035382595, -0.1396787944452207
0.15983048152631402, 0.05597027098155895, -0.1245193586582379
0.15864363790230365, 0.07466334230857942, -0.1285699174974607
0.16722736854174725, 0.0659263612424806, -0.1161243754681662
