-0.05509175279725062, 0.4366276554185401, 0.09563177003717378
-0.04802770471407143, 0.43210025828211396, 0.09916988523075998
-0.04309787374699653, 0.43754259867526457, 0.10163905438961184
-0.057156218179495566, 0.41352644557843793, 0.09457415218959975
-0.057612303680298876, 0.41659685864632306, 0.09424824320642589
-0.06240552222030717, 0.40743869978398206, 0.09082313062012168
-0.08312083415020736, 0.38759633453928655, 0.07276941117717288
-0.07188405821344876, 0.39100654082793923, 0.08385215457430124
-0.08009704987102673, 0.3900960633820595, 0.07575174574972471
-0.07189789810306642, 0.40102994979721385, 0.08383850446010083
-0.08035826197118325, 0.4086770597035776, 0.07549411427629493
-0.07807544022576518, 0.4049590947723767, 0.07774564335346765
-0.08305213973878392, 0.4150083487722728, 0.07283716389903902
-0.08238208476293098, 0.4109487984548045, 0.07349803381765807
-0.05935064038487017, 0.4201309118031057, 0.09300606899548157
-0.06521365414202225, 0.4183572503508451, 0.08881650528042759
-0.06424709510115709, 0.42164513007446386, 0.08950718394463697
-0.05775215562683094, 0.394695442947952, 0.09414830930587331
-0.05846415932165844, 0.3958449212349629, 0.09363952939803433
-0.06086371306906482, 0.40133586524763787, 0.09192486947755776
-0.0601685412856643, 0.40181349235098973, 0.09242162246985389
-0.055971771500046674, 0.40885085255584347, 0.09519100111054694
-0.04763797608518616, 0.41143520222529784, 0.09936508574043314
-0.0441539141877087, 0.4063566951219072, 0.10111012329312996
-0.04729721733406065, 0.38830639827512625, 0.09953573737575183
-0.048215722448219575, 0.39362832185849095, 0.09907570605840862
-0.043515345818092466, 0.3945234111429935, 0.10142994071381176
-0.05642933729771003, 0.38777277064801075, 0.09496181858551775
-0.041067102484001757, 0.4286965695084276, 0.10256892669283853
-0.03687635507070377, 0.43411993065805177, 0.1038941900758601
-0.0316657508028893, 0.4339185411332192, 0.1055419556121086
-0.025512868247563655, 0.4178989524077388, 0.10748771732324455
-0.02935922183194054, 0.4198913114934238, 0.10627136413037903
-0.03973196457094393, 0.420271885149729, 0.10299113258032658
-0.025215608377389266, 0.4136996410491658, 0.10758171896916849
-0.04031151061245016, 0.41720755059517467, 0.10280786586436447
-0.03303667539624107, 0.4088216075046375, 0.10510842559711212
-0.03991193656337709, 0.4123510885894508, 0.10293423342407877
-0.03399294470815585, 0.39001027796785254, 0.10480601512757487
-0.030293681440933636, 0.39805554040311514, 0.10597584944172307
-0.028396433293435115, 0.39358318882237775, 0.10657582978675179
-0.025689362745512267, 0.4028063972727621, 0.1074318966073014
-0.008339365086186348, 0.3990930483053419, 0.11017022188830733
-0.013511655024457536, 0.4018056332278047, 0.1093875649276721
-0.01668138255713273, 0.39879054970099975, 0.10890793030811818
-0.012850842673255656, 0.3936525398315276, 0.1094875572700416
-0.018994009987106424, 0.4152104207209347, 0.10855799208551482
-0.016874174301320936, 0.4176085543715835, 0.10887876004562053
-0.014921967491047239, 0.4162186766864744, 0.1091741609877041
-0.0031231621633162664, 0.4317019601905454, 0.11020589732440542
-0.006902892254484989, 0.4364151589719869, 0.11023566966019584
-0.0023771102097320984, 0.42239934227770665, 0.11020002079122884
-0.005438628716156047, 0.434350171176777, 0.11022413588802236
0.013517849304726664, 0.41886475431079195, 0.10943923527307563
0.012543802469222296, 0.420490508632382, 0.10960040652491986
0.026486633342139417, 0.4217795085034262, 0.10729334753747743
0.005648835558108141, 0.3971148206648605, 0.11013680168651173
0.0016751801906278061, 0.3958318155954389, 0.11016810154101525
0.00666303498664269, 0.39735919005946174, 0.110128812998109
-0.00011086908856675656, 0.4000499047093993, 0.11018216996854732
-1.9295708440736966e-05, 0.4210428351414446, 0.11018144865952345
0.0037811857095280377, 0.41837704975563694, 0.11015151286881568
0.005830159331816924, 0.4161645163623903, 0.1101353734278405
-0.014721489042319706, 0.42656754837197414, 0.10920449722470078
-0.02229318031375581, 0.42385728129599065, 0.10805877463826753
-0.02261004854539892, 0.43551543142533666, 0.10801082113800388
-0.012454578003195903, 0.4258885494765028, 0.10954751926710128
-0.008587261413662322, 0.4104276598023504, 0.1101327108847614
-0.02102354888439867, 0.40547745556925163, 0.10825088541295008
-0.010482194767814338, 0.41888937350862027, 0.10984597468140336
-0.018234323726494858, 0.4102383126110205, 0.10867294343960082
-0.007039919458307116, 0.4183131858462228, 0.11023674900179596
-0.005683279979683886, 0.40891915973889803, 0.1102260629673094
-0.005423575824517522, 0.4063920539413455, 0.11022401731877701
0.016425297199039453, 0.4044437362796963, 0.10895815263955365
0.014146267119970326, 0.4024092590974896, 0.10933525373720669
0.02283890343439923, 0.4018952819784829, 0.1078969213844328
0.02283715780953035, 0.4001597687564577, 0.10789721022531303
0.03446563304671022, 0.42906063134278133, 0.10464927497943362
0.030371725139461087, 0.43419032143011416, 0.10601520945638128
0.02759185463056391, 0.424538642118897, 0.10694271468013805
0.04572154741011684, 0.4214424723352431, 0.10039969330580355
0.0578189088582092, 0.4066525430069867, 0.09413024744932329
0.05203210815516991, 0.41263653319436266, 0.09712925131025757
0.05137727241035091, 0.4192306562654592, 0.09746861930092615
0.010216084653150055, 0.407839496334992, 0.10998556376857763
0.018219278492386495, 0.41078590753903077, 0.10866131043413327
0.014445237655771385, 0.4053290505376387, 0.10928578439573028
0.03299000219938543, 0.40045047496416725, 0.10514161996991067
0.03410843852683703, 0.40049047451952535, 0.10476845311453717
0.038730362695831314, 0.40195209283358746, 0.10322634574053198
0.04078766935734713, 0.40028397271689714, 0.1025399243157504
0.012333652172716866, 0.428962279920737, 0.1096351791714997
0.01211442026970621, 0.432993977965608, 0.10967145451162141
0.00976545019742093, 0.4373314612800524, 0.11006012827277459
0.03158995175278351, 0.4198119875904474, 0.1056087475208488
0.0329718498266502, 0.4199965750706795, 0.10514767651840154
0.03291330754300537, 0.4162573878679617, 0.10516720918142214
0.03375758222828504, 0.4172091836296534, 0.10488551649883991
0.03056974661860823, 0.40560927224530524, 0.10594913948810859
0.029633635576196166, 0.4062003334204164, 0.10626147341843906
0.026633095753745617, 0.4060608943760907, 0.10726260507205594
0.041379180562992966, 0.40588414137763956, 0.10234256629803294
0.054784617386693026, 0.39479783822446196, 0.09570276606630239
0.05429510397733052, 0.4036265167254306, 0.09595645591670386
0.056886972493148856, 0.39294479820917677, 0.09461322256811268
0.06344843124240263, 0.42904183133701435, 0.09010951104848794
0.06386405203601793, 0.4263003271062527, 0.08980251408935769
0.05981203371810514, 0.42340107856817094, 0.09279552435508275
0.06113318373644597, 0.4281823015346098, 0.0918196611537797
0.07507963186444766, 0.43160121644994226, 0.08077846595399457
0.08088085272677094, 0.4373213948782406, 0.07489661377098834
0.07514419558404845, 0.4337230462948663, 0.08071300486156431
0.044851888710388886, 0.41674005773897904, 0.10085039308483851
0.045028533212735894, 0.4141003564224688, 0.10075884724254378
0.0434498492975113, 0.413330506727302, 0.10157699865295385
0.04530708721089533, 0.4126921749913396, 0.10061448690272423
0.06773280034910616, 0.39401879117720817, 0.08694487562178428
0.0690914406322773, 0.39664863024065866, 0.08594132035724306
0.06715299205324052, 0.3948251920996639, 0.08737314915006694
0.04678234082916602, 0.43067823703118036, 0.09984993814355797
0.05010815742473457, 0.4307604007194944, 0.09812633691332535
0.043648160348814496, 0.42243642253122404, 0.10147422414264248
0.04790835619675761, 0.4254213597789117, 0.09926638176963534
0.0639853352863532, 0.41519762464422744, 0.0897129286075475
0.06475527581886469, 0.41682756783645614, 0.08914421451570405
0.06605339782142465, 0.4161405262380485, 0.08818536088400898
0.0759711036680541, 0.41668927795010013, 0.07987461012906771
0.07239974082260119, 0.4149956988788582, 0.08349560488528154
0.07264622362524505, 0.40779469522187917, 0.08324569666410857
0.07475191509519183, 0.42064934756008127, 0.0811107419981078
0.06632865448319404, 0.40826445341922396, 0.08798204343829483
0.06465340956884101, 0.40914275563876434, 0.08921945769283973
0.06365681796633774, 0.41414027847793966, 0.08995558686674837
0.06844742342103774, 0.4077429407530801, 0.08641702159383978
0.08267613036857334, 0.4085674967709435, 0.073076388558626
0.0820562379673219, 0.4046972716331273, 0.07370489182043499
0.08331656350723948, 0.41616237801207573, 0.07242706391374244
0.09012663565790774, 0.43168433858176203, 0.06338020280467578
0.08877429593547548, 0.438012381293322, 0.06527269601801734
0.0880127339827947, 0.42961807332399315, 0.0663384577216207
0.08618303246207286, 0.4389972742070741, 0.06889898020970235
0.08785371470698572, 0.3930730752230204, 0.06656099638738328
0.09283779717552987, 0.39358955317296107, 0.05958610507889877
0.0903594703916533, 0.39169364654345085, 0.06305435457494471
0.10173367185164715, 0.4205245373267285, 0.04290889998648332
0.09875726620794034, 0.4214083776993657, 0.0488514621482422
0.09862927848024951, 0.4183519065462331, 0.04910700627260378
0.09911002147284939, 0.42155780353231703, 0.04814716554488553
0.07888219675201724, 0.3894469895518158, 0.0769230585374746
0.07492156829961082, 0.3900476529139075, 0.08093872781680342
0.08208960787695813, 0.39795512205182615, 0.07367106232821467
0.08738397327046976, 0.4174096536551659, 0.0672183500408605
0.08823009164429463, 0.4197444864288784, 0.06603426659919498
0.0887534484201003, 0.41680338921778926, 0.0653018597119381
0.08601077705094824, 0.40961346092644957, 0.06914003681757083
0.09147416015226999, 0.40844503592054227, 0.06149442189745333
0.09438173181778653, 0.4058721083984005, 0.05742549183319037
0.09265885560519163, 0.41063977749891933, 0.059836521498713297
0.09535186507940152, 0.434191073467472, 0.05565057247600007
0.09780807483654262, 0.4310074375995564, 0.05074658247233722
0.09641795300261663, 0.433864098551969, 0.0535220585565597
0.09926680456726727, 0.4383939955549352, 0.04783415740088498
0.10497679251085394, 0.4339271810800576, 0.03345287849261589
0.10402259334412575, 0.4289741294293283, 0.03647026125182399
0.10429579110335177, 0.4299015769175243, 0.0356063512451014
0.10454191983191054, 0.43085176552494453, 0.03482803932868503
0.0974583038270137, 0.40931912811265697, 0.051444947054059
0.09797103872841367, 0.40896971452715675, 0.05042123893190418
0.10205034619016518, 0.4081714259748508, 0.04227663990039782
0.10778004680754809, 0.40836705315977084, 0.024135058845463436
0.10953865052841079, 0.4181562463987148, 0.012513063168197303
0.10779574868838245, 0.42162678132185916, 0.024031366195633258
0.10802724517457538, 0.41710757961174705, 0.022501453724765093
0.10565178855953788, 0.3897806086176899, 0.031318418933501166
0.10739619435075828, 0.39221755384862284, 0.025802242093797507
0.10511521175564925, 0.39128079889695744, 0.03301518110819541
0.10263667950286706, 0.418074793345675, 0.040852820515890634
0.10470148588765973, 0.42055155922208537, 0.034323477744150635
0.10522021204303289, 0.4205478877643719, 0.0326831588754939
0.10356804577588055, 0.4111200898493533, 0.03790764866475188
0.09911329030483022, 0.3935791578429368, 0.04814063821566297
0.10048609190816538, 0.3966864924833114, 0.04539976095575905
0.09633157965830878, 0.3877713335460203, 0.05369448331327974
0.1083954330839766, 0.4300246835353402, 0.020068225882006793
0.10797713606670128, 0.42971953393657963, 0.0228326035088391
0.10784724759802879, 0.4241707644504804, 0.023691021933077153
0.10776663378671095, 0.4370158355987992, 0.02422369617619578
0.10573683730442655, 0.40943867444482956, 0.03104946658982665
0.10439525720521986, 0.41019385107230455, 0.03529183315323502
0.106817577271257, 0.4147772555321646, 0.027631949292112826
0.10404834722666434, 0.40580936369539977, 0.03638882499609206
0.10827984239619638, 0.40472040985670665, 0.02083207189878712
0.10866546504452494, 0.40661383887381225, 0.01828362927964109
0.10854411583083876, 0.4053259563653111, 0.019085582975302252
0.11021293382447186, 0.43726134149741763, 0.004018691603307514
0.11018599334975895, 0.4310487353904509, 0.0005979152370546283
0.1101287533947154, 0.4385594358782361, -0.0066701484294126884
0.11019541702778356, 0.43136881545262745, 0.001794490108626903
0.1096849858329502, 0.41727844106583123, -0.012032620326100158
0.10925375138076504, 0.41568097542123994, -0.01463878308361352
0.1097320412843495, 0.42147161340665784, -0.01174823859640544
0.11020062495657808, 0.38827445467699206, 0.0024557714697668875
0.11017201374565277, 0.39341504140366335, -0.0011771481439715986
0.11010920113358016, 0.4018278071345589, -0.009152802230201214
0.11012729797489537, 0.39848558820371854, -0.006854948725077191
0.1101877728768701, 0.41662797980454114, 0.0008238754802860999
0.11012509586721717, 0.42134428474272767, -0.0071345554291777635
0.11020310967404255, 0.4138597996313515, 0.0027712696100528943
0.10860647222626979, 0.3898208730223201, 0.01867355390482986
0.10933078234063862, 0.395708401304277, 0.013886819064904559
0.10923812645246578, 0.39651538506038936, 0.014499152317253981
0.1092448508921394, 0.3875574888296985, 0.014454712637307472
0.10908958132440263, 0.43615741981621375, -0.015630944610769984
0.11003256725195495, 0.4243292623642845, -0.00993201339902977
0.10997264073224973, 0.42539742323313623, -0.010294179240230303
0.1101375655190955, 0.41064265282526335, -0.005551222250729675
0.11015249115605719, 0.411945207110996, -0.0036560334071977212
0.11012135738826578, 0.41624828443116074, -0.007609252086276839
0.11019884741822275, 0.4049482153172146, 0.0022300653056003296
0.10355275332236905, 0.4368013497815114, -0.03775201986883494
0.10334330323858733, 0.4358845891986409, -0.03837977442114462
0.106894136881659, 0.42719207317418784, -0.02773737245268508
0.10612889227390579, 0.4377092271890567, -0.03003092983625788
0.10866902974324225, 0.40676406318705766, -0.018172544762310595
0.10744836882753153, 0.4091692779983733, -0.025549594377134825
0.10921910736452302, 0.405821549584866, -0.014848157250623842
0.10068319782295714, 0.41526720245112253, -0.04517448738115715
0.10102740481219602, 0.41316646338398666, -0.04451031557664729
0.09898635781728694, 0.420368000220886, -0.04844866054952461
0.09561126878510731, 0.4182438821270976, -0.05496113427308534
0.10319387817106351, 0.399252347767404, -0.038827624642417374
0.1028936077367011, 0.4001896689396636, -0.03972758194342017
0.10386625758663347, 0.3925637645995096, -0.03681239871659136
0.10592242897369017, 0.41853390423372905, -0.03064973253260965
0.10608964892312214, 0.41883820329189647, -0.030148548276210347
0.10364978327062721, 0.42116273874171967, -0.037461205987886916
0.10658493476357675, 0.41765094475824793, -0.028664099402158187
0.107694190860379, 0.39436989810039014, -0.024063970352613942
0.10774505330455403, 0.3957113594197799, -0.023756583596764625
0.1078579472917154, 0.396081141868903, -0.023074309729841907
0.09892900721003908, 0.4293529226313291, -0.04855932261478302
0.10053928165580601, 0.4251735816700828, -0.0454521838353932
0.09782134059745475, 0.434671939840192, -0.05069664392398189
0.09762978937836841, 0.4332429688795078, -0.05106625559025848
0.10201655889409161, 0.4087380059844117, -0.04235623404804203
0.10262464186072498, 0.4119919298762037, -0.0405337146028653
0.1051845585032301, 0.4111946602782799, -0.03286124535935513
0.10112855183060021, 0.40505909860116107, -0.044315145229052486
0.09465313496326563, 0.4174633747205603, -0.05680992145437317
0.09381884630759546, 0.4161796814709279, -0.05841974060169447
0.0951484305757913, 0.40964864647168897, -0.05585421343268429
0.09163598030656905, 0.43101749732447825, -0.061381825830470756
0.08956898855520892, 0.4330321609245529, -0.06418017649265634
0.08815792909943687, 0.43395960095573927, -0.0660905078521524
0.08824358552278777, 0.434509255627036, -0.06597454381463422
0.07286205954061031, 0.40078361032054444, -0.08288750670421906
0.07227544833156978, 0.39466221623038356, -0.08346607705672549
0.07257666863189213, 0.3950138263241003, -0.08316898567378953
0.08550953806244099, 0.40122256618176366, -0.06967597296454435
0.08794634525633405, 0.3970111429056275, -0.06637695591710717
0.08520785860393476, 0.39363043958330124, -0.07008439496812674
0.08399024182188296, 0.39104852873517426, -0.07173283828005618
0.08610163532710455, 0.42060757896174483, -0.06887437529413316
0.08794894764772634, 0.4172364684431294, -0.06637343272758735
0.09357651807716913, 0.4183030105274977, -0.0587546720685936
0.09571785889160139, 0.3973467508631451, -0.05475546110087696
0.09589037989529252, 0.3993196941297487, -0.0544225695852492
0.09531500477228746, 0.39561851349705945, -0.05553279670341833
0.09541001870775376, 0.38844599907851884, -0.05534946057444615
0.07227553388787454, 0.4135663296276366, -0.08346599267316676
0.07652441225609594, 0.41315014230544966, -0.07927535496053315
0.07938542474539842, 0.42107542849363144, -0.07645355923118032
0.08518886307257646, 0.41514867422659285, -0.07011011164441248
0.08785586414398942, 0.4143547982100324, -0.06649945175216711
0.08892470192308488, 0.409018986767257, -0.06505242957371253
0.08716767609413589, 0.4051420726252653, -0.06743113978805237
0.08057716461314567, 0.4339704341772453, -0.07527815490076141
0.07616280566623022, 0.42802318473789713, -0.07963200489995292
0.077781120402029, 0.42462464901364017, -0.07803587289168645
0.05679355411874098, 0.40920649558513006, -0.09477937326838183
0.05288391778487481, 0.4218141337956939, -0.09673756808815093
0.05209638689432399, 0.418166497098231, -0.09713201303107541
0.05486201020909963, 0.41656552427056226, -0.095746813571113
0.05301003674647557, 0.4010789104396697, -0.09667439807379302
0.04883241570908137, 0.4036074554723442, -0.098766813402277
0.054300288546757704, 0.40279823506758006, -0.09602815801829999
0.04450268563650796, 0.4031683089758271, -0.10093541549896562
0.07954150002963155, 0.41427779585512325, -0.07629962331787923
0.08253868158811742, 0.4143797074508613, -0.07334352502978948
0.08303456417780034, 0.4047773237728804, -0.07285443965212694
0.06957292058967877, 0.4133625451526711, -0.08570143822416679
0.06689401595973152, 0.41540465043318847, -0.0876157213488123
0.0679370109009607, 0.412228228120581, -0.08687042135090794
0.06129753215457054, 0.41973689308018736, -0.0916148388932777
0.0677157145179912, 0.4006043551602715, -0.08702855104677204
0.062061944848328394, 0.4034583766062403, -0.09106860471010242
0.06311965090332339, 0.3993059994775067, -0.09031278972995824
0.06279896785849037, 0.4235307306304358, -0.09054194775761581
0.06593619466322048, 0.4219060002797994, -0.08830015823538162
0.06523176238295571, 0.4294937401018453, -0.08880352920704364
0.060944160706649333, 0.42237564100186187, -0.09186734993526295
0.06536250794449065, 0.40856379336826015, -0.08871010096750587
0.05989569471339856, 0.4169970689612755, -0.09261655920342637
0.05746487508527432, 0.4170626459041115, -0.09435356609044568
0.03660462734652384, 0.4009084288322342, -0.10398011570217824
0.02969843046351333, 0.3973690432932665, -0.10616408373530517
0.02981288929307898, 0.40397349281367456, -0.10612788522357741
0.027910710851258298, 0.4037048343698986, -0.10672941669791357
0.04094849412410809, 0.42676143517940957, -0.10260644324219255
0.02768099736690831, 0.42191566983515605, -0.10680206602804394
0.03762800048826023, 0.42525669640584796, -0.10365649358789467
0.03005702345253285, 0.4223964968964289, -0.10605068780577323
0.039262407591717244, 0.4110246885574102, -0.10313963787200854
0.03336621715994914, 0.4047005692841328, -0.10500420582247824
0.03982139822937805, 0.41470492116489444, -0.10296286741328718
0.015955163756580265, 0.4150540485938053, -0.10901780477524924
0.014534046360205676, 0.4151911131951445, -0.10923284398485547
0.014274793001532528, 0.4207731811882679, -0.10927207583554416
0.01803259374000533, 0.41688212711840583, -0.10870345519974278
0.009394427216597868, 0.4014112797314176, -0.1100105566922577
0.008367556942574286, 0.39930547862433086, -0.11016594010492968
0.016854738830375613, 0.40358591034200286, -0.108881682285322
0.02672959480095445, 0.41336628129238806, -0.10710292734629828
0.03432173202858278, 0.4157307015402631, -0.1047020431904238
0.025741060284574114, 0.410606617795147, -0.10741553349477573
0.03205215009667868, 0.41917858503493627, -0.1054197616444166
0.04453760523872913, 0.4226454451819759, -0.10091792985149631
0.051258872788027626, 0.42279903158995524, -0.09755149342966431
0.043793398655841254, 0.42403440970482087, -0.10129067548322661
0.046789776107343285, 0.4047466250055643, -0.09978989583180811
0.050562560174807314, 0.40571466703277437, -0.09790024788733395
0.054945191280493556, 0.40663398140389856, -0.0957051500591384
0.043612475922006774, 0.41052286059626847, -0.10138129008264225
-0.018316800145288, 0.42188797962131785, -0.10864517859605038
-0.010227724755381126, 0.42227402988297424, -0.10998363812247794
-0.01770540726132192, 0.4258854952412315, -0.10874634277001217
-0.011600337558032331, 0.40702537044156833, -0.10975651863189967
-0.0108879931384128, 0.41722453083898403, -0.10987438676003294
-0.015488245508776302, 0.4153165392762536, -0.10911320562222743
-0.02039577147715326, 0.4068131041196853, -0.1083011814331884
-0.007244386429098758, 0.4007808440389116, -0.1101242318692816
-0.004215776740348367, 0.3966093154489984, -0.11014808515897129
-0.004503409729623115, 0.40169250066373774, -0.11014581976536743
-0.0033021667950067233, 0.3939646262459895, -0.11015528073876835
-0.01922778467373782, 0.4185124696213247, -0.10849444246592937
-0.02659120422318567, 0.4154480588453124, -0.10727605364298198
-0.022337353911555856, 0.4193306223550102, -0.10797991733557433
0.0051069737558490196, 0.4314108618869092, -0.110221510997173
0.001239501929245147, 0.42436474596221685, -0.110191050826671
0.0023396278705965726, 0.43014067159826486, -0.11019971542400689
-0.00387197694734313, 0.4250804348805224, -0.11015079291159637
-0.015112613009668546, 0.3991630682241583, -0.10917535968466746
-0.01906908068156889, 0.39906383446163907, -0.10852070243508057
-0.01573374165780567, 0.3997319541161619, -0.10907258458168431
-0.003040095793267394, 0.41014006450853907, -0.11015734478323631
-0.004264505826006152, 0.4048228152633043, -0.11014770136880245
-0.005001634648643416, 0.4057904172010058, -0.11014189574784895
-0.008555260986119044, 0.4054480659885517, -0.11011390743546906
0.0024483745435846605, 0.4215674678334233, -0.1102005718755126
-0.0070489955871540725, 0.41584942937024727, -0.11012577075465585
-0.005263012166357772, 0.4188827038758771, -0.11013983712880661
0.022261683644699472, 0.43489698745739813, -0.1080635187158177
0.02060190310932862, 0.42787048269914374, -0.10831467469438048
0.01890431589416073, 0.4272499325481339, -0.10857154868363042
0.016514592268257078, 0.4253109925355775, -0.10893315521588962
0.017864321060865794, 0.40860682006217824, -0.10872891525544741
0.008227841249913073, 0.40670612668616973, -0.11018708122890888
0.01982929632784816, 0.407378575165827, -0.10843158039793693
-0.0313150618600055, 0.4006782912284904, -0.10570047969112362
-0.03330267118793925, 0.3978379364381969, -0.10503731469467513
-0.035422594887700366, 0.3976467018782337, -0.10433000306503785
-0.039378623519438966, 0.4015553029797977, -0.10301007581542876
-0.038930962325159725, 0.42216973387013457, -0.1031594377801479
-0.029269033632123884, 0.42502543731560805, -0.1063831361283859
-0.029851691090915684, 0.4269382382447139, -0.10618873271813828
-0.03047208234125315, 0.43183728663306237, -0.10598173944458869
-0.0580839215748138, 0.4137067913580677, -0.09399293131619238
-0.05438819300897113, 0.41214494494163323, -0.09590824151433758
-0.05474526033041722, 0.4131606551102557, -0.09572319148428102
-0.03325256655182949, 0.4107641421846213, -0.10505403208493932
-0.036347643702567746, 0.4080920168229121, -0.10402136092626105
-0.03667135327143116, 0.4062946732074274, -0.10391335536799129
-0.030924722917024278, 0.40585411612222655, -0.10583071611137877
-0.04637026445410505, 0.40351556050334086, -0.10006353053395552
-0.0473358421984196, 0.4041550128090568, -0.09956312016348612
-0.05309613071824336, 0.4023007807864586, -0.09657785240106281
-0.042442215240199276, 0.4058462248984555, -0.10198790975690575
-0.040179240757397844, 0.4196754249476843, -0.10274295021871023
-0.03849434293398937, 0.40983810371865564, -0.10330511565201411
-0.040272598411005237, 0.41717756875464285, -0.10271180147778168
-0.051874018139100184, 0.41071419995534714, -0.09721121187116792
-0.04861732440429041, 0.4149519402151868, -0.0988989924024999
-0.04681272609317247, 0.41112911856978074, -0.09983422492492722
-0.067819777377892, 0.4013459940810568, -0.08688067798093027
-0.0635006162753546, 0.4027544015814171, -0.0900710032803467
-0.07186535618668537, 0.401237199164616, -0.08389243278283051
-0.06754951469736081, 0.4014204036216371, -0.08708030606766223
-0.07494987959048093, 0.4289207369555484, -0.08091008608001654
-0.07819810532626588, 0.4310324768567994, -0.0776167091674713
-0.07966458794512524, 0.4322256522657498, -0.07612984206141002
-0.06771562603888653, 0.4232436492438987, -0.08695760881168857
-0.05859842526628348, 0.4321534651018165, -0.0936919805089163
-0.0601625860399916, 0.42189388322602067, -0.09253662150047733
-0.05868797236209138, 0.43726692228942043, -0.09362583702446112
-0.07272680806890422, 0.41113788826910264, -0.08316406010632281
-0.0784781740846125, 0.41459533222243755, -0.07733276987644523
-0.08025288071253382, 0.4180164227259242, -0.07553340092791515
-0.08113309736618776, 0.4172606366192841, -0.07464095228899896
-0.060033382920712294, 0.41293262926677715, -0.09263205669504743
-0.06409474747198554, 0.4073002990529484, -0.0896321514425047
-0.06928632807362405, 0.40552635950706617, -0.08579741813569731
-0.07221823194264079, 0.4118478747925084, -0.08363178298879667
-0.0721638175068311, 0.42076369610528097, -0.08367197592142779
-0.06888871962655123, 0.41490904384741534, -0.08609110949331139
-0.0680361834189719, 0.41282925198084003, -0.08672083081352587
-0.05185969194538454, 0.4256193075537979, -0.09721863641667641
-0.04543742892554953, 0.42202687386857285, -0.10054697226112878
-0.04550340071502374, 0.4339982405360253, -0.10051278240142489
-0.07946525615694211, 0.4112873202509247, -0.0763319618970334
-0.08230428066622349, 0.41066401378792694, -0.07345347257900242
-0.07994737600853143, 0.4126745439124597, -0.07584314409322353
-0.08375616693491625, 0.41459201844506854, -0.07198141501806372
-0.08825387686605418, 0.4323871806074578, -0.0660010617450702
-0.0874096048324376, 0.4332195642494899, -0.06718255817813473
-0.08631568813158778, 0.4292709254834923, -0.06871342961641873
-0.09627861737703994, 0.4152256851733819, -0.0538003488290944
-0.0995707801163126, 0.4205544284213859, -0.04722738044947909
-0.09467102413496624, 0.40749142699542373, -0.05700998953773333
-0.09948147534066097, 0.4179847428239144, -0.04740568192270348
-0.09115719760144465, 0.39519524915791193, -0.06193806745270791
-0.09407005810092282, 0.38937006696298515, -0.05786170958408758
-0.09356720436117968, 0.40129831183885056, -0.05856542052360369
-0.08586425611332177, 0.41865350635589393, -0.0693451830688507
-0.0849294247336998, 0.4107010015813837, -0.07065339362927778
-0.0872354721034843, 0.421142173657449, -0.06742626369724597
-0.08772821990579603, 0.42026508505191074, -0.06673669261589213
-0.0827814945356066, 0.4012726115012265, -0.07296961203338798
-0.07870525999228928, 0.3921024841420257, -0.07710251627285229
-0.07471540687238856, 0.3892303106050369, -0.08114782216660846
-0.0830650520373286, 0.38942297497147194, -0.07268214513502655
-0.09997906853200156, 0.4356724402716252, -0.046412219770191936
-0.09538836714255317, 0.42671396805547634, -0.05557777922605038
-0.0964816743908278, 0.432923461538814, -0.05339493792632771
-0.08803082512817513, 0.4081002982676147, -0.06631318614767295
-0.0923099448967209, 0.41561255897239424, -0.060324860499303336
-0.09261173594903818, 0.41043051992063473, -0.05990252525355391
-0.0906044454896642, 0.41331441809995084, -0.06271158636699921
-0.11023328679337922, 0.4072410015049449, -0.006593696191423415
-0.11014474058944508, 0.419672015961473, 0.004648805086233409
-0.11021268004050454, 0.4213651602196704, -0.003977918669270753
-0.10991645990356916, 0.3966521378096393, -0.01001672415466355
-0.10946745364237565, 0.3922909738278404, -0.012984043987693109
-0.10952461086906608, 0.39185300921196664, -0.0126063091803157
-0.10903613425917352, 0.3931148965389154, -0.0158344947494591
-0.10971437885626208, 0.4181656145761977, -0.011352180899380341
-0.11021121221558158, 0.4138489138663315, -0.008068798564201405
-0.10998606622881361, 0.419836223022063, -0.009556688838706171
-0.11022970820753972, 0.42376170900155236, -0.00614009109823179
-0.11020974019903496, 0.4325113491739082, -0.0036043069172610486
-0.11022202045966456, 0.4387003261060287, -0.00516317456801088
-0.11023369327208755, 0.43579472553898485, -0.006645411798905091
-0.10551416467795231, 0.43358518098339693, -0.03175384419788915
-0.1032745793916862, 0.4349186168989754, -0.038835902059349114
-0.10274016082260284, 0.434308914295883, -0.04052584970213893
-0.1044266496263823, 0.4386018328094574, -0.03519280717873311
-0.10175249896778088, 0.41211318606362085, -0.04287147449200163
-0.09796477946891122, 0.4057672900955608, -0.05043384553143555
-0.10184860962793048, 0.4151953125054689, -0.04267958285968865
-0.1080529385282595, 0.42120861865054005, -0.022332092941170605
-0.10823274887619959, 0.41328293993870735, -0.02114378548776407
-0.10794902910399375, 0.42096253920396465, -0.023018796152352614
-0.10853108135704895, 0.4118163393255104, -0.019172204237586303
-0.10718635423206059, 0.4027455843160785, -0.026466018777962425
-0.10410362586030227, 0.3882283610721647, -0.036214271457329035
-0.10451841834974815, 0.39253026108502725, -0.034902608051086206
-0.10265365380428668, 0.41257930513546914, -0.04079940219402189
-0.1034438137355074, 0.4201511340562771, -0.03830074096386335
-0.1028347883038024, 0.41153385391795616, -0.040226616479955526
-0.10280905923674236, 0.41343368912790635, -0.04030797610789236
-0.09704737479765821, 0.387699361786227, -0.05226548610744343
-0.09973555325810364, 0.39286052411003364, -0.04689840605862234
-0.09724288887362523, 0.3915442346959755, -0.0518751349314163
-0.10789487768947333, 0.43147380091394283, -0.023376670599554724
-0.10834295131441235, 0.4320488355860479, -0.020415509486378745
-0.10922373713077319, 0.4371927661164131, -0.014594705575415054
-0.10949858595639556, 0.4372869325833438, -0.01277832628161972
-0.10679554329018333, 0.4099784436464087, -0.0277018491763042
-0.104449846594446, 0.4095446304105962, -0.03511945358273299
-0.10608629965091433, 0.4075867609441034, -0.029944632206793026
-0.11010765442490272, 0.4351902669908573, 0.009357712060947975
-0.1101491416459684, 0.4285436952245801, 0.0040898602276082255
-0.1101150152276772, 0.4282688780884413, 0.008423072010486199
-0.11012818948468987, 0.42509749186294943, 0.006750266935224801
-0.10986154448041398, 0.44118504369442907, 0.010966006998634363
-0.10863144896969905, 0.45143225807232135, 0.018400102132602063
-0.10894069001726951, 0.4482353766888688, 0.016531200614840712
-0.10853810246722845, 0.45126407395850904, 0.018964242700342387
-0.11011726753017992, 0.43955596684553716, 0.008137158039035286
-0.11016111690731809, 0.4449825569508208, 0.002569671488281122
-0.11011853906200542, 0.44740127122132445, 0.00797571364006322
-0.10978849341683833, 0.4636628149275289, 0.01131948216588606
-0.10921992165581172, 0.4609458880391134, 0.01478766892663213
-0.10941048798927719, 0.4663005305122782, 0.013572919344935996
-0.10748190941752246, 0.44078634682250645, 0.02534735648537401
-0.10942659182700003, 0.4411525328396592, 0.013594647926176318
-0.10875623601893046, 0.4422534266171056, 0.0176459502904136
-0.10635792698113461, 0.4679648504392111, 0.029273220451289217
-0.10603515094470597, 0.46341871097281184, 0.03026821413876802
-0.10470837337532352, 0.463669990981944, 0.03424321866512771
-0.10305433100840253, 0.4339908555263668, 0.039246078450312576
-0.10281449341865632, 0.4355947245114167, 0.039964913185823514
-0.10226823445995824, 0.4328616934365325, 0.0416021042161584
-0.10273235613929027, 0.42211126567699964, 0.04021100153177866
-0.10163080619276155, 0.44300673453712436, 0.043346130463713106
-0.10175841315071293, 0.452294298725476, 0.04309986447972157
-0.09999314138053844, 0.45044745236492434, 0.046506094979853974
-0.10364858360314784, 0.45418883950825495, 0.0374649475909727
-0.10515039488012001, 0.44572804071701616, 0.03296382479324992
-0.1057991522815091, 0.4474545045888118, 0.03101941488345679
-0.1059615499336134, 0.45124093119756536, 0.030532688098679227
-0.10883598359974393, 0.4224154200834016, 0.017163994948485375
-0.10863344618491365, 0.4237957117386336, 0.01838803194148359
-0.10904975754055202, 0.4274552035088576, 0.01587204989276605
-0.102352984098732, 0.4418748450180836, 0.0413481086009251
-0.10205460194760345, 0.4416609402524115, 0.042242405992752606
-0.10475551489144379, 0.4424679006681733, 0.0341473600923505
-0.10353721072800123, 0.45020770461699744, 0.03779874980534081
-0.09771990417668701, 0.4649654564394804, 0.05085579062758145
-0.09796286955849236, 0.46792173219458766, 0.05037463407035919
-0.09611507517052054, 0.4678953206622219, 0.0539401896497202
-0.09280171342236934, 0.46326497500423125, 0.05978079539535237
-0.08630175323943386, 0.4688867946510908, 0.06856242332693294
-0.09433779060171125, 0.44491991001491754, 0.05741849247350346
-0.09417380970490581, 0.44376060230561276, 0.0577349040130341
-0.09681349587902024, 0.4423008656320562, 0.052641458387470016
-0.09408510407618452, 0.4409859834968486, 0.057906066748631566
-0.08932935028980901, 0.42890106809052286, 0.06450467602639087
-0.08696332622583496, 0.43257928138536667, 0.06770786572779143
-0.08509588523666058, 0.42810927722853637, 0.07023605855394142
-0.09227119250754899, 0.4428778768476583, 0.06052192803285772
-0.09244846498375785, 0.4455274347612442, 0.060281931459530466
-0.09269812126481693, 0.4413944504133933, 0.059943940109813555
-0.08956049280091982, 0.4507167058489151, 0.06419174813646539
-0.09466912600664677, 0.4235722452380908, 0.05677915303033408
-0.09879323785302124, 0.42789804712129875, 0.048821372636819224
-0.09599591914927844, 0.42621738990960634, 0.054219006794256605
-0.07448851485423008, 0.4561230324269359, 0.08128339953493438
-0.07971311718739936, 0.4537368923273656, 0.0761304155232512
-0.07545940994849021, 0.4474341563990113, 0.080325813421703
-0.07472656628682034, 0.4558590852069252, 0.08104861128828021
-0.08616738373290204, 0.4509306780664451, 0.06878543355727836
-0.08561777667725334, 0.440790634237494, 0.06952950850437212
-0.08466102869110242, 0.4437834949722555, 0.07082478020278131
-0.08409030914811405, 0.4447669968722548, 0.07159743611665695
-0.08112163718184985, 0.457469300956728, 0.0747377410658737
-0.08316019127398004, 0.4588237536579888, 0.07272347301991416
-0.04236713525060977, 0.4414552206241161, 0.10200505078124131
-0.055013388028792964, 0.4558997759627428, 0.0956710116659924
-0.04490449430206098, 0.446349494512829, 0.1007341773778033
-0.04985503361868632, 0.4495679031001337, 0.09825464108275427
-0.0677477085802209, 0.4567356951687986, 0.08700443612567557
-0.07006777015943783, 0.4623737086001277, 0.08533324730868055
-0.07041091815588905, 0.46016610856100515, 0.08509326190648067
-0.06380663914917531, 0.44195753603024884, 0.08982192660940008
-0.0678749978778552, 0.4407727125611751, 0.08691477742255686
-0.05726391646583654, 0.4514027243062852, 0.09449719197426353
-0.07592110221888497, 0.44484040196500574, 0.0798704499869241
-0.07930908370004555, 0.4455064519026079, 0.0765289105526804
-0.0813976319742869, 0.445315238721942, 0.07446899184602887
-0.07557412637333594, 0.43917482323304335, 0.08021266949557096
-0.06376960020048902, 0.4359075278249579, 0.08984839365200614
-0.0615610772170625, 0.4287012219327332, 0.09142654685820172
-0.0584583920871229, 0.42496322040460316, 0.09364364809942374
-0.0718051769143284, 0.4231820333515847, 0.08392995456394717
-0.07642489442958443, 0.42208241022323956, 0.07937356365104348
-0.07666426644060292, 0.42780094396550106, 0.07913747296077098
-0.07554771664265027, 0.42457281105518885, 0.08023871719060727
-0.06586155665949704, 0.44704218849503624, 0.08835353094088509
-0.061937464510639736, 0.4511674182256229, 0.09115758916554137
-0.06054260923782609, 0.4543666172189932, 0.09215431768491687
-0.034475720332385974, 0.46040099485887176, 0.10464486332292544
-0.0372680333420145, 0.45818203239044925, 0.10376630120513677
-0.034284709389164045, 0.4594439816569851, 0.10470719437268572
-0.0556179376173296, 0.4233511301899857, 0.09536821930546602
-0.04433733016792715, 0.42215364540874883, 0.10101822672512491
-0.05189483877247382, 0.4253383751880814, 0.09723297655059193
-0.04771380958514089, 0.4219742198580515, 0.09932708136587362
-0.05158155599419195, 0.4463148431100909, 0.09738989433104037
-0.049898368086027864, 0.4398513926185037, 0.09823294211573186
-0.0543581215749496, 0.4468056890105022, 0.09599921663715946
-0.05504593534351833, 0.4670057290568918, 0.0956314377991797
-0.04539029895182655, 0.45863233857946833, 0.10048557630559211
-0.055368272213772475, 0.4595121422032358, 0.09548611165125695
-0.02724887922161056, 0.44848026307554084, 0.1069387263722333
-0.028399415789779715, 0.44898902541285823, 0.10657488591902112
-0.027213357231360043, 0.44290579383261985, 0.10694995631802426
-0.025064384494385677, 0.42397973197185385, 0.10762954502223154
-0.032831759121319956, 0.4244615114042196, 0.10517322341368848
-0.033778346415303875, 0.4251733943505694, 0.10487387826694607
-0.027728006507351098, 0.42384860353622494, 0.10678721267346451
-0.011489768551046496, 0.43877188737752465, 0.10969351133456635
-0.017931664980350114, 0.4333999304810627, 0.10871874094461201
-0.015179436956464572, 0.4360276533854726, 0.10913520066474697
-0.020918922741753634, 0.446400547178918, 0.10826671885552111
-0.012351990966752522, 0.4561595695630493, 0.10956304447264013
-0.02412388559167602, 0.44965070049897204, 0.10778175585653656
-0.023798999737328335, 0.44147694664932446, 0.10783091232041071
-0.03335690057307615, 0.4458974862598074, 0.1050071546846316
-0.036207091739068185, 0.4451367765105194, 0.10410583110335794
-0.04094110046099083, 0.449361816504108, 0.102608772692695
-0.036496828117950075, 0.4502056764015771, 0.10401419746506507
0.002253189519294209, 0.46104099468217763, 0.11015422740781736
-0.0022003248306175704, 0.46415752832814017, 0.11018332178967588
0.020908755163343895, 0.46513797804490475, 0.10819885044725674
0.02352176834483139, 0.4681496360355888, 0.10776061753445386
0.016274311366193416, 0.4669576964374315, 0.10896214740187685
0.023262781128129843, 0.4522447612539895, 0.10782678420412767
0.019458172452471, 0.44882032510534325, 0.10845631609179689
0.016120287667552587, 0.4512487348497627, 0.10900862122712285
0.02411325357743177, 0.4521586583443523, 0.10768606026322801
0.00875064031707797, 0.4277763900688098, 0.11011236926128218
0.008254658821779635, 0.43417418443443545, 0.11011627602903216
0.0007879315996297343, 0.4336982844464913, 0.11017509025776051
0.007704535140508013, 0.4512649869015115, 0.11012060926621314
0.005202788741222687, 0.44780908739544484, 0.11014031512670197
0.0030436055049979927, 0.44732998760772963, 0.11015732267136559
-0.0037459998889096007, 0.4558166018004316, 0.11021080331860658
-0.02183045408784328, 0.4593057211841219, 0.10812273727440766
-0.01256130563882791, 0.45737654553056417, 0.10952906201172624
-0.009010329552909061, 0.4476196689791848, 0.11006869335520367
-0.01934450947589822, 0.4424187170746538, 0.1085049531268499
-0.010926397330560908, 0.4405008134644179, 0.10977875914789408
-0.016188223171751163, 0.44159456208794023, 0.10898255385596214
0.02587435895461113, 0.4311269703913263, 0.10739465789126446
0.02520862592897775, 0.43485454064892104, 0.10750481381110769
0.018010374233889372, 0.43392074196974995, 0.1086958769042765
0.0024187157319255424, 0.44498833297584023, 0.11016224482922003
-0.007538385286583918, 0.441517046438197, 0.1102406753382437
-0.0008701919382658931, 0.44125607177821247, 0.11018815103447249
-0.005969131355497312, 0.4407034828215678, 0.11022831457336106
0.05633410273001056, 0.4558474168220171, 0.0948997467875099
0.05797615600182095, 0.4531711013059016, 0.09404875426941044
0.04971364811509816, 0.4536242297619284, 0.0983307909810372
0.046050708344288385, 0.45506999542959403, 0.10022910597039891
0.043469155782945974, 0.4682033583420197, 0.10154098616636112
0.053218882270733445, 0.46535642960443985, 0.09649436843001932
0.01064732342730192, 0.4461218232289976, 0.10991420858262517
0.013695192607978085, 0.4459299222510761, 0.10940989105558079
0.011318895014071104, 0.4438502462475059, 0.10980308658171384
0.014501202645431945, 0.4407726461896254, 0.10927652411469013
0.039538196713133564, 0.4290029372344235, 0.1029568115055458
0.034001110616912245, 0.4333387693651634, 0.10480426312683504
0.03938151680406528, 0.43832803034124707, 0.10300908783771792
0.03168010759660926, 0.4658029382429835, 0.10555918058555971
0.02957918599484556, 0.46028899867317874, 0.10627132915282583
0.037240381263577316, 0.46545235254756423, 0.10370470791103795
0.03575032383869491, 0.4472001529033235, 0.1042206372365372
0.03551419178002495, 0.44948529168430224, 0.10429942281925117
0.035844147379152605, 0.45169630807173894, 0.10418933296405138
0.042174808492282084, 0.44010295533418053, 0.10207710463058456
0.04816163447437405, 0.43745677575504327, 0.09913512054751246
0.05512311442083577, 0.42606309277359256, 0.09552734030612789
0.053237213033244364, 0.43058001370705057, 0.09650470687411035
0.034163474650223735, 0.4426189105378435, 0.10475009028368834
0.02990990531769702, 0.4437229073726411, 0.10616929587722343
0.03527239252941114, 0.44121848312316014, 0.10438009926346933
0.03148441047760741, 0.4500984341287227, 0.1056439614215447
0.07922699359262685, 0.46417780935746145, 0.07655159954100339
0.07446654027044393, 0.4602159477192499, 0.08138905424070067
0.07055479958183249, 0.42537470003013844, 0.08486041498741852
0.0723561553525427, 0.4253956192526325, 0.08352984935544083
0.06731244098937669, 0.43315263969324813, 0.08725537270749636
0.06695829265804801, 0.4344445984822885, 0.08751696323056246
0.05132156049446174, 0.44105204925729163, 0.09749749194738933
0.044107380692187816, 0.4548607501860832, 0.10123623364435684
0.04686314958299035, 0.44612947492858246, 0.09980805908513642
0.04433611087253846, 0.43967573855829456, 0.10111769444987177
0.06473967116387214, 0.4523411049165054, 0.08915574084380068
0.06942617241605029, 0.45078465749450386, 0.0856940718044248
0.07172115068309892, 0.4445927285749001, 0.08399889350709895
0.058531429989998524, 0.45951527642931744, 0.09373348961173789
0.061751235275853994, 0.46808493160342557, 0.09133471790520206
0.06957532525681362, 0.4666031242898202, 0.08555900649457188
0.07378155884190056, 0.4508290253687468, 0.0820945834773629
0.07573398306015398, 0.4495970241440274, 0.08011502604729057
0.0801589698548521, 0.4515836355691133, 0.07562854436696569
0.06552153655390978, 0.44735292167511753, 0.0885782184943945
0.05963916229842432, 0.45101831137121884, 0.09292321527184585
0.05984481400241759, 0.4414958412212273, 0.09277131130376785
0.07024864196147974, 0.4397486617408901, 0.08508655732655722
0.08060761256438295, 0.4492519595590322, 0.07517366502534578
0.0799622234998818, 0.4493799174756729, 0.07582802453599355
0.07865549871799804, 0.44316093039554527, 0.07715290342092118
0.08463848308288874, 0.4615674821379355, 0.07104270032245215
0.08531917389531718, 0.4638841453097156, 0.07008246057065898
0.08633651021799339, 0.46647919782762, 0.06865018782813673
0.0890209527132673, 0.42937869994401595, 0.06492752876689356
0.08666714075215334, 0.4229566504536472, 0.06822151782273185
0.08739554142640543, 0.4260012467350546, 0.06720217631488579
0.09291267575121553, 0.42535882599690966, 0.05948131171283115
0.09906627249481285, 0.4527441101928307, 0.04823452242183269
0.09995240280550399, 0.4527863899139592, 0.04646531222562236
0.1013180205670027, 0.4544638766842861, 0.04373877282879574
0.07766038283446047, 0.42273979311845006, 0.07816185358271958
0.08362497906192473, 0.4332136866582328, 0.07211435258364521
0.07968790059942968, 0.4316976602907125, 0.07610614735089534
0.07714778995524957, 0.42603534605667004, 0.07868156577121092
0.08625815069340556, 0.4490081176676177, 0.06879386043014521
0.0881047086502798, 0.4528299591932044, 0.0662097301572391
0.09076235064260146, 0.45179574423772123, 0.06249053530834095
0.08573401484301811, 0.43992758941558413, 0.0695273457589992
0.09134552631721868, 0.4455582121687297, 0.06167442934169376
0.09396643574306437, 0.4495727438547361, 0.05800664744601459
0.08825212042673562, 0.44514715500063196, 0.06600342767223284
0.09559571290096841, 0.4605085046649653, 0.055145148945731026
0.10086874772032277, 0.4685143349499229, 0.04458291207872581
0.09560969937477813, 0.46109914868039525, 0.05511469004569102
0.09921348007232991, 0.44762473824485377, 0.04794062508721523
0.10080414190129362, 0.440384471241634, 0.04476476670607976
0.10081246554418999, 0.4433584216741641, 0.04474814801908257
0.104671187206451, 0.46561374393868493, 0.034359218856910935
0.10373950877501852, 0.4621765336038341, 0.03732728403661277
0.10643903438708507, 0.46715967985081175, 0.028759038612678214
0.10727043558156964, 0.42712546256184836, 0.026199915610651672
0.10635567401353319, 0.42255200291586614, 0.029092592522987078
0.10612402186660876, 0.43154803330166425, 0.02982509959306766
0.1082638292746202, 0.4528622470344189, 0.020937952955861264
0.10802357098192046, 0.44946359231781874, 0.022525723985527702
0.10891804891855915, 0.4506901557750853, 0.016614411247307195
0.10882329393825423, 0.45443121313708323, 0.017240638195683687
0.1014794480428431, 0.43548160591553187, 0.04341646837079287
0.0992041059580566, 0.4291318310642287, 0.04795931954720662
0.09997508922983689, 0.4308944820236107, 0.04642000715694199
0.10101631807828768, 0.4327659722580117, 0.04434113394894062
0.10300280597997584, 0.4521971024552375, 0.03969505323830989
0.10400364752328403, 0.45036835259609104, 0.03653018628294516
0.10371882924132256, 0.45259834665594767, 0.03743084031243722
0.1083281433836166, 0.4615211489476343, 0.020444421352398427
0.10816572839705502, 0.4602295906727471, 0.021534362137691387
0.10796073503947584, 0.46095264518646895, 0.022879800155751487
0.10706352267135226, 0.453657835441441, 0.0268542296014139
0.10453869047231067, 0.44577025019946664, 0.03483826977882832
0.10470449316854828, 0.4399086374259396, 0.03431394994079837
0.11021053716534057, 0.4645544481915136, 0.005756065882465847
0.11021653212593802, 0.46266288662253696, 0.0060557186497868865
0.11012514418784453, 0.46847720756005806, -0.004128963263626841
0.10916701240342581, 0.4463197414639647, 0.014969081572229925
0.10905186892373568, 0.4433852219893098, 0.015730023784081344
0.10869945447829019, 0.4392491720235298, 0.01805900522816628
0.10941578197341098, 0.44206602251, 0.013325052163571676
0.11011334095677623, 0.42213872489941906, -0.00862713865097175
0.11018694609797622, 0.42296920389288134, 0.0007188943361847791
0.11014297112416546, 0.4284807851033945, -0.004864843607732747
0.10965653291685816, 0.45353295923562953, -0.012204574135901463
0.10902254061429736, 0.45418381427704957, -0.0160361009238742
0.10896637432205647, 0.44713093121567427, -0.01637554565087937
0.1097528248080053, 0.4559168156639247, -0.011622633474463212
0.10926038813683238, 0.4313641615541748, 0.014352031936026338
0.10943781877885582, 0.43133670922805933, 0.013179449337778421
0.10885417889213195, 0.4280241283974379, 0.01703653944922301
0.11013134677797037, 0.4548214831054997, -0.006340844280126422
0.11021440784828733, 0.4480454612056168, 0.004205858458946795
0.1102029081258141, 0.4544215597068843, 0.0027456779671185083
0.11019237267904228, 0.453952531318661, 0.0014079366533881793
0.10849079144017221, 0.46765533673497905, -0.019114689859675845
0.11004500419534272, 0.4652322820935394, -0.009750353240052481
0.10881046867121186, 0.4676899072702096, -0.017182317313623078
0.11012205474385345, 0.4397765795690336, -0.007520711557807683
