-0.004478378965393705, 0.22280576992713308, -0.10823236474495396
-0.0075933495349580485, 0.24609546757068906, -0.1079856882006702
-0.001619343691421659, 0.24132890182221184, -0.10845877474976096
-0.001298731077216617, 0.28967359465038156, -0.10848416572463927
-0.008327141661331947, 0.2335247921410913, -0.10792757820792279
-0.007325133599658837, 0.23413992135237965, -0.10800692810990781
-0.005438055745922462, 0.25975652334315785, -0.10815636816981565
-0.00041995423185687365, 0.27872498185785277, -0.10855375650885099
-0.0037420785708261275, 0.2521693877391028, -0.10829067385067653
-0.010978383499360752, 0.20206040349471371, -0.10771762350933353
-0.012121556712512414, 0.20633477931686695, -0.10762709465861828
-0.015410917048028843, 0.19332300454360646, -0.10736660784310036
-0.009407682136130068, 0.19912387424359942, -0.10784200862798896
-0.006697028080009711, 0.1976064010528146, -0.1080566674711489
-0.014531543574966216, 0.19272182713138358, -0.1074362461271552
0.008243993698871497, 0.25264756283141226, -0.10797135376973165
0.01699813827971746, 0.23298360290015888, -0.10727809323821758
0.003284387720618366, 0.2319590481400332, -0.10836411077185626
0.006554806130386086, 0.2206369175614952, -0.10810511825499997
0.012893422155649443, 0.2545990982617089, -0.10760315711529977
0.0024711303733779746, 0.22052812846596598, -0.1084285122028165
0.014943650885548776, 0.24408083305683598, -0.10744079385192035
0.011579961770779756, 0.2399542005055541, -0.1077071700180699
0.014624223558902812, 0.24433648642587769, -0.10746608994647597
0.01331041921788208, 0.27879687258520247, -0.10757013845802028
0.017099514167594608, 0.28791620950167285, -0.10727007445446017
0.016373894831612987, 0.2673870320219196, -0.10732753411558055
0.013591733593539577, 0.2202392531026643, -0.10754785066190081
0.011877657368035172, 0.2554750914270062, -0.1076835975892418
0.016119461268274272, 0.22967589269309147, -0.10734767676011013
0.012353216357594283, 0.2361403227476759, -0.10764593388241889
0.010850790774106518, 0.26419073505136353, -0.10776491857242053
0.007686635153786304, 0.21636678785007316, -0.10801548658237808
0.0003957062909919985, 0.1981270884331606, -0.10859286956169556
0.0021467985620674712, 0.19662544476386126, -0.10845419732001765
0.013784776465241334, 0.2189592149475511, -0.10753256321265035
0.013790490935600357, 0.21473024526041032, -0.1075321108133281
0.007512661521806325, 0.21691485807449393, -0.10802926386342682
0.027447708579183293, 0.25857467521645805, -0.10480304718636438
0.029126922940060387, 0.22151032825142458, -0.10440076737783237
0.030790808995248654, 0.25799431355609037, -0.10400215968408288
0.025439049972094573, 0.25968116825683213, -0.1052842500742695
0.03363904308057403, 0.26234804786375876, -0.10331982448662749
0.032338813953790596, 0.28400755398570887, -0.10363131296383235
0.025012169135527607, 0.244472495034452, -0.10538651548195126
0.029504317850738593, 0.2454359494247489, -0.10431035703121688
0.03318011538215836, 0.2250659828413556, -0.10342976717825159
0.026963681225564584, 0.23740221056195437, -0.10491900285925196
0.023105905409170163, 0.24157858979193794, -0.10584318821219757
0.029434889723465966, 0.24484639815756937, -0.1043269895317461
0.028283178297128474, 0.22039322461561234, -0.10460289847039358
0.030744509639794176, 0.24615756468148647, -0.104013251356642
0.03269412566133914, 0.2684712061694903, -0.10354619296425878
0.025049175162701456, 0.23150140766665186, -0.10537765015905212
0.021690101710565988, 0.22779204385541574, -0.10618236423049694
0.02532422135847592, 0.23240487891220718, -0.1053117589104114
0.048047900093554176, 0.2907058241184112, -0.09735388799104126
0.04393083315828519, 0.25085490132973914, -0.09906159044899106
0.04452641810379017, 0.23547690729124038, -0.09881455126343257
0.04237751920927966, 0.24294860368706933, -0.09970588319433478
0.04271362704975818, 0.233383455271223, -0.09956647104602392
0.04526643126587076, 0.22623887307203602, -0.09850760497687318
0.04747529149560673, 0.27315434036163927, -0.09759139881433743
0.04031739320692854, 0.22439176912155834, -0.10056039490499485
0.047795639114249604, 0.2655468081936084, -0.09745852366668507
0.045026964033614975, 0.22429393274413217, -0.09860693265337779
0.04690041701664579, 0.27794419697710604, -0.09782984820592178
0.0396385306777486, 0.21993040024947164, -0.10084197757725699
0.04742675824405532, 0.23812138125603916, -0.09761153172664083
0.046831039771948316, 0.2287221915102564, -0.09785862772396078
0.04116348238228447, 0.25682100711409295, -0.10020944741395872
0.036493533484165216, 0.22872308257992002, -0.10214647668306596
0.040039498217866114, 0.24348494036261675, -0.10067566065092323
0.020137810796216262, 0.21974121066115046, -0.10655423771572857
0.027347679716895137, 0.21699108259301889, -0.10482701057763905
0.022632578049072368, 0.2037402987321647, -0.10595658080865067
0.018846968155719488, 0.1975057758844836, -0.10686347788308595
0.024444023136066313, 0.20911713428507964, -0.10552262315276045
0.025401148625062438, 0.2117051129438473, -0.1052933300159063
0.03626048921850739, 0.20665015359410976, -0.1022431405999042
0.03822357228219782, 0.20610377064665333, -0.10142888197339867
0.038147392877685704, 0.20068101246825348, -0.10146048009496234
0.035524116246965096, 0.21827829153249428, -0.10254857751976466
0.03592624366441787, 0.19738253114078952, -0.10238178084942931
0.04011787346113313, 0.2099150448859236, -0.10064315308363482
0.06304375757845318, 0.22925268494529677, -0.08844051320928628
0.05200965784204214, 0.23347040738917543, -0.09519481409713716
0.05082611867069914, 0.22436913208101755, -0.09591929257038173
0.05686303266801281, 0.2394700161839603, -0.09222391979146341
0.05951776769949144, 0.27039480422432377, -0.09059888107749116
0.05861915717364241, 0.2251499147786594, -0.0911489421624497
0.06156504866906286, 0.24057921502777918, -0.08934567616713704
0.05570108563230454, 0.22217482641810363, -0.09293518014822715
0.05607742288424778, 0.24959640419691567, -0.09270481603787224
0.061324860894790355, 0.22018247212029138, -0.0894926999315168
0.0544013020995608, 0.22271145722832864, -0.09373081634227137
0.06048686876194681, 0.26646605733891715, -0.09000566506785265
0.061257842385919296, 0.2809792479510587, -0.08953373084188826
0.062267163967424356, 0.22574659941454728, -0.08891588884362833
0.0625324477545512, 0.2584244488893787, -0.0887535044554863
0.05245647889290993, 0.23174566873298016, -0.0949213014558155
0.05698172600838931, 0.2542291359392407, -0.09215126574237008
0.0646600438242889, 0.2134959678588461, -0.0872639171547509
0.07358556167752454, 0.19874942678738572, -0.07963330980984752
0.07341605844591162, 0.19525240142860792, -0.07977822375427723
0.0656500002932324, 0.20744162696833252, -0.08641758571064025
0.07427115279654771, 0.19267056579255873, -0.07904718681759151
0.06781729925874036, 0.1999981299612673, -0.08456471982175304
0.054286965406929774, 0.2093500360120888, -0.09380080578293346
0.05137085365667771, 0.20722896676879574, -0.09558584463355925
0.055483750495383344, 0.2184221164130851, -0.09306821731416254
0.0557875420077004, 0.20623129321172312, -0.09288225850067539
0.05182868165848841, 0.2047285531123843, -0.09530559471108824
0.0504821457335446, 0.21520684082005634, -0.0961298485131064
0.08013752149226079, 0.2101902850821661, -0.07298294290640123
0.08011081720898329, 0.20094947680528547, -0.07301417871249596
0.07874678650076444, 0.20238509009438338, -0.0746096755197469
0.07843227772210151, 0.19796609868248718, -0.07497755415267326
0.07835213581038568, 0.19214839742364617, -0.07507129556443118
0.0807602467280845, 0.20552951707509753, -0.07225454572328452
0.07259634496520734, 0.27815747439973426, -0.0804790078785991
0.0748136725929002, 0.2917302655067434, -0.07858336155790958
0.07673985773994714, 0.2866907492068727, -0.07693662366332178
0.07104675115559222, 0.2972066916569616, -0.08180378622753635
0.07631326397219952, 0.24132922865210432, -0.07730133843330246
0.07607311449783064, 0.2596151446174807, -0.07750664352722383
0.06548409701411667, 0.29166652495307255, -0.08655942565895185
0.07426228836264254, 0.2767668794579894, -0.07905475569423315
0.0762929563905565, 0.23407994440112465, -0.0773187014653382
0.0746948366950591, 0.23640931060614986, -0.0786849694305716
0.0735972683627969, 0.26680402775944556, -0.0796232984869729
0.07495377686100017, 0.2810017127896246, -0.07846358566939503
0.07507330416688299, 0.2673280849171029, -0.07836140214846019
0.07435540923101917, 0.2665433715967492, -0.07897514685820416
0.0697230624695464, 0.26616156663006557, -0.08293544442237422
0.07392254825899912, 0.24055646976457817, -0.07934521526299795
0.06901327240108517, 0.2899277274510885, -0.08354225460019725
0.06593806120905867, 0.2877774526220902, -0.08617132232505914
0.10546241727227662, 0.4013979754604564, -0.02445475127877432
0.10635605392824758, 0.3980450058193091, -0.020724452560739272
0.10539492341598752, 0.3962297357948425, -0.02473648786144933
0.10647055556075435, 0.39517336779966783, -0.020246488457982284
0.1069186943592693, 0.38856381126083483, -0.018375824927579016
0.10780689704019969, 0.3316515664172223, -0.009438803848690766
0.10781694367608732, 0.3234249813125352, -0.009311935660265119
0.10738692325998035, 0.3117502863444634, -0.014742202247783099
0.10737026297691973, 0.33763941842900697, -0.014952587092441554
0.107346765141763, 0.3040142463999055, -0.015249316048442667
0.10810948026658364, 0.3211269433064077, -0.005617804838803404
0.10742785674771568, 0.33964119250292446, -0.014225297137155805
0.10806545145307825, 0.3038343419592009, -0.006173797498479747
0.10794342587490235, 0.3013005370834404, -0.007714727638471642
0.10774325364454301, 0.30862667259505977, -0.010242488027408056
0.10785068468038922, 0.3096524497195801, -0.008885856708133808
0.10754323353239198, 0.3221973734257497, -0.012768327478656794
0.10814962608156548, 0.3116368786353395, -0.005110846402508496
0.10738526119446576, 0.3466485732807653, -0.01476319069040598
0.10756007848749065, 0.3307085729636383, -0.012555610608912313
0.10797088203604854, 0.30047187798538255, -0.007368013229319916
0.10756958781212042, 0.3435412715899613, -0.012435527548032507
0.1074972650911012, 0.3148537150057869, 0.012726978620496062
0.10842532159903336, 0.36833587721884287, 0.0010080852835290485
0.10759854774347175, 0.31254982509583656, 0.011448047230143307
0.10815712783432134, 0.3225694866502059, 0.004394661526933228
0.1084587972668772, 0.3731608340711268, 0.0005853763455573715
0.10772596578444356, 0.31826550018187044, 0.009839095168936508
0.10801040110260107, 0.33555157932989044, 0.006247431163280967
0.10837998390117456, 0.30346295308762244, 0.0015805802133202589
0.10829315174688658, 0.31386524020699946, 0.002677040122412414
0.10814592838014023, 0.34616607437364255, 0.0045360809425172574
0.10796576348984038, 0.33649850889332195, 0.006811085874269445
0.1084795602329651, 0.32953638508050825, 0.00032319512828923825
0.10739499829882822, 0.30471714108436815, 0.01401833708877645
0.1080391161288735, 0.342854238423301, 0.005884836507482936
0.10837342867694061, 0.32100429610671133, 0.0016633553169275199
0.10747126144033675, 0.3070884518736406, 0.013055335791719885
0.10751148848577889, 0.3991957391362437, -0.013169210105366234
0.10788042765953426, 0.3926910767116287, -0.00851026993699651
0.10838381612537222, 0.39497741218480165, -0.0021535127514836815
0.10812648496290683, 0.39717395103517145, -0.0054030741281733494
0.1079917175406665, 0.40146334236396886, -0.007104908472496906
0.10840011523381866, 0.40268231206188354, -0.00194768865783485
0.10777356408372599, 0.3963297707294089, 0.009238049586500447
0.10724113445580705, 0.3989861697067879, 0.015961220573740942
0.10818183923139653, 0.3996107211976043, 0.004082619678591806
0.10746865367022386, 0.39729873499515117, 0.013088257648319829
0.10749936727813297, 0.401249417277552, 0.01270042641808735
0.10543321813168621, 0.3097244810624945, 0.023955094774456426
0.10683874447712562, 0.3346477756942101, 0.018088035759574357
0.10704043899715202, 0.34265903553672034, 0.0172461060362038
0.1068644312677808, 0.3535281413604373, 0.01798080969802979
0.10678467591712693, 0.3517980870118588, 0.018313730816398182
0.1056888885247255, 0.3004472008609888, 0.022887856912143442
0.10584935188265074, 0.31412974987969533, 0.02221803678441188
0.10607959463385928, 0.30697045771957343, 0.02125694068047728
0.10700956027823053, 0.33753576911519356, 0.017375002976516896
0.10513003182133861, 0.32190858645503967, 0.025220676875125227
0.10444991350280679, 0.31773082777498307, 0.028059679489711293
0.10619823326666261, 0.3246511254821767, 0.020761708047450967
0.10649244038149697, 0.329705401588006, 0.019533605505493688
0.10559779550472624, 0.32951533183436965, 0.023268100868829997
0.10602392208411549, 0.35295123628606256, 0.021489327741243545
0.10618529554016465, 0.31045267108061647, 0.020815715419169142
0.10707591022218739, 0.30597378521586716, 0.01709804376991943
0.10552046871718468, 0.4005152796347776, 0.023590882417995597
0.10430021514490015, 0.39109736697915987, 0.028684561447801724
0.10418694721127224, 0.394582666515087, 0.02915737342014428
0.10617759231277332, 0.39780724815780427, 0.020847865101870058
0.10492223310951193, 0.4028387845413862, 0.026088084834687632
0.10377296592365232, 0.3965367704558043, 0.030885446872561097
0.0978421589033518, 0.3055272309624877, 0.04614242158002356
0.10194839158720843, 0.36049198847708225, 0.03624276249687119
0.10152108035617313, 0.35062556725653704, 0.0372729611814909
0.1002951689317733, 0.3033683980631078, 0.04022849392940661
0.10306221889855635, 0.3594793213903567, 0.03355745177320014
0.10296794251655272, 0.3124342746047135, 0.033784741387132194
0.1011669779499933, 0.31432971516823943, 0.03812666173175095
0.10223599750560085, 0.36044439179053317, 0.03554937740119079
0.10318221224267511, 0.3624810359816818, 0.0332681614941341
0.0969459691289709, 0.30177825028305705, 0.04830303300252226
0.10088262551575633, 0.30271126486078187, 0.03881220304787693
0.10122004865353576, 0.3062994885775463, 0.037998714313077206
0.10089533090542598, 0.34656832359417483, 0.03878157180120095
0.10012535155904126, 0.3104428235191556, 0.04063790426386062
0.10088183210785606, 0.3178375539779379, 0.03881411586391327
0.0989615713739339, 0.32510028366203514, 0.04344364567388475
0.0952465219833883, 0.31617049068538183, 0.05125577456171177
0.09505767816921717, 0.3613524563872154, 0.05156425918246469
0.09605982945064234, 0.31473872846050793, 0.04992712824551115
0.0943070328440268, 0.3467487190887368, 0.05279054454645127
0.09491805045073795, 0.31972511920981583, 0.05179237553254547
0.09566616901542066, 0.3363113865625613, 0.05057021722119483
0.09642567010122105, 0.31917515390857343, 0.04932947678569154
0.09563088790121019, 0.3578537739651041, 0.050627845508830475
0.09140664763690347, 0.3228337631157411, 0.05752872192814509
0.09264759368343453, 0.334802645193589, 0.05550146555551011
0.09514871999733271, 0.34963380249544695, 0.051415534573506796
0.09599176850018282, 0.35760189537085024, 0.050038298731465966
0.09548925637499685, 0.3203915320951571, 0.050859233772764814
0.09056952329091658, 0.30164179825811016, 0.05889628486538975
0.09536932076911306, 0.3353517605833909, 0.05105515901827017
0.09493488261480189, 0.30623837666856285, 0.05176488303401214
0.09007442297858957, 0.3117061738677904, 0.05970509384056282
0.09712726167971857, 0.38352693951675515, 0.04786591379725966
0.09906502073801651, 0.3966549253527329, 0.0431942113424489
0.09848160788044891, 0.39324602922928775, 0.04460074909914025
0.09715459003105886, 0.38488474246493765, 0.04780002845124842
0.10157057607755379, 0.4006346542892662, 0.03715362080553143
0.09518203549534063, 0.40073826027651827, 0.051361107523196545
0.09133393726656075, 0.3992066398832631, 0.0576475114376521
0.08873930993879156, 0.3866124389421528, 0.0618862038200373
0.08810699177425035, 0.39950316709331607, 0.062919174884802
0.09094937913372377, 0.39394637241295205, 0.05827574401720234
0.09142513435879637, 0.3945077720354466, 0.05749853141166451
0.08093538657177889, 0.3248546427523991, 0.07142825011842968
0.08650951291528533, 0.3584589538012401, 0.06490824870799654
0.08283569206169386, 0.3051884384233885, 0.06920546918854087
0.0842428410352094, 0.3086134492010332, 0.06755953874878093
0.08568127193247126, 0.34729631138782674, 0.06587703174405941
0.08007054500447185, 0.315613816018689, 0.07243984533314941
0.08722277996131769, 0.35498096168095, 0.06407394416059226
0.08360347783375188, 0.33766308412607005, 0.06830740842945279
0.08735631544912927, 0.37239006550851617, 0.06391775543610671
0.08378824692789714, 0.32155769031292614, 0.06809127913940821
0.08098864940586759, 0.32492897657949993, 0.0713659490033666
0.08360359514338324, 0.33935134422336816, 0.06830727186782318
0.08329141732531187, 0.31224026178477016, 0.06867241344570202
0.08749895642904533, 0.36086852734454544, 0.06375090486758991
0.08351766059404923, 0.3356922767488858, 0.06840778745715864
0.08392774579783666, 0.34849524580551183, 0.06792811878528204
0.07735194641899021, 0.391465373497373, 0.07561976512434218
0.08616517198144336, 0.4018837632585245, 0.06531101605863207
0.08107251209612289, 0.390271624480372, 0.07126785359362461
0.087414360604562, 0.40221175198906306, 0.06384985158936758
0.07938898585254814, 0.3880648235944473, 0.07323705879183116
0.08670326333759226, 0.40040078399255835, 0.06468161553714775
0.07028216146884986, 0.33337109758503225, 0.0818360728289605
0.07003611466430817, 0.31206216958553196, 0.08204642460724514
0.07458456556548756, 0.3352108177102404, 0.07815783626615422
0.07218653826540483, 0.31096962264703815, 0.08020797184051023
0.0741650190352054, 0.3527867739109823, 0.07851651744830733
0.07512946338660655, 0.33389408638576346, 0.07769198902270269
0.07569624077290044, 0.3420762261859932, 0.07720743637297199
0.07345703739918352, 0.31661802589163224, 0.07912178926399896
0.07651146227848012, 0.3729805352421574, 0.07651048241856485
0.07163450849272975, 0.3219011371876697, 0.08067991637384635
0.07405070461627393, 0.3587202710615576, 0.0786142478022967
0.07141360791425792, 0.32733563946311334, 0.0808687699929462
0.07327158702162424, 0.3413805274381286, 0.07928033558926345
0.06819808852886367, 0.30916951519899866, 0.08361780069906062
0.07272444223759189, 0.33111480174529095, 0.07974810381943723
0.07374377465810461, 0.3582076423162472, 0.07887665016362794
0.07144646415415828, 0.3993909686871805, 0.08084067945891185
0.06617285527648747, 0.3873792345039473, 0.08534921796361179
0.06708095759935735, 0.40268079167865123, 0.08457286708858472
0.0645530446214203, 0.3788350843110678, 0.08673403108652757
0.0653604807700917, 0.39021297843277103, 0.08604373991191219
0.06520558906929794, 0.39486982744496957, 0.08617616377031662
0.05967065687584403, 0.3789683312743399, 0.08988394537275557
0.055901546613630566, 0.38500037436250173, 0.0921911427864874
0.05522304650821053, 0.38531633635261753, 0.09260647513866378
0.05227927275694764, 0.3840443363767203, 0.0944084561662615
0.05678066401612447, 0.3895726416967612, 0.09165300639473047
0.057101918662702006, 0.33727783666271566, 0.0914563594726746
0.05795089917490279, 0.35746956739585045, 0.09093666806476354
0.057956254058837024, 0.35434507941327154, 0.0909333905342272
0.05614930650242614, 0.3770937073680586, 0.09203948011405669
0.05824076605028923, 0.34451380567557727, 0.0907592325140299
0.05402791546814171, 0.3528853918068549, 0.09333805650453689
0.05966214392642895, 0.3486980232534918, 0.0898891596740352
0.05875981408808205, 0.35359799290489213, 0.09044150498888802
0.05695158237305471, 0.3530759229520705, 0.09154838340614382
0.05472142461818636, 0.3576122680698649, 0.09291353608753952
0.05347359783660042, 0.3771473987180557, 0.0936773697557227
0.0593287460304981, 0.3362960922548185, 0.09009324500937939
0.056875942285649295, 0.3612394270810707, 0.09159468423313669
0.05332648450365959, 0.36617595642945744, 0.09376742398767222
0.06075827897893793, 0.37412026064898524, 0.08921817618824425
0.055732727203650786, 0.36203358443255224, 0.09229448384885568
0.058345357695657435, 0.34244279416754225, 0.09069520875919838
0.043157958133006345, 0.38500053986097094, 0.09876086812807731
0.0406729568931011, 0.3840121626412231, 0.0997916053430705
0.04391455591547263, 0.3773594905186972, 0.09844704394213888
0.04230461618391828, 0.3847202032423613, 0.09911482018649698
0.034053357316813346, 0.38188771592844045, 0.10253730523330201
0.03633469941902169, 0.37850784035813334, 0.10159104244392544
0.03786840226406183, 0.3678376332762387, 0.10095488742308842
0.045588772100677605, 0.37131461094277424, 0.09775260653274415
0.04280271826357985, 0.36052204124559584, 0.0989082147108482
0.043534627587588796, 0.3770434594996235, 0.09860463188354615
0.044492729380988666, 0.33959170565769725, 0.09820722492410859
0.04656521620420402, 0.36590247277883947, 0.09734759342015567
0.049206147420897295, 0.3749514621641811, 0.09625217958798714
0.04901573231645515, 0.35808418789449825, 0.09633115959148356
0.04052162212391484, 0.35122582156476323, 0.0998543749184115
0.042754545445664205, 0.3350519686820229, 0.09892819445906095
0.0459016405467128, 0.3230347960918268, 0.09762283098935844
0.047008433803555225, 0.3652991213977119, 0.09716375408958439
0.042840007547199924, 0.3578902862493929, 0.09889274757701311
0.03559307383993389, 0.3708910321012597, 0.10189865602288607
0.0492328511101344, 0.3130448694522017, 0.09624109960801824
0.04503852051501106, 0.3246372514387134, 0.09798083893058118
0.018242999437731652, 0.39065198332918255, 0.10638681760964298
0.029581334009125895, 0.3983456214436657, 0.1036705851426061
0.021259481638090265, 0.39834006599352423, 0.10566418314494919
0.021791980912305053, 0.387132136621273, 0.10553661743475447
0.01960809452907355, 0.39186019707934067, 0.1060597928771768
0.0262548495388042, 0.3926469057358075, 0.10446748417341371
0.026409598089774243, 0.3674150631485895, 0.10443041240045878
0.022661201306569595, 0.3624528645582045, 0.10532838551672574
0.029650727821936132, 0.351009972434858, 0.10365396115099242
0.029678464524110493, 0.37380230238389595, 0.10364731649346894
0.02877763427019466, 0.35569001233712483, 0.1038631211153171
0.03290908283866721, 0.3574235851557381, 0.10287338337934662
0.029663014329694384, 0.34707309681722565, 0.10365101777164977
0.032092791412075786, 0.31888225919950275, 0.10306893571772305
0.03204553167653614, 0.33682284312489325, 0.10308025735053061
0.031854113582891155, 0.33686411934212024, 0.10312611383584999
0.02915637377117113, 0.36743865172276, 0.10377238955470189
0.028494827836995848, 0.3433350261550889, 0.10393087076638333
0.0283932550301356, 0.364665829040595, 0.10395520374263414
0.03272283183495547, 0.31118772285298696, 0.10291800202670014
0.027917981347545147, 0.35817882581381877, 0.10406906121678086
0.03293025040865303, 0.3678379397837598, 0.10286831243571837
-0.0028436034905562754, 0.37893316273139477, 0.10774050007419517
-0.009724655649584132, 0.3912879834631151, 0.10719556592882577
-0.0013214747308964258, 0.3774115961035526, 0.10786104264880973
-0.010102411954257496, 0.37997283453702546, 0.10716565038560258
-0.009956083843134407, 0.38347997786629184, 0.10717723852451554
-0.01607317682678306, 0.40117588942914395, 0.1066928047749642
0.0008490513823659646, 0.39851414492546594, 0.10793564479027506
0.010333677706541615, 0.3973040547331628, 0.10718452655389545
0.014918950238486996, 0.4017093791565428, 0.10682140390136827
0.011634616260169962, 0.4018455390687921, 0.10708150093729008
0.0010335374100608515, 0.39744605657766485, 0.10792103476381953
0.0010111586942618124, 0.3771208743611819, 0.10792280737527132
0.01127584784701469, 0.35123953570174754, 0.10710991349435514
0.011347644941460656, 0.34238312038080454, 0.10710422765059754
0.014930649306177692, 0.32441063880622445, 0.10682047796465666
0.01090906136661142, 0.37086797510025793, 0.10713896050017145
0.012142551650738877, 0.36777219439843534, 0.10704127642136346
0.01441010719302714, 0.3669217188176064, 0.10686170137554055
0.014730427575721891, 0.3757772453820756, 0.10683633417005088
0.013563309926877267, 0.3694704745454892, 0.10692876198553916
0.007758293251040915, 0.36188702818422663, 0.10738848000175773
0.010693661694542108, 0.3595050640393389, 0.10715601869577492
0.002080945733205494, 0.3717044157065492, 0.10783808748508279
0.013076313937199206, 0.34157071277302037, 0.10696732877057753
0.011531831418022172, 0.34080763123579, 0.10708964132874053
0.010433084164713672, 0.33419357147614936, 0.10717665467182345
0.010341611154188628, 0.3699636384901783, 0.10718389871491313
0.01461290465186726, 0.3569389163493273, 0.10684564118989798
-0.02341021247152437, 0.33253490427943627, 0.10503644787213362
-0.027745431348224516, 0.30760323559507896, 0.10399789747847155
-0.01680378151133127, 0.36915363445095617, 0.10661909268027848
-0.02101630571835721, 0.33184663948104076, 0.10560993555305911
-0.02847909597769256, 0.3160505680365004, 0.10382213950515495
-0.022340970327691535, 0.3128294656192183, 0.10529259759245813
-0.024098333655625442, 0.32098389907659275, 0.10487160093097234
-0.029090345590164338, 0.319080155675242, 0.10367570760234086
-0.019202380130595886, 0.33161688972975983, 0.10604448211885442
-0.017265027053589614, 0.3366218227462734, 0.10650859699522515
-0.01756378816985761, 0.31857873993629704, 0.1064370258867092
-0.02285091514503869, 0.30575487890657616, 0.10517043470180218
-0.02546023699130534, 0.3109338490946162, 0.10454534174855248
-0.02085338523377861, 0.32430640602905597, 0.10564896523182121
-0.027588053869512394, 0.31584692957753235, 0.10403559880882257
-0.02077560868142811, 0.30979602285446817, 0.10566759791302086
-0.004860663408032975, 0.3711095251108779, 0.10758076229506873
-0.005859726528298951, 0.37460280686091135, 0.1075016430976714
-0.005699748226244067, 0.3460719361080206, 0.10751431232207054
-0.006250997286405241, 0.35962145105474447, 0.10747065703911468
-0.002772301650016337, 0.3652853142019396, 0.10774614674657922
-0.006312872496579686, 0.33764793208702726, 0.10746575693133523
-0.007269269988004764, 0.33952367915413534, 0.1073900165698111
-0.007867571401787133, 0.3700846325439595, 0.10734263505136656
-0.002511654359872318, 0.3751679616250033, 0.10776678828962255
-0.005827881519164014, 0.3433168504007276, 0.10750416501196566
-0.00893513463901185, 0.3500282355045876, 0.1072580910973493
-0.005900118596543068, 0.3700051880618995, 0.10749844431277397
-0.0105359547412236, 0.37108130275086737, 0.107131316723343
-0.0008646099240704954, 0.37189065161409096, 0.10789722332540255
-0.013430283582401717, 0.36391974700847707, 0.10690210500461098
-0.004267776694023873, 0.37144253603636446, 0.10762771500507112
-0.0005578592027624315, 0.30874100866423243, 0.10792151595554636
-0.030910894983243196, 0.4006078875406682, 0.10323957780220255
-0.03176067373801689, 0.3803477200544269, 0.10303600193548573
-0.025270458767143178, 0.39568375463734384, 0.1045908052098333
-0.02798723929209991, 0.3993272842643756, 0.10393997122864819
-0.027922567378926753, 0.39695851618210626, 0.10395546384283375
-0.025852252950348667, 0.3926326863006817, 0.10445142975938633
-0.04645776355121653, 0.37949238945827635, 0.09719739143348297
-0.04120667754499342, 0.37970535191872545, 0.09937545254539645
-0.038838468134786995, 0.38469079647500537, 0.10035774491807709
-0.04264633079929065, 0.3804237927811983, 0.0987783087822027
-0.04057676244732803, 0.3889444293362809, 0.09963672949943275
-0.059970204194002175, 0.3857592239846337, 0.08941314376244305
-0.06263187140277798, 0.38498298745257203, 0.08778384797879088
-0.06158205761887546, 0.3943802275353269, 0.0884264805085771
-0.06014167487061213, 0.39159182042785495, 0.08930818488386025
-0.057855043020532446, 0.38215652845470827, 0.09070790194680671
-0.06148264996798282, 0.39399837233624524, 0.08848733098173253
-0.03765966260808531, 0.36089323450250765, 0.10084669362663864
-0.03573971305632932, 0.3493180862351687, 0.10164305557081252
-0.03452605125594656, 0.37239871908036, 0.10214646276529074
-0.04131398556821588, 0.365493479110824, 0.09933094281950658
-0.034562309309555395, 0.34779355586545174, 0.10213142255225907
-0.03427640242736698, 0.3104724093764313, 0.10225001036228407
-0.042143640976082114, 0.3556196983020968, 0.09898681547444853
-0.03374017321233573, 0.3505520975581985, 0.10247243072911746
-0.045946443118398135, 0.36646797829881, 0.09740947827985877
-0.04277063654685679, 0.3565136977568033, 0.09872674841484409
-0.038565466172546144, 0.3690900772354574, 0.10047098204828683
-0.038203736956858345, 0.37016322988877226, 0.10062102121592444
-0.03519025372451028, 0.3652580483088248, 0.10187096259445506
-0.039780649886215, 0.33630698681748666, 0.09996694319997886
-0.03756850805639675, 0.3623403444929597, 0.1008845030420289
-0.04620897217617353, 0.37176719368119343, 0.09730058590621346
-0.06980169791201074, 0.3804938211831552, 0.0818453770637241
-0.06867949859367438, 0.38305975377611007, 0.08280477207789075
-0.0762767215865598, 0.3935615994363722, 0.07630972459230512
-0.07419479244529752, 0.3854895997698304, 0.07808961556651847
-0.07540535548158175, 0.38517849334198295, 0.0770546762982722
-0.07525393501412678, 0.394940667336783, 0.07718412927435708
-0.05047430922474638, 0.3749053689016458, 0.09522589162812244
-0.05828875367495895, 0.3573367651541236, 0.09044240816414786
-0.05757001802842425, 0.37178616560585054, 0.09088237141912897
-0.059845692488212844, 0.3720186738846109, 0.08948935522419982
-0.052733050970589716, 0.3347739546888156, 0.09384323715686468
-0.0578374744456289, 0.365048941874474, 0.09071865186839538
-0.057314506952529085, 0.3633987355209876, 0.09103877757096823
-0.050116097384542674, 0.3145382580586448, 0.09544516002148777
-0.04901651624748249, 0.3561882334439462, 0.09611825376064356
-0.04969416119860896, 0.3064291344418987, 0.09570344055539852
-0.0547921690839661, 0.37084543264893255, 0.09258278530117231
-0.049356922994059166, 0.3059698520453891, 0.09590987526670211
-0.06059797176471969, 0.3765877491653734, 0.08902886037572191
-0.05611666862818604, 0.37595150089631446, 0.09177201539202179
-0.05161240026535996, 0.3427378701369426, 0.09452922548117246
-0.051283169159741085, 0.3537424773493592, 0.09473075973313944
-0.07109298860191693, 0.3675940592459415, 0.08074142259867043
-0.07015632340270375, 0.3645351259947941, 0.0815422003142256
-0.06950140436564851, 0.35820748926095797, 0.08210210677380679
-0.06557758276981002, 0.3433657735446517, 0.08545667685260311
-0.06551172492603932, 0.33755711029866714, 0.0855129807783883
-0.06896227217009518, 0.33386397802886975, 0.08256302578861219
-0.07168393058447461, 0.37362239371975925, 0.08023621167662594
-0.06438237209028308, 0.320649897082043, 0.08647849290662345
-0.06434660135354785, 0.3729362741018851, 0.08650906983135376
-0.07055232413049281, 0.3732801750620718, 0.08120364910421511
-0.06574418943777674, 0.3212604131565155, 0.08531424266264441
-0.07292422416658464, 0.37001072161779763, 0.07917585535358454
-0.06824380835074961, 0.35955266663982405, 0.08317725554793307
-0.06380525962340328, 0.34436285441009107, 0.08697187818060931
-0.06382418268925114, 0.3313685953694872, 0.08695570147623477
-0.06419494783141987, 0.30698896998511105, 0.08663872751642158
-0.06593594770739841, 0.32240693895479616, 0.08515030384053349
-0.08358686243199183, 0.30762800533296786, 0.06777756258577804
-0.08476811287616332, 0.30941694062875585, 0.06639585805218462
-0.08345774212431047, 0.31792171212933173, 0.06792859297104004
-0.08134648204325985, 0.3362075909383165, 0.07039812410452462
-0.0802085284188763, 0.33633015583161296, 0.0717291842894008
-0.08292180681486401, 0.3252364666409803, 0.06855547371598134
-0.08042449342556728, 0.31481510301719584, 0.07147657324913054
-0.08013816669702833, 0.3160089296440082, 0.07181148844251586
-0.07879666197850804, 0.3488676027570624, 0.07338063788723768
-0.08589579807828834, 0.3068941195204911, 0.06507680907546642
-0.08089786654542065, 0.3137259095887322, 0.07092287056303219
-0.07827036780473576, 0.3324987974268873, 0.0739962441162328
-0.07903828343146292, 0.34808184928242153, 0.07309801424517744
-0.07836567000574497, 0.35285778132550916, 0.07388476717144143
-0.08471511444397023, 0.30915195942075957, 0.0664578501548206
-0.08411326221113882, 0.30239223548816974, 0.06716183528008998
-0.08566843917286648, 0.39536711870587005, 0.06534276602673444
-0.08527908017820535, 0.38707197173690444, 0.06579819431931463
-0.07934948071079305, 0.3972388606065624, 0.07273401142862898
-0.08571700985132577, 0.3817611463570505, 0.06528594927153214
-0.08469344411068502, 0.40210863738018265, 0.06648321340279506
-0.08228470557087585, 0.39181475368089264, 0.06930069631362316
-0.09344121572095868, 0.3009933679107531, 0.05343780372829114
-0.08860898267922511, 0.3148450076751795, 0.06133193022117112
-0.087471288261341, 0.36347977798062236, 0.0631905214920955
-0.09064251777003074, 0.33005022776681703, 0.05800987116666352
-0.09057602474989962, 0.3488471664372112, 0.05811850039407707
-0.09415075439710185, 0.3090740445380873, 0.05227867532171913
-0.09158803083578367, 0.30304692738046174, 0.056465239019447375
-0.08747049316324347, 0.3490635963418299, 0.06319181760051104
-0.08815510135914939, 0.3398933702071223, 0.06207341325162258
-0.09384650476316722, 0.3200679535334329, 0.05277571148634719
-0.09128633023482909, 0.30857171351911167, 0.05695810992441795
-0.0875624094314481, 0.3632039419510517, 0.06304166235171393
-0.08885221083584881, 0.3510698436016567, 0.0609345902687536
-0.09199779130755345, 0.3294285694117736, 0.05579584349285561
-0.08774623585544784, 0.34084797203145145, 0.06274135202304522
-0.09065325787623449, 0.31301598197477415, 0.05799232240921989
-0.09457068637826466, 0.3888661185947734, 0.051592673214935464
-0.09415447339692036, 0.3888486372922609, 0.05227261549051221
-0.09070948737986194, 0.39634351106384363, 0.05790048106520724
-0.09525666778436187, 0.3872913313242444, 0.05047202684980511
-0.09402178094081776, 0.38650869707821744, 0.05248938790373551
-0.09390070367331423, 0.3999518352337329, 0.05268718069944744
-0.09972687976769919, 0.33071092743348235, 0.04046636011663897
-0.09760006688797124, 0.3575443502376661, 0.04559387913962643
-0.09990304675522607, 0.32756944226960727, 0.04004163987686338
-0.09677754146509424, 0.3269294203226729, 0.0475768814047282
-0.09755481508145232, 0.3009872692815, 0.04570295021186707
-0.09734806162308658, 0.3044475940612018, 0.046201411139945706
-0.09844342433955132, 0.3168461821502417, 0.043560620481322865
-0.09819232214355839, 0.33990584914498895, 0.04416601022028563
-0.09666832946651853, 0.37122366119132877, 0.04784019957311223
-0.0964815110081165, 0.3418704197667778, 0.04829058440479496
-0.09795203055457573, 0.33149200756949104, 0.0447453223630545
-0.09694128925773313, 0.35333870408850476, 0.047182116003606764
-0.09704543966599548, 0.3126242881856758, 0.0469310024025595
-0.09840976873063453, 0.3203253589729881, 0.04364176196621822
-0.10073487955602282, 0.31401956108906076, 0.03803617830983948
-0.09784130371148524, 0.31118514399375485, 0.045012263015951515
-0.09816727806750511, 0.3150516691600277, 0.04422637727001176
-0.10544733254252762, 0.306645733621496, 0.021935789239119756
-0.10427356145559782, 0.3340306841717546, 0.026835427961107817
-0.10341871011603111, 0.33269869276692504, 0.03040380919959969
-0.10650816966304846, 0.30186418578176893, 0.017507567508916893
-0.10399632629187988, 0.3195018138669064, 0.027992682691927773
-0.10459549012055339, 0.3247423688125466, 0.025491610439873774
-0.10642357464535318, 0.30234772462797577, 0.01786069004618378
-0.10406759963598108, 0.3039105281354966, 0.027695168431700713
-0.10309519372732007, 0.3295754063640077, 0.031754254310215356
-0.1043542130743734, 0.3360531683068398, 0.02649876623997321
-0.10552793283007797, 0.31961849068780107, 0.021599341788434912
-0.1049259399179599, 0.3197264078943097, 0.02411222340174099
-0.1043134578943912, 0.3424473098920464, 0.026668889409802415
-0.10334149188473081, 0.30191351823932305, 0.030726139030633384
-0.10456940160771877, 0.3389470232439875, 0.025600510964948
-0.10593119793397636, 0.3114433525724416, 0.0199160039210358
-0.10143741613832571, 0.38911521461838466, 0.03634244101535612
-0.09852436943575776, 0.3955076916090977, 0.04336548151468408
-0.10251569835037845, 0.3815359536482205, 0.03374281923851488
-0.10173869651263753, 0.3828892493378245, 0.03561608662200595
-0.10229217007553232, 0.39751587320328735, 0.034281721730399256
-0.10242382225619139, 0.38547437203879586, 0.033964322563479456
-0.10642161714038709, 0.37937897688415145, 0.017868876779691473
-0.10435041445112095, 0.39713613141489224, 0.026514631408843463
-0.10603358753796005, 0.4027302792447763, 0.01948862495525945
-0.10449081543800548, 0.40004654713664956, 0.02592856188458904
-0.1057958450345013, 0.3994040446515261, 0.02048102349071671
-0.10735720239402369, 0.30803056358478925, 0.008565454390808774
-0.10754369029508967, 0.31314395723912547, 0.0062106104865622324
-0.10710659237528805, 0.3161635129960949, 0.011729992582592753
-0.10704952596610881, 0.3035731405140285, 0.012450586447334502
-0.10729076772190645, 0.31322673613084295, 0.009404348320116619
-0.10750456776378887, 0.3072225685648494, 0.006704622465999583
-0.10724837664685719, 0.31129311471318416, 0.009939634162972591
-0.10714759456940531, 0.32689667271872236, 0.01121224652233107
-0.10679664371847011, 0.31897375587952115, 0.01564381841751497
-0.10686243155012723, 0.32672664117175, 0.014813095182888737
-0.10680226718352363, 0.3354505602249288, 0.015572812639385647
-0.10706066656375948, 0.30747637715321413, 0.01230991125077439
-0.10750916485784573, 0.3133608534911751, 0.006646574762502962
-0.10740009230433407, 0.3127060346636105, 0.008023870186468657
-0.10728401693057833, 0.3196717743443401, 0.009489594222820537
-0.10689909951446122, 0.32061510416331146, 0.014350075216119066
-0.10718833641871453, 0.30679187731638347, 0.010697781197314075
-0.10799920707165928, 0.3980567778097001, 0.0004586619642074661
-0.10762459689080844, 0.3995936470823458, 0.005188993144054709
-0.10767830481259139, 0.40049539420633584, 0.004510805037149131
-0.10764347337532362, 0.39386059649174526, 0.004950632123614862
-0.10747089049104358, 0.39693008558111154, 0.007129895861708415
-0.10802202619794354, 0.35691883029932714, -0.0007917642900318686
-0.10716280400841097, 0.31771562216874955, -0.011641461897566683
-0.10757005414214389, 0.347037893136174, -0.0064989710632331514
-0.10709668095786859, 0.3050665529823584, -0.012476422163734317
-0.10786005007191618, 0.34243436269108607, -0.0028370943044368642
-0.10786833818811128, 0.35585105608529466, -0.002732435352750707
-0.10774743877991763, 0.33176775916264967, -0.004259077136932796
-0.1076574773451681, 0.3458046574307723, -0.005395048664931101
-0.10719839092381739, 0.3268691867462704, -0.011192092363082001
-0.10793270224328863, 0.33030492108987186, -0.0019196924502265403
-0.10789316734005867, 0.30087463926162467, -0.002418917720730425
-0.107599474079468, 0.33605760484546776, -0.006127477189106815
-0.10771652640203674, 0.35645854484634054, -0.004649414438350156
-0.10803329217271057, 0.3119546388195981, -0.0006495119660461794
-0.10803601543689477, 0.35774125477369356, -0.0006151172727735144
-0.10785448752630822, 0.33138026823966027, -0.0029073361803183166
-0.10727027851247825, 0.3022092732203251, -0.010284347100687635
-0.10705770427719188, 0.39296773680346164, -0.01296871703413446
-0.10683465679409063, 0.39637334554371, -0.01578524470936163
-0.10678069403011028, 0.39927746833574557, -0.016466658442747906
-0.10707455814143688, 0.3992059056068955, -0.012755895197185133
-0.10672372648177568, 0.38616000671935713, -0.017186015031055022
-0.1053744917283313, 0.34383167687606747, -0.02286117554149357
-0.10648161826403423, 0.32891351455640494, -0.018239701985900178
-0.10436661748053283, 0.3242655182152747, -0.02706832190552686
-0.10636223765135572, 0.3513988621103433, -0.018738043801253858
-0.10546665786686757, 0.3432185286591398, -0.022476447180646335
-0.10575492572948048, 0.3203630786562821, -0.021273121121623443
-0.10449926541618748, 0.3294133736712754, -0.026514614127577645
-0.10363609846180247, 0.3155434493542651, -0.030117713791227286
-0.10611187479733987, 0.3126287505429399, -0.019783108498694406
-0.10448952279288745, 0.3040978389640208, -0.026555268292246394
-0.10412252887576115, 0.30949580327747633, -0.028087209685204406
-0.1054320400751367, 0.32380576121058224, -0.02262094081065828
-0.10650996215130892, 0.3182392751857601, -0.01812138038384986
-0.10387727370166937, 0.3077267222800475, -0.029110974431469115
-0.1067152140530233, 0.330190144860917, -0.017264606592686516
-0.1054148142831916, 0.34227679451705223, -0.022692856700005468
-0.10584233523265806, 0.34227529636181575, -0.02090826109688707
-0.10018778268918777, 0.3440025757639695, -0.03997645946347313
-0.10246801956994299, 0.32562094917533535, -0.03447906422722043
-0.10064289881222988, 0.3279760568981837, -0.03887923183090835
-0.09962081116773312, 0.3283803451657813, -0.0413433744193362
-0.09970541170488939, 0.32335395740115264, -0.04113941422146225
-0.10229415813426843, 0.3527910852501649, -0.034898211568203566
-0.10075056298025153, 0.3087030669859896, -0.038619674938879175
-0.10163513111887956, 0.3502013168320667, -0.03648705575587754
-0.10189630859825584, 0.3248554782870655, -0.0358573979496318
-0.10198393416650031, 0.3426720422484575, -0.03564613314273566
-0.10094817953696694, 0.3032237204359538, -0.03814324556791115
-0.10038347156867276, 0.34326879597798315, -0.0395046751068731
-0.0966565992081783, 0.30228858580680085, -0.04848978217030419
-0.10254489697401971, 0.3717398552716168, -0.034293697726726496
-0.10204654714511362, 0.3159051065376554, -0.03549519359802701
-0.09749441391038681, 0.3022480947462055, -0.046469901535948537
-0.10366638229002026, 0.3905187373005119, -0.02999124346030781
-0.10340151720218178, 0.38758553473796725, -0.031096858125494186
-0.10613498260215021, 0.40273032405082887, -0.019686669565751616
-0.10388501310385675, 0.40188289067602523, -0.029078625081879746
-0.1029143618513349, 0.3909771005603079, -0.03313037178925219
-0.10293574549747274, 0.3838841533290181, -0.033041108851309814
-0.09479455585286427, 0.3024426197630366, -0.051848270172144786
-0.09455773625351174, 0.32750845429384123, -0.052235145184289664
-0.09510214748506515, 0.34265285924743527, -0.051345772966902396
-0.09498697682863025, 0.3337898323199353, -0.05153392096017288
-0.09286221319029854, 0.30210921890534653, -0.055005018159573385
-0.09545853012223143, 0.31116336809839135, -0.05076357588312978
-0.09214152094581196, 0.3056794612490896, -0.056182367883511775
-0.09524115496712922, 0.3510917084870803, -0.05111868427612078
-0.09480701238412051, 0.3078822090806794, -0.051827920184955106
-0.09623637104996524, 0.3661591388160902, -0.049492860234949025
-0.09533656758786818, 0.31631657294618765, -0.05096281798609242
-0.09094698351710756, 0.309640086255755, -0.058133808958935725
-0.09595925837622049, 0.35750424357616317, -0.04994556280381779
-0.09337120630235589, 0.34655632776037343, -0.054173503479535444
-0.09327176203984577, 0.3182911722419305, -0.05433596212240076
-0.09154521652264373, 0.32906355262918846, -0.05715651104403193
-0.09172820119135033, 0.31998980570604185, -0.05685758125771875
-0.0964288661412831, 0.39702854759212236, -0.049038806520252144
-0.09639792947171627, 0.3801120508955905, -0.04911339890712528
-0.09702318639347687, 0.3903596804374725, -0.047605966378675604
-0.09924373930429149, 0.3955653229245531, -0.04225244674900605
-0.09947244169742804, 0.39069258477277674, -0.041701071675171675
-0.08047426687975578, 0.31513426437468095, -0.07203967144498871
-0.08628977447296599, 0.3537577163158533, -0.06523728826639004
-0.08385941498322423, 0.330014315112982, -0.06808007305275487
-0.0790634534796229, 0.31556836609526656, -0.07368989598470217
-0.08363919555232271, 0.31159708727925955, -0.06833766311318466
-0.08316831862322056, 0.30315604041818134, -0.06888844655734255
-0.07909209185863512, 0.30593613995347446, -0.07365639775182521
-0.086161916213647, 0.3435676867772557, -0.0653868437193744
-0.08546622322893735, 0.30815128682211834, -0.0662005938831921
-0.07767985206276397, 0.3014304704318715, -0.0753082907426963
-0.0831462718661271, 0.3093562046248845, -0.06891423458825671
-0.08254583718313092, 0.32526730681300675, -0.06961656137951205
-0.08736162764619428, 0.333787643727597, -0.06398354456841805
-0.08389152492485995, 0.32761501028916346, -0.06804251414266013
-0.0850195209137524, 0.3314624111141198, -0.06672310034818288
-0.08440651106953408, 0.35374294104472215, -0.06744013627080717
-0.08377885653748274, 0.3464200637159675, -0.06817430204436442
-0.09278875813306252, 0.3950894069913663, -0.05512500591779265
-0.09443700883570712, 0.40052097655490343, -0.05243235785752612
-0.08759122754739938, 0.37963665506568817, -0.06361589909757814
-0.08891777465439821, 0.3882619023671947, -0.06144879885683113
-0.09263176432047551, 0.3930899560425018, -0.055381477269061
-0.06374788099943018, 0.3880201887057373, -0.08764226433605814
-0.06829048032961771, 0.3828050112207263, -0.08375868385446764
-0.06579368310950381, 0.3843679166126647, -0.08589325753039945
-0.06518593284540443, 0.39046191614965986, -0.08641283825759523
-0.06992430794494314, 0.3861340084453998, -0.0823618842302975
-0.06344947337053847, 0.399611010335982, -0.08789738039602411
-0.08645241815606033, 0.40196006573265736, -0.06504704439923767
-0.07836742800935306, 0.4011816794095745, -0.07450403505596184
-0.0781085736583771, 0.38732336192189154, -0.07480681627575456
-0.07693744444126421, 0.38580113805486216, -0.07617668288821591
-0.07918798990285911, 0.39300903384584857, -0.07354422607421425
-0.05823171522604065, 0.3800099683941827, -0.09109863669286272
-0.053537068718771647, 0.3881529967694242, -0.09397236384223623
-0.05555547833142405, 0.3789400753830673, -0.0927368376969866
-0.05078774583592092, 0.3925742116996262, -0.09565530286620931
-0.05517709536057115, 0.38169874766661394, -0.09296845671548287
-0.056250143188818276, 0.3773095633762375, -0.0923116135065564
-0.07248388603485241, 0.3610739698368773, -0.08017363763654214
-0.07618385254611702, 0.307113768523085, -0.07701044478565681
-0.07069767785367402, 0.3637048254776725, -0.08170071117401728
-0.07011456247703719, 0.3434977763461667, -0.08219923092683215
-0.0718469632976612, 0.35554702145994044, -0.08071815863226352
-0.07215338601775106, 0.3348978954177233, -0.08045619027266186
-0.07317798486168842, 0.3608352071290358, -0.07958023538812417
-0.07006325808662969, 0.3556215745946982, -0.082243092318675
-0.07628278270847792, 0.32095306356228326, -0.07692586694384008
-0.0696011150380676, 0.34111831023173356, -0.0826381898372194
-0.07413077008892106, 0.3582050639249007, -0.07876567574007445
-0.07091593302667494, 0.3358473466413646, -0.08151411943033438
-0.07209570114146074, 0.37306115781570404, -0.08050550649964125
-0.07133748842171804, 0.3698279385349844, -0.0811537213002992
-0.07037512942362695, 0.33621907935896395, -0.08197646580176403
-0.06868761763348993, 0.359862827888386, -0.08341916135430341
-0.03658002750272141, 0.38992600174386893, -0.10191578989944186
-0.039417192487887394, 0.3888175091728538, -0.10073897717456758
-0.04426834416402477, 0.38292190594772774, -0.09872679351495584
-0.034629825018862755, 0.38955964116701614, -0.10272470411877198
-0.03354487565250502, 0.39494437976175656, -0.10317472455355448
-0.03893346228645916, 0.3873700377973384, -0.10093962107769733
-0.055487885243318026, 0.3582397570534056, -0.09277820781647704
-0.06016309106307624, 0.36032579411240495, -0.08991638147352582
-0.060227833489057324, 0.3327836950987308, -0.08987674277725696
-0.06262351014536126, 0.3515478262143753, -0.08841028616089747
-0.05894316909029599, 0.3291647631877733, -0.09066312147784054
-0.06329475256432046, 0.36923049045996675, -0.08799940465570008
-0.06310257853878001, 0.36795600486859426, -0.088117039492285
-0.05887969223239155, 0.3662908525391793, -0.09070198827072334
-0.06239716526907321, 0.31058923342905415, -0.08854882641084678
-0.05789318517868154, 0.3429217288447701, -0.09130585060540734
-0.061846154024407324, 0.3670373774989561, -0.0888861325386763
-0.06072446712476805, 0.3677642068226883, -0.08957274932310232
-0.060972847670300714, 0.3585455491052787, -0.08942070581971351
-0.05296145226501863, 0.37154785101849286, -0.09432471343674517
-0.06071011793729131, 0.36871078051430245, -0.08958153314565348
