0.016374194304635575, 0.0021074895485803254, 0.10409441947020226
0.004983060762547882, 0.0032690186265800806, 0.10567085224708206
-0.0021041856762446555, 0.0009132957922925891, 0.10336817550609437
-0.005362791689177382, 0.0005289824776982073, 0.09916344128234686
-0.0049733137196222655, 0.0006164813419429094, 0.10070098956219818
-0.00023115621048998159, 0.00031065897272474885, 0.09356834407941957
-0.009326081504203554, 0.00046235372499246237, 0.09757492369522937
-0.007854581439616952, 0.0002690012464713389, 0.09088239005736581
-0.025579215184009622, 0.0004715244119968061, 0.09488523084012385
-0.022044062362382953, 0.00041403457887300864, 0.09441357752633446
-0.01349377777672397, 0.000632229659256323, 0.10003023803331221
-0.02817910743231643, 0.0008278026436087237, 0.09896969681509314
0.004434143569270721, 0.004126787528256198, 0.10585696775248261
0.0025644621624927354, 0.002198802318576303, 0.10535426665019967
-0.014826591834814665, 0.0020219473569743815, 0.10420903662781356
-0.017701091041545977, 0.0033063282516704803, 0.10434136331651206
-0.022958735560944216, 0.006614582794609117, 0.10374521223694508
-0.03448058772176026, 0.0010634116509586093, 0.09828637383344187
-0.028338718701374166, 0.0006554385479125142, 0.09740230041389275
-0.024183180571450455, 0.00040755584621950726, 0.093773605814075
-0.03438188774801616, 0.0006908482087077865, 0.09610505764840044
-0.031997625808580066, 0.0003897809638413092, 0.09095112881863716
-0.04699543104591783, 0.0004992566720673464, 0.08651588869335215
-0.03753027965230504, 0.000321828148796932, 0.08529325542124488
-0.04261232938000345, 0.0003341577309670607, 0.08293391081612433
-0.04695289634626893, 0.0010740790841309994, 0.09308863331866428
-0.04578666282539158, 0.0005129695511677267, 0.08743728909802477
-0.060387090884385514, 0.0011879973984626898, 0.08521811596103733
-0.04054049750735852, 0.006865216988305031, 0.09829751488873491
-0.037690669632728616, 0.00212860094321404, 0.09835024315614567
-0.05363560862735001, 0.0021184998560883524, 0.09065941960783641
-0.05168277259557462, 0.0036197837011361553, 0.0923752732992213
-0.05584029450156619, 0.0009357126243127453, 0.08712261642054257
-0.06341239861261283, 0.0007062278771936563, 0.08024154670849032
-0.0624979815764888, 0.0005670761406438926, 0.07805658509458874
-0.05064371475796478, 0.00037233229945470996, 0.08086884633593769
-0.0646576975058588, 0.00043045172154500787, 0.0728711473481258
-0.055518330601601024, 0.00031710164582508826, 0.07559332739570139
-0.06359054115225735, 0.000359445394109653, 0.07004362224999833
-0.07640327238177885, 0.0004776054248085957, 0.06195505154840113
-0.06897261661940435, 0.00041643768535185575, 0.06764853195135094
-0.06616418738737768, 0.0006252953036740694, 0.07617990201218836
-0.07204837692693233, 0.0006479224659398236, 0.07103278713710942
-0.05619319286728906, 0.006925521540281543, 0.09024977742439362
-0.0637952823058752, 0.0025946341586209, 0.08409320541257828
-0.06794515113498892, 0.004502679428757946, 0.08143994369797224
-0.07397855400646175, 0.005965861434933094, 0.07619981148604155
-0.07906506585907193, 0.005823970321383895, 0.070861413431695
-0.08570484558444802, 0.0012395036794611266, 0.05976950004870857
-0.07654613996659412, 0.0005898851276583525, 0.06483600561635391
-0.07417182387047089, 0.00040257047479627005, 0.0619197212060591
-0.08531988161891807, 0.0006766541531915533, 0.055559516486970044
-0.08062523691423545, 0.0003950743027236923, 0.05294952594471941
-0.09243681184167014, 0.0005755142791395215, 0.03833449119625331
-0.08352927395345182, 0.0003818322944439079, 0.046048459714595515
-0.08088957310937306, 0.0002680812017291966, 0.0407149447269537
-0.09510929640597549, 0.0012775227786841871, 0.04332233897097709
-0.09373444489061493, 0.0008880467500558011, 0.043128464999507544
-0.09055883811420577, 0.000666207396062709, 0.04589021759615412
-0.08389943031361927, 0.006017793715938196, 0.06508180909214281
-0.08435485001473635, 0.004435956879702463, 0.06422931673534682
-0.08639156721849212, 0.0024201368925450763, 0.06053734520991787
-0.0956290644418378, 0.003693805232394378, 0.0454293512883087
-0.09796711393689633, 0.005600221941552443, 0.04101722951086796
-0.1031867557534507, 0.0012784673880338467, 0.016948632224915036
-0.09400168831603928, 0.0004651452612039328, 0.02905863706588513
-0.08454268265732512, 0.00026387157211942285, 0.03401196867537979
-0.09689211849077245, 0.0006314473365342181, 0.028872161065641368
-0.0920480798111285, 0.00037926146254410446, 0.027235495232445495
-0.09888254882716305, 0.0005571807417815602, 0.011297622541178833
-0.09179973373617145, 0.00034310275977612176, 0.020610452218429026
-0.09434316350287565, 0.00037654190637965957, 0.011929446858526357
-0.10136222040712194, 0.0007063887876771561, 0.013170124021311107
-0.10093279195940418, 0.0006754641601209126, 0.012144871680234526
-0.10175017562831584, 0.0008105753308313367, 0.014554351104067845
-0.10401145695238956, 0.003173933941432151, 0.01923132955388507
-0.1006598265126981, 0.001870459468217777, 0.03032285146007424
-0.10419976464354488, 0.00296338370332811, 0.017854978955094174
-0.10526805881653145, 0.0022054442524752243, 0.004842555551763321
-0.10314116992956138, 0.0008914857751998929, 0.004260279728911993
-0.09945759406030524, 0.0005288882276300608, -0.0005576839889048705
-0.10200641623225042, 0.0006994412880228271, 0.006164030300182151
-0.09046050903684591, 0.00024784803735808814, -0.004978211561921676
-0.08983734834715912, 0.00027078828766214134, -0.012677837602996525
-0.09880954091540672, 0.0005173886933838333, -0.006797421449008943
-0.08884055319773579, 0.0002559062549482809, -0.015193772091768235
-0.09912750229323095, 0.0005944991658010451, -0.014559672569626272
-0.08883195386059548, 0.0002778327424979054, -0.02304412425688146
-0.10314014055603524, 0.0010515694013487347, -0.013995108139008089
-0.10061876846456116, 0.0007482805950563581, -0.019241320425073302
-0.10216186090882391, 0.0015462478180301499, -0.023754657916758737
-0.10530598163753155, 0.0056697430602522785, -0.01335521647000635
-0.10548652942311543, 0.0025139157682866633, 0.0024754959639168663
-0.10412570318674669, 0.002082174971897075, -0.015938590989354073
-0.10557366656177371, 0.004621060946223448, -0.010214890366024972
-0.09659820497077307, 0.0011000070816143733, -0.03949643931264867
-0.10003751693034456, 0.0010900072445189277, -0.02947700956554531
-0.09861107283912186, 0.0006886793475284992, -0.026131693465027986
-0.08464346932139588, 0.00022685871108005291, -0.03057229733502454
-0.09160280889346731, 0.0004956814738107232, -0.036648944606696154
-0.0878506024691467, 0.00047366416642330417, -0.043386398805632845
-0.08109078705678699, 0.00028592581322183484, -0.04197519133841538
-0.07823144525468648, 0.0002859438190207927, -0.048400764003437485
-0.08798844588155755, 0.0006402870473252898, -0.04976257477351918
-0.094857965645815, 0.001006376683702724, -0.042229120132049935
-0.08753867519378493, 0.0007418823416586651, -0.053325999204277594
-0.1022800412204703, 0.0060434411082463035, -0.028519504788320837
-0.09495855984255985, 0.005847514638073359, -0.047592917357085165
-0.0967159576607523, 0.0027075773448346054, -0.04238886973646825
-0.09507652691257543, 0.004024294656324293, -0.0467784280288186
-0.09416270903878755, 0.003445086672982456, -0.04842123528783833
-0.0784002835727452, 0.0009637395805027912, -0.06781826193228023
-0.08380596226158199, 0.0007753745255145526, -0.059357884372095444
-0.06995668115403902, 0.00025534751401804813, -0.057919059702666136
-0.0681505751132305, 0.00028430314560529715, -0.06120143993597942
-0.0736457996437197, 0.0005027099626834362, -0.06564702332935335
-0.06449247059610111, 0.0003244210477196777, -0.06696316070354762
-0.07221946953335569, 0.0006968499045961006, -0.07215462635815546
-0.060732825978246155, 0.00033992616448782565, -0.07192802640447148
-0.0674687493546552, 0.0005474653498165818, -0.07307314588557288
-0.0640997206357747, 0.0005669858390076895, -0.07667319438342549
-0.06220667132894436, 0.0011060547040072737, -0.08378211438004887
-0.08353693602758047, 0.006308388582858163, -0.06558328227419
-0.08072422996932556, 0.0017098692958295802, -0.06717488560790524
-0.07174190223228123, 0.002570496462577684, -0.07738318266693989
-0.0770674254215062, 0.003878738414164252, -0.07263905044685111
-0.059195277149866214, 0.0013776971730510503, -0.08628768019421573
-0.058959482982444356, 0.0006042293751560946, -0.0816622200395366
-0.06044115888105402, 0.0006304134606754234, -0.08107373022518424
-0.0560951550252472, 0.00038619429613198755, -0.07840207046986601
-0.04579894607708291, 0.00023721153929189603, -0.07730346962808729
-0.050755927418388774, 0.000463528463295781, -0.08392750401838997
-0.03856147137130225, 0.0003115267288984169, -0.08425089031292074
-0.04216452566817931, 0.0005769890096743927, -0.09065235108010544
-0.03444233615391851, 0.0002862396945167505, -0.08535073389014503
-0.050352200383416035, 0.0009083703321932667, -0.09018523383352683
-0.034364627643184396, 0.0004269030880999032, -0.09130831876609484
-0.0598486626472096, 0.004922031308010147, -0.08759356722434414
-0.057727130205172277, 0.0036294828075016713, -0.08873736966461955
-0.05055708751309729, 0.0020282523767798603, -0.09230010522285526
-0.0546812942953122, 0.004492785948895968, -0.09088832940797732
-0.04500605913645898, 0.0044830582108698535, -0.09599074039221948
-0.020748354831743754, 0.0008010449668185795, -0.10060884617767879
-0.02830420088379925, 0.00029916880399894266, -0.08867527111453616
-0.034010316298275556, 0.0006848409512744938, -0.0961406883403145
-0.021015970957846648, 0.0003747294085140402, -0.0929554059699813
-0.019457422476271705, 0.00044082516093417484, -0.09554954913019388
-0.011527146877627986, 0.00024227831684398054, -0.08895812813603382
-0.021643873099274454, 0.000636327287833856, -0.09864138635541006
-0.004497588795132666, 0.0002732973232181248, -0.0915759647749966
-0.013565306470252225, 0.00045504399216598134, -0.09674408730814027
-0.002393492245031395, 0.000466852626859295, -0.09832830798737482
-0.004302918672763297, 0.0013468206943785042, -0.10450685962281196
-0.028826300565870547, 0.004037653658271616, -0.1019349871274773
-0.01750176337048518, 0.004103113725416406, -0.10453656803379598
-0.001506949698028372, 0.002836716293815994, -0.10565543467941266
-0.0006384971127442096, 0.003121668391760206, -0.10580505459369483
-0.013570012765860163, 0.004208678357386268, -0.10509645014532665
-0.00288246461179277, 0.0009517556462590684, -0.1035360336468008
0.007831195673841688, 0.0006492506901440554, -0.10105409110180844
0.0007303858682140409, 0.0005950624929856314, -0.10055884869880236
0.00033175608283733595, 0.00023807915583965174, -0.0907633872348439
0.011226475337869343, 0.0003804493347788815, -0.09470464564292075
0.02224149995950545, 0.0004719089738477856, -0.09566576396406283
0.014949375298871286, 0.00036479332454294653, -0.09329145183784512
0.023008173701810037, 0.0010089698434769562, -0.10129950022904588
0.02839694947352299, 0.0008536006060932349, -0.0990480174746787
0.020939954089376864, 0.0010413545201716351, -0.10188744881524778
0.0027771121478746483, 0.0031914542035817936, -0.10574335571173032
0.022810944696194282, 0.0016089305751419048, -0.10241798619042779
0.015075137690080396, 0.005229814106967054, -0.10506250908842057
0.02735720844530408, 0.003958187666518589, -0.10233302057157834
0.02708775751048619, 0.0005699356294286773, -0.096202647068224
0.02848722961482241, 0.0004113467561609005, -0.09303259755098273
0.034989461059174935, 0.00048258945593663736, -0.09209528718870488
0.045159902416723484, 0.0007525541078060912, -0.09199351208908091
0.03468467839783393, 0.0003780972557170671, -0.08925455025965778
0.0512761871764926, 0.000597423842738857, -0.08626232615326165
0.041655327433692824, 0.00026901618618634636, -0.08045815218677584
0.05721659680717502, 0.00046293522748241977, -0.08000315056429716
0.03876585192359151, 0.0004798650887570305, -0.0903975686619711
0.050207260671017245, 0.0006411372030852263, -0.08769443928107726
0.048012872050034586, 0.0010688299243649165, -0.0924977905803723
0.046636182302562196, 0.003263182019775966, -0.094981643233543
0.039640378889054695, 0.0026352768309759597, -0.09787950556915415
0.057569163977542304, 0.0016692637074600088, -0.08775558525896394
0.0512618452080483, 0.004715552994013051, -0.09285138834934453
0.054984754793957785, 0.0009135691862387307, -0.08755266587867214
0.05312442378003837, 0.0005420161586398671, -0.0840890465050952
0.05241469376564901, 0.00042128300961852283, -0.08208617218306845
0.05794291455035895, 0.0004485939619037531, -0.07923944384444534
0.06514155564692752, 0.0004525069260472511, -0.07295575218412806
0.06185936264917549, 0.000407337611237136, -0.07450831557413069
0.06459381631138854, 0.00038218827189725216, -0.07028285149513314
0.07030988123898495, 0.0003882362208515749, -0.06482103386152863
0.07864837441925929, 0.0005235706299805151, -0.06050461949510036
0.06781281181529583, 0.0006949095804162487, -0.07628503899900843
0.07200336816041149, 0.0005623022197933024, -0.06880043511314293
0.0643248519783842, 0.0033319951166474234, -0.08401027563363297
0.0599888405429484, 0.002775351601913241, -0.08693043631230875
0.07058940367979608, 0.0018309574500923692, -0.07784225190937293
0.06961992518888506, 0.004695568601986071, -0.08007236055510593
0.07967234003442894, 0.00627987450357778, -0.07026477490356761
0.08484534012328748, 0.0010462808368227965, -0.060319045925367853
0.07449008896941983, 0.00044875613574740103, -0.06348192096442841
0.07351760346535474, 0.00037484822094347386, -0.06100992295630099
0.08286023206221985, 0.0006720661676875377, -0.05918711278065082
0.08016136875302723, 0.00037052530988136066, -0.051869478553090195
0.07872130512327258, 0.0002838100137961619, -0.04720242990820227
0.08965005446590676, 0.0005013965657376007, -0.0409416324375056
0.08482979498350027, 0.00027440037798115706, -0.034388048461872635
0.08709081621382868, 0.00039337136446991085, -0.04000667618594799
0.0961060705995579, 0.0006494750921205325, -0.032364822769349856
0.08902300372523839, 0.0006813222108015982, -0.049354292279879045
0.09531180173879593, 0.0006372561926243984, -0.03382015090277064
0.09682534394102876, 0.0007501864934553228, -0.03372707445589662
0.09693562760337054, 0.0015001566257018453, -0.03996888033529678
0.09378795363672884, 0.005398239132666901, -0.04971464432369384
0.08718902148325312, 0.002039071629392506, -0.058949878512705806
0.09618301969957282, 0.0021720905978150637, -0.04299949313751824
0.09488100511415393, 0.003970424127273914, -0.04717774816666829
0.09813295997831922, 0.005837032124462571, -0.04070820080492155
0.057228672541246195, 1.9157602139683278e-05, -0.018617134494809073
0.04680508264028026, 3.829530488806157e-06, -0.02139634346287492
0.04733339428937074, 5.579751260309224e-06, -0.019822636896539025
0.029422026752824102, 1.3734684492859762e-09, -0.020593457898632456
0.03125432051670635, 1.218310436412609e-09, -0.021930428002408183
0.01827569161900019, 2.3217075857627454e-09, -0.01286779801029883
0.016723382697872123, 2.425218181690001e-09, -0.009130714834368106
0.011924496873270999, 2.855491949435172e-09, -0.00785759832738585
0.06022513332238091, 3.6227974830508854e-05, -0.029338932991033635
0.0748202752835759, 8.81614941701454e-05, -0.024480486315121053
0.06433910553834413, 4.14643160494756e-05, -0.02431006827189671
0.07478402927687651, 0.0001621851381166032, -0.03711229998900424
0.06373454812714528, 5.254550385589229e-05, -0.03195203885049608
0.08190047411850902, 0.00017467723198600946, -0.027197160852496412
0.04601325967293766, 3.846803597498545e-06, -0.023500804611904208
0.05228799961064949, 1.7401750915717524e-05, -0.028583942670457073
0.062135312556165403, 3.7326631459113976e-05, -0.028241890040366594
0.0562947655411113, 2.4425274358412746e-05, -0.03347457561527935
0.0487365637207183, 1.9136737294938008e-05, -0.03522819136999019
0.07787697928100785, 0.0001658996784874845, -0.03281552267024378
0.06749301813803439, 9.353743600116652e-05, -0.03800238491139736
0.08448744399431415, 0.00031545517726252244, -0.03825438681322694
0.0686404023418786, 0.00011232178028025894, -0.04136563416612379
0.06462197233906095, 8.620803513983959e-05, -0.04132254483153149
0.06236118432647483, 7.86257967655442e-05, -0.043240770079484195
0.07646285988772723, 0.00019501740849456914, -0.03906075031747863
0.06953060894395711, 0.00016152198649385395, -0.04879900807426732
0.08058627271174307, 0.00029702758866398675, -0.04430518253181767
0.035506999933922256, 1.0645107899305123e-06, -0.032085598936231426
0.0380444045593968, 5.48244999124304e-06, -0.028960516800322352
0.04714710897866869, 1.1848480663555598e-05, -0.028332905275680005
0.04115333686681371, 4.12141153431475e-06, -0.025263485882336623
0.0465550077575099, 8.06889632888764e-06, -0.026493590893794758
0.028221899843920012, 8.240357153436916e-10, -0.032652853733359126
0.05979160527261584, 4.7387719346179817e-05, -0.03608944727817635
0.059363593780559304, 5.4418262551874745e-05, -0.03799977913026121
0.036167882337934665, 1.30327185443339e-06, -0.0355824314641063
0.052303288762095, 3.5862042320552556e-05, -0.04305535197309065
0.05097161893604928, 3.0902191381979807e-05, -0.043388274917520654
0.07047754385915711, 0.0001526073897169258, -0.045037988913229854
0.05755501301226443, 6.803878024182486e-05, -0.04670974493582201
0.06414623972103489, 0.00020489535377798152, -0.0590254571612353
0.0652257688351299, 0.00020097424363527098, -0.057831543800670134
0.05681570560107489, 9.496254220940186e-05, -0.0531643623662057
0.06517971363144935, 0.00013671784561259507, -0.050963479055112844
0.06862777469755593, 0.00022033606497843188, -0.05691983930661206
0.07809398727472673, 0.0003175217445597642, -0.05134604126017461
0.056453823725464605, 7.89545121280682e-05, -0.05041531068465166
0.044602525694166055, 1.839385501797803e-05, -0.042609247332756804
0.04214787814356723, 1.3023347994793364e-05, -0.04022781792433215
0.03805654869067883, 2.1835632071975675e-05, -0.04993188668500659
0.03330533051713435, 1.5598705052697556e-05, -0.045834916734277864
0.054274024229839624, 9.34582608157029e-05, -0.05466846725599197
0.05717792226031876, 0.00011929934994251069, -0.056232513229235254
0.04964273505793755, 7.814117220143478e-05, -0.05652633323729815
0.052051224327248444, 0.0001065759988032753, -0.060395626465093145
0.06389650825127688, 0.00024295198156193897, -0.06278015312812323
0.039950590142200315, 3.773867843811685e-05, -0.053401786337713426
0.05490213559674321, 0.00011957256380894487, -0.05864931759907002
0.06526682509338759, 0.0003567396652216543, -0.06807006529442293
0.05004374501432798, 0.00014119696479735129, -0.06647317981679876
0.02333807029679262, 2.1057957929545855e-05, -0.05856628224894422
0.021119751686973835, 1.6719157832874595e-05, -0.056132227425334524
0.034267595479595875, 1.7469098538615295e-05, -0.04813354550862602
0.034706838141804974, 1.816064684964382e-05, -0.04841193340909883
0.025356647205937246, 3.938217185203165e-06, -0.044879221796070304
0.004060290742182124, 3.4850870156297897e-09, -0.003872307973663535
0.02506888484024241, 1.1817902313219478e-09, -0.02980727188566017
0.008109600623944897, 2.9880584531442744e-09, -0.009952951519811055
0.0013690877726942434, 3.724651924918242e-09, -0.0016809316364052463
0.024274772912324712, 1.17243545519004e-09, -0.030792043774991094
0.01786697649578209, 2.073429159384659e-09, -0.018836661591314204
0.027968526378043194, 1.3052257887334807e-09, -0.024391886701912655
0.022060418634162235, 6.644180895350797e-10, -0.038904237932134295
0.02143237555428954, 6.23426196716021e-10, -0.039695263496027734
0.03702495046618863, 1.6210359245597767e-05, -0.043908617131254
0.03944890584871144, 1.4899968302135948e-05, -0.043656212989189515
0.04315120915359459, 4.285248362881092e-05, -0.05293457012282673
0.04553751148654169, 6.345059499064578e-05, -0.05584697088504629
0.033229202669308885, 2.3018061300270556e-05, -0.055412393498903215
0.032112056626284025, 3.627707049940055e-05, -0.060100023204300565
0.04190623309660663, 5.7101762550248864e-05, -0.057991831880422326
0.037315539165020395, 5.787807454766214e-05, -0.06141778330641867
0.04069566034669868, 8.912351136409344e-05, -0.06593839294139682
0.05178171177103084, 0.00012668229322129157, -0.0629991780488648
0.04207115856757973, 0.00023818424304070584, -0.07885805012815825
0.03623775089572128, 7.947506544528051e-05, -0.06623785462055636
0.04798398267951963, 0.00014394331612912283, -0.06840169505621026
0.06091574995793987, 0.0003519729992548127, -0.07241401793560026
0.047863440011455864, 0.00016883745948739745, -0.07079758716241051
0.03427523533578348, 3.480979782460514e-05, -0.05838993194667758
0.03142908318444198, 6.057785904680026e-05, -0.06468337670475086
0.02945394496083875, 2.2105917072454952e-05, -0.05685684654683415
0.03138844422582399, 2.2273483347740326e-05, -0.05599094667283712
0.03809193756258674, 0.00011576874359369024, -0.07037989264220572
0.028044107839143587, 5.78695841606872e-05, -0.06608576741833432
0.04872972137211914, 0.0003792101078761901, -0.0820949702260079
0.03274303006783738, 0.0001635917421513112, -0.07765957407714166
0.02373571668551597, 5.6013594799153745e-05, -0.06641828093270125
0.033779765859038, 0.000125205161070401, -0.07342513819417333
0.03835292457911631, 0.0002695839489506555, -0.08239269174402247
0.027616042988285832, 0.00017582627701901335, -0.08170952376585691
0.0038521553659972224, 1.7564423930145047e-05, -0.060577291199296494
0.005680403845627997, 2.3508369413900148e-05, -0.0646847292265417
0.013071569796034696, 8.747232521578358e-06, -0.0522522110291022
0.01232725713870232, 4.317513297662312e-06, -0.04688358398935579
0.012740033474572036, 4.200886065875197e-06, -0.04586426551482829
0.007990952646226129, 4.83119690038703e-10, -0.04584974227669372
0.009117131617213663, 1.9575612168954254e-09, -0.026356860916990427
0.012311531499585771, 1.664572822326687e-09, -0.029468167058544905
0.01819410766077564, 1.7246172124259563e-09, -0.02549966344600762
0.013284203648131867, 2.0219193438043235e-09, -0.0231926765304528
0.01955854075137999, 1.1866759297866715e-09, -0.033505365563890055
0.01152636001585966, 1.79942320280973e-09, -0.027687098028771128
0.015627178056521696, 1.968817854316583e-09, -0.022857761711099236
0.021070509939928695, 1.169603096421743e-09, -0.033011124013009
0.016775695867827813, 2.05310078311014e-05, -0.06018497300888438
0.011492443307255799, 1.0853652924172418e-05, -0.05553415394053723
0.018794055637928353, 1.1462375022640993e-05, -0.051354025485306536
0.01928832538427507, 5.504441726172746e-06, -0.046993565978787066
0.029318457959695326, 8.369342853374049e-05, -0.07053616132436288
0.023766596017858046, 5.209032370228587e-05, -0.065327621926521
0.018981672123541755, 3.1440789231569554e-05, -0.06316459575365732
0.017991710482153766, 4.806838388841591e-05, -0.06818862277933092
0.03089335867986933, 0.00015885070278184098, -0.0782487097556009
0.01870723091762794, 6.889551185682991e-05, -0.07177933343836336
0.026822484129692504, 0.00033373636608094047, -0.09026880507429288
0.015099455372294892, 0.00023349630704081123, -0.0876586214877919
0.016074386363260054, 9.80854106800415e-05, -0.07685674967846746
0.023847455357972357, 0.00011581880396142656, -0.07758212696950029
0.032666083904745, 0.0003048066259595982, -0.08704704162010776
0.02001730534605919, 0.00014218417249435878, -0.08032439326162329
0.012350346743707632, 5.245502342747328e-05, -0.07012272616899189
0.010632623631472665, 1.48727851847915e-05, -0.058482722547426105
0.008205836359023198, 9.901474737695177e-06, -0.05566217490932056
0.010802407120383495, 9.133617455916542e-05, -0.07584633586654156
0.019698894120287733, 0.00016602327266089452, -0.0822602955407125
0.016557464793276508, 0.0002421887604104654, -0.088154972712625
0.007446313809947261, 0.00013658671590810532, -0.081665158556083
0.00397073112751131, 7.493242644139807e-05, -0.07417487919620908
0.003564527340086963, 7.163920097213666e-05, -0.07356178547491234
0.007275744378281667, 0.00010526921045634819, -0.07920500882141593
6.0460280033091246e-05, 0.00018513083865979437, -0.08726178302489605
0.009093312252792432, 0.00024336176206385534, -0.08956026409532089
-0.014063927412267443, 1.9176570405811472e-05, -0.06039140246533749
-0.0013219068223303278, 4.002015939810148e-06, -0.0466059576734365
-0.0016484480986307135, 1.0085899978734236e-05, -0.05292750510067869
-0.004596478076080492, 2.0572373154855937e-06, -0.04805758289920464
-0.0074292387989939755, 7.590748546288573e-10, -0.04307820461527901
-0.007265086500947889, 2.3858373721322896e-10, -0.0484995282348107
0.0017357524597673322, 2.0041313401619412e-09, -0.027013126710145566
0.0022650670960228875, 1.4118108534885624e-09, -0.035571960125670286
0.003480404319273267, 1.9260833721816855e-09, -0.027875614139096647
0.0014983288199580426, 2.2549866405457008e-09, -0.023390450247900846
0.001959104962910791, 3.149256303096641e-09, -0.01026899958584302
0.0003133810560382956, 2.8135043330422685e-09, -0.015428682616121464
0.0030463095041708107, 1.069801901751439e-09, -0.040438545438420494
0.0042577741006125415, 1.8195125881498642e-09, -0.02930748657739022
-0.006820311189341802, 5.3381100511044545e-05, -0.0704974937321538
-0.00960005935840249, 2.746205373417027e-05, -0.06560822078372347
0.004759444795708717, 4.5290056582968984e-05, -0.06888706699577482
-0.0023167549080995494, 5.6811769886633146e-05, -0.0705893074663771
-0.005810708899449857, 1.6435474951224635e-05, -0.060019056182453796
-0.0007920737177179849, 2.068012766522244e-05, -0.06234369758482862
0.004775482256536779, 3.1122304495520248e-06, -0.04927956139909462
0.0001289540068804011, 2.1919323074738692e-05, -0.06300900070807199
0.004512634842357159, 9.15808801323436e-06, -0.05495800994610452
-0.004512855703665512, 2.9328164545341404e-05, -0.06595343521365195
-0.010878342048504496, 0.00023286829380531488, -0.0885223669366269
0.003517679797608555, 0.00029145115322445827, -0.09244343920172073
-0.0029279089026517328, 0.0003690763481088475, -0.09552528275312074
-0.004093138362122287, 0.0001396291338265427, -0.08257007058529807
-0.01328901136943867, 0.00042901573729999345, -0.09625798609394895
0.006332315282031719, 0.0001603451954766331, -0.08391801252934324
-0.002438520055171364, 0.00017995731411265864, -0.08626470364319751
-0.02225726531129377, 7.728598106621097e-05, -0.07312012454196398
-0.00730628587543479, 1.642767997134488e-05, -0.060011980603990225
-0.00954757873702668, 7.715177845097944e-06, -0.05404020118573566
-0.012507608081984294, 7.592688258111692e-05, -0.07368242111198009
-0.009528093887265216, 0.00011161893965762427, -0.07919406012707945
-0.014947587450478268, 0.0003369370404329798, -0.09215048938560927
-0.014636551544390525, 0.00020546427600269052, -0.08555840633982491
-0.019062481002864097, 0.00016105889852262802, -0.08191991116072775
-0.02573461969165238, 0.00040307427001861127, -0.09327036369793848
-0.012455539272537132, 5.644712538845383e-05, -0.07084120028954911
-0.02606234702659949, 0.0001992173689420105, -0.08433083264220954
-0.03219329017754891, 2.1023077016798597e-05, -0.05457497295656813
-0.034823369580848015, 2.173111023525546e-05, -0.052870804525154996
-0.014637002408441327, 3.6130785782053023e-06, -0.04307622654799898
-0.018906748805831063, 8.745065686046786e-06, -0.04930585689027502
-0.019406759270270732, 7.676894919870665e-10, -0.03970257129700549
-0.019487627894342396, 8.287745160946034e-10, -0.03881908043856433
-0.0038517165791349304, 1.8086120650207103e-09, -0.029530852077097297
-0.006607854440139304, 1.6826226815199263e-09, -0.030932657574908
-0.0061035176730962854, 1.8941075545931547e-09, -0.027926718182891965
-0.0070837623498322694, 1.8138211462824938e-09, -0.028942937333031955
-0.006812630381280099, 1.9571824754173056e-09, -0.026894066266901544
-0.0049238205901868445, 2.2073387500237293e-09, -0.023543144518175258
-0.0009971632426000105, 2.4442253034604953e-09, -0.02070860871581719
-0.004084620700296736, 1.4217827827512079e-09, -0.035138268332396715
-0.030483118257355196, 3.523396207110908e-05, -0.060687520528717384
-0.03193185626550553, 8.399736137470883e-05, -0.06862731846659456
-0.025547413236333097, 7.92298216430153e-05, -0.07140301982753033
-0.012458813791649884, 3.8631654189774975e-06, -0.045910791328381065
-0.01445383424020146, 1.0592874668835081e-05, -0.052311976395191646
-0.012134470245359992, 4.48637719089103e-06, -0.0475373417655479
-0.022766280212832994, 1.1733678411089229e-05, -0.05240485008822407
-0.021119299935632163, 2.1371707881684035e-05, -0.059269980700526144
-0.021940042303635315, 2.6117019006676557e-05, -0.06091010116122744
-0.03561508951535804, 0.00019050212085381234, -0.07822676689944308
-0.02345156587946134, 0.0001517130987464645, -0.08071501104549464
-0.0305211087339446, 0.0003138871124648401, -0.08843005592937134
-0.04044671311268441, 0.00041273607864097353, -0.08777175470562232
-0.030138486531881427, 0.00012553938583938665, -0.07563573962783596
-0.0208169932230127, 6.58596282503176e-05, -0.07112401773460518
-0.027690402041338314, 0.00021092493520464208, -0.08507577091640514
-0.04021726137095877, 7.807571457010198e-05, -0.06408246110220289
-0.03569801222294863, 3.6801441798001634e-05, -0.0581303420032698
-0.03344437303063859, 2.4617350540794527e-05, -0.056618313801753584
-0.025909813457474243, 1.571303281090607e-05, -0.05409409455140734
-0.04863260989020263, 0.00039169167517199194, -0.08268640261897532
-0.036185281769780406, 0.00016666690168857804, -0.07565398820045983
-0.04067073397544226, 0.0001682602520420628, -0.07377100307696377
-0.034156292099695146, 8.240096974620366e-05, -0.06731912785760757
-0.05250708613192195, 0.00033764991312743394, -0.07822527115093944
-0.041686402617448805, 0.00013221208969349223, -0.07027216442020286
-0.04679678644104949, 0.00022119623525264335, -0.07579502409932477
-0.03747799404238188, 7.711675426336365e-05, -0.06543503825430465
-0.05035696843067321, 2.357651547271709e-05, -0.040388191605455606
-0.04944680042510177, 2.386033211202099e-05, -0.04230115476463431
-0.032229408843864986, 8.188192003606297e-10, -0.0303444111713248
-0.031555092840833576, 1.2391995564039301e-05, -0.04320317441749859
-0.026048895918531823, 2.8686341907265985e-06, -0.03562152640953737
-0.012288008311034505, 1.7096944103623387e-09, -0.028750333902905392
-0.012013714282840343, 1.3100912266985266e-09, -0.03535346422021362
-0.011642209740057481, 1.9976757183271997e-09, -0.024421439331713462
-0.01606213828813497, 1.6887671118340878e-09, -0.027165805552040744
-0.017554359439722472, 1.1077469423832885e-09, -0.03580317485550279
-0.021281445563024654, 1.0751935489461185e-09, -0.03443066250383177
-0.0026730459021855595, 3.427611083041403e-09, -0.005863009808478592
-0.014843876106698661, 1.7264446644895759e-09, -0.02717712697062827
-0.04548584672393775, 2.8347889963390456e-05, -0.048539194251473516
-0.029856224763702387, 4.905302293526416e-06, -0.0368905365299679
-0.03165139961379839, 3.894269448678692e-06, -0.036682821903656945
-0.04433515106628832, 3.056596118410875e-05, -0.05001432993403648
-0.0447795785698304, 7.603871224582794e-05, -0.061122950942999674
-0.04631483243491357, 8.01439458740957e-05, -0.06043892911754083
-0.027854912936195898, 6.350983166481521e-06, -0.0391637399954053
-0.02376375560132788, 1.4510425799302606e-06, -0.04396834444896475
-0.0576973969094626, 0.00020439138306639003, -0.0656694597833598
-0.0589538347549235, 0.00021589016179735323, -0.06550160894582141
-0.043034839480563254, 3.211854552563016e-05, -0.050987300144965525
-0.05712497008337094, 0.00036920954815256263, -0.07682884544426695
-0.04725195766714816, 0.00010867821005679025, -0.06543156318062805
-0.06336737054421804, 0.0004066177308426887, -0.07298661598644106
-0.0549030536495159, 0.0001726448756975881, -0.06510747650866167
-0.03613007513340895, 2.4327318830010678e-05, -0.053445612250964024
-0.053615986933331826, 0.0001981596858993972, -0.06958627185172923
-0.04177415789258456, 1.432174603621289e-05, -0.04177057926514066
-0.04040592837865907, 1.2219696354247019e-05, -0.041245926122351034
-0.050999373856143185, 3.3654935810614865e-05, -0.044274998206411564
-0.05710891955674697, 8.478161066991847e-05, -0.05116211857225569
-0.06968152766479264, 0.0003909463687127277, -0.06556196380134555
-0.06007435495783475, 0.00018609429658337457, -0.06040744041615265
-0.05784122052607097, 0.00013751798186896854, -0.057453370892326855
-0.05285674254720443, 7.73681787457425e-05, -0.05291476560968547
-0.07428438368891614, 0.00035986830267138096, -0.05928551639488133
-0.05821201618665914, 0.0001113597525148879, -0.054493120984746984
-0.06638198512985437, 0.00019094578077995757, -0.05577562024273541
-0.04991815248472606, 4.0209171827392e-05, -0.04752302068409831
-0.05303596642400808, 2.1996995450156316e-05, -0.033976115377343845
-0.05057981536974997, 1.855799934861071e-05, -0.031582935116718155
-0.02739818591371648, 1.2337253761454386e-09, -0.026419471152235374
-0.017924065874308063, 1.991240283317553e-09, -0.020454663379845417
-0.01970343343763851, 2.1594779893682764e-09, -0.015246439467488005
-0.025593312753593406, 1.6349380098529043e-09, -0.02004722089162599
-0.023949320315395588, 1.3724679231382452e-09, -0.0270406218803058
-0.01632232366963704, 2.3031647678372007e-09, -0.015699065875903848
-0.02827889147680292, 1.478356975127427e-09, -0.020552923645434422
-0.02077961471468759, 1.6141624443643702e-09, -0.025284346182972522
-0.01016751330122654, 3.098028022829828e-09, -0.004933640813778771
-0.009650979917235968, 3.164734639188546e-09, -0.0036632362630975137
-0.03888668079711148, 9.935364720229344e-10, -0.015571962078572019
-0.02256090895952778, 2.212697837159142e-09, -0.008670497063553356
-0.03711607571129935, 1.1983991968644268e-09, -0.012107129465412493
-0.05738767288663386, 3.3543590283969064e-05, -0.02934571586633518
-0.05981759709808398, 2.3719282657750922e-05, -0.025788351955634708
-0.04821226770825919, 5.643622891422749e-06, -0.023151130213304266
-0.06002051303696496, 4.7204703951120625e-05, -0.0357063726504002
-0.05388531125588347, 2.1140329759136353e-05, -0.03209172811424556
-0.04815951740834658, 1.4618196071819465e-05, -0.02959721669712351
-0.06503383728117891, 9.056763603016112e-05, -0.043327017953610325
-0.0365832923758494, 3.933771518004065e-06, -0.02673965133027753
-0.04224098878029122, 9.970297745170703e-06, -0.03517699528184613
-0.043367454797829524, 1.2480477543386063e-05, -0.03157199299501852
-0.058691584587735754, 5.195817081548562e-05, -0.037993552136216066
-0.07368060457231512, 0.000184101030774194, -0.04404610449183291
-0.07617569976448066, 0.00028520596098379223, -0.05225647933406408
-0.06504968173950623, 0.00011934635468768275, -0.049014425093401315
-0.07976418746345618, 0.0003051968577634719, -0.0469636269101958
-0.07056247159930545, 0.00015321653627565595, -0.04498079782733937
-0.057088581192553695, 5.810366064868096e-05, -0.044519181978465626
-0.0553792155616922, 4.527168100874578e-05, -0.041054279795406365
-0.06882551416264045, 0.0001532103225781399, -0.04869169031935198
-0.06947600314446277, 6.940366430013378e-05, -0.026610665015322346
-0.04979053826725736, 1.2533429332462353e-05, -0.025016266352876713
-0.07017914367412037, 9.393819098658365e-05, -0.03314644842583527
-0.07189488649928041, 0.00013441142211584024, -0.03804832675750035
-0.08625986834638329, 0.00039689967031697015, -0.04181517724614005
-0.06074382512579396, 4.0816753692655924e-05, -0.03271049689365234
-0.07404433453475451, 0.0001490731371487914, -0.036446567031451126
-0.08963993551249634, 0.0003736569474848991, -0.03326666127048854
-0.07297057392708005, 0.00012293535841594556, -0.03434820893478771
-0.06425405124737568, 4.961891368532034e-05, -0.02887438064558271
-0.08008333715301377, 0.00018265179015915548, -0.0317200316299545
-0.05019319412611451, 1.1424099211435607e-05, -0.015527985891276488
-0.047938288717094074, 8.927029817099481e-06, -0.014498579784693984
-0.06403860331046447, 3.279219429166204e-05, -0.010909185163567243
-0.03784362677204293, 1.2631622824151997e-09, -0.0029998122076740695
-0.02769490082621148, 1.958552287459821e-09, -0.0030250167815551055
-0.04334717864304634, 8.859085430853697e-10, -0.0030119142422213824
-0.04080437931350987, 1.0662696179104738e-09, -0.0019705096061070587
-0.03316257616001714, 1.5716342399372558e-09, -0.005109617622315991
-0.07371340256616546, 8.076993318763613e-05, -0.01375531449324203
-0.04918886814016061, 2.5489454570413304e-06, -0.009321679271675279
-0.04697617543468697, 3.1552069536823147e-06, -0.010752082482280562
-0.07013147961573615, 6.728332350042686e-05, -0.019765076490950096
-0.07485353906851765, 8.89738739244837e-05, -0.02000006814848459
-0.048566866947691106, 9.822759601595e-06, -0.015917478065459546
-0.05463376297597533, 1.6099467219706984e-05, -0.018193111890745253
-0.0783019289334245, 0.00011547207996576664, -0.0186759491456334
-0.0753722333429126, 9.025605036111102e-05, -0.018176769591183035
-0.0628654774359139, 2.7650886080211535e-05, -0.01747841717851258
-0.08983919464227345, 0.00031336958058654285, -0.025478861585390603
-0.0767452794074858, 0.00011280905366656792, -0.025819198064478063
-0.09109620472774119, 0.000322964824782215, -0.01986790961238268
-0.08006621884906592, 0.0001388755361450192, -0.0196291988695425
-0.08105711184379316, 0.00015874164083325105, -0.02396015160619874
-0.062254455032223585, 3.2240299329615025e-05, -0.024488480004101615
-0.07665323843265173, 7.912079494464956e-05, -0.0017574274150583052
-0.06052992700405875, 1.959679187601852e-05, -0.0030001498323788214
-0.059798423167842535, 1.8792598584151198e-05, -7.395849416245402e-05
-0.06528002010432196, 2.815341766868096e-05, -0.007398740786737176
-0.05497358166686625, 1.2341402637545442e-05, -0.008409614049817571
-0.07689293162399302, 9.155243024536322e-05, -0.009034597623071104
-0.08019204820363632, 0.00013508851002673485, -0.013897019554399388
-0.07046895044467652, 5.981787879975722e-05, -0.012995573470320149
-0.08023898281752481, 0.00013335754483473738, -0.012478570361108709
-0.08510458058895302, 0.00018122564942704168, -0.008682343401488204
-0.09643042783185765, 0.00040601584132215124, -0.007484383279050237
-0.0692181017334032, 4.507432645667402e-05, -0.007394492220708536
-0.08948877121676754, 0.0002152353386346405, -0.0016107554169840594
-0.04667976387512486, 2.8071157466276022e-06, 0.00253792679164913
-0.04533033422572605, 2.4767005858994044e-06, 0.0015410978600682542
-0.05371610509707751, 8.723607884305473e-06, 0.0037204008801976925
-0.06368243943311694, 2.572951087215255e-05, 0.007563850804448132
-0.042785318051660345, 9.459555138983072e-10, 0.0034041895770086537
-0.04365951150227554, 8.655035593363019e-10, 0.008415476325055512
-0.049542015011013435, 2.3370221414941344e-06, -0.006367103895277977
-0.0482493140701028, 1.8745323616337515e-06, -0.0054344014834933445
-0.06264317865458789, 2.065324120429306e-05, 0.004089946885368943
-0.0738861822568492, 6.598872455207854e-05, 0.0013092106926680786
-0.07388767055578924, 6.523556888383943e-05, 0.0020064155156475725
-0.09262349780043459, 0.0002949783729053111, 0.002550473946331727
-0.085789096752617, 0.00020557858558052758, 0.012898128770679782
-0.07888060224571591, 9.445597269037634e-05, 0.0035829077417113956
-0.06486322505787634, 2.6187839263516714e-05, -0.002017932224564526
-0.06686748212863851, 3.5936302654585167e-05, -0.001027485658704703
-0.08913587945235248, 0.00020923040267674836, 0.0010030224012004454
-0.08231783784569072, 0.00013359534303543493, -0.003578390766964974
-0.0870671641534289, 0.00018274140405733345, 2.9774274985300057e-05
-0.08540838223124683, 0.00016504381917106835, 0.0009763873862826938
-0.0536892449555229, 9.095147963990317e-06, 0.008973530989196649
-0.07410826814127099, 7.236805327051182e-05, 0.008485738716756855
-0.059548416455807544, 2.0502963221203205e-05, 0.015446132994030793
-0.051466680191741776, 1.2888049268217187e-05, 0.01629175754621487
-0.0822739060640289, 0.00014421750249609617, 0.007844644912952612
-0.07705586974807332, 0.00010078679956134123, 0.012883732205593001
-0.07034333063082347, 6.0400920736742394e-05, 0.015384938260140386
-0.08799878961683862, 0.00023842286043288576, 0.016342530417812567
-0.08037632768574109, 0.0001416433955329733, 0.01755961137113437
-0.06402881135991412, 3.925552769679967e-05, 0.019434067824065353
-0.07746574716006244, 0.00010388876372869658, 0.017618607735221146
-0.09417762248854254, 0.0003870066898181754, 0.015227806544833494
-0.08502123796947149, 0.00020600456068117169, 0.023743224878264635
-0.042094321631325815, 2.6405484473072155e-06, 0.014204977969563411
-0.05210641927605612, 1.2831274135714088e-05, 0.018207235505663263
-0.04689674538841247, 7.205306704211638e-06, 0.01660078307774993
-0.02614977353677481, 2.0018545640332997e-09, 0.007396460627218013
-0.03457099158208468, 1.4183669468824868e-09, 0.007980904602646817
-0.02556668901072867, 2.034843545150744e-09, 0.008038795126385721
-0.012281468937668872, 3.018838719381633e-09, 0.0012676008138743972
-0.016706231863452253, 2.7193499847702766e-09, 0.000921210609133244
-0.0210114018977906, 2.3683595895299037e-09, 0.0060745071402536575
-0.01214449220426255, 3.0151666146379645e-09, 0.0024707324951411184
-0.03679780643855841, 1.2387620208851015e-09, 0.01046749362510769
-0.05999171767062471, 1.782314476168463e-05, 0.012583412945233158
-0.0452722171865561, 3.482719571867276e-06, 0.011775272935001743
-0.03948750296697453, 1.0173181639495813e-09, 0.014119207650202605
-0.040545226073273065, 9.437929201544988e-10, 0.01701764320788378
-0.06544597345089827, 4.474889987347119e-05, 0.018948503610618832
-0.05256601564592632, 1.180263394439926e-05, 0.022248382160324032
-0.059683223481499584, 2.947376790135786e-05, 0.029826125163556705
-0.06709376356184384, 5.331036198804982e-05, 0.022934390746315373
-0.08677405425396784, 0.0002822121637418915, 0.031019268337294226
-0.07261007617592224, 0.00013520779075684556, 0.036684757366495
-0.07816483275396562, 0.0001144740385144861, 0.01911765210397444
-0.06805239420295461, 6.332743148799153e-05, 0.02683698546315426
-0.06554507428441406, 4.9712080217371544e-05, 0.026341011365172133
-0.08090729548457992, 0.00018786266751530403, 0.031146846556791924
-0.06567987918907603, 6.547697588270111e-05, 0.032418079345754934
-0.0782735804703058, 0.00013228452634483524, 0.026439805248611996
-0.06918925444628489, 7.795315424741263e-05, 0.030181963115573588
-0.056359066700225495, 2.2841056464144e-05, 0.0314617969250652
-0.0590409460026091, 2.3241527849620157e-05, 0.026760119960993187
-0.041512985887808815, 9.908800608332641e-06, 0.029716817486580758
-0.045985627523588236, 1.5780499168635467e-05, 0.033401692182327844
-0.06323782065178885, 5.712213801171214e-05, 0.03340400323378723
-0.06458883081744851, 7.868602926804908e-05, 0.03909001908135829
-0.07695588831448108, 0.00016095284632920695, 0.03358626712135862
-0.08387985978887655, 0.00030573315421649844, 0.03853141727267606
-0.07559919761729944, 0.00021031967544257372, 0.04479930271216129
-0.06392312917738355, 8.872627158890621e-05, 0.04575816891946214
-0.05748532707937773, 5.253549712405316e-05, 0.0396816285902383
-0.07332288989040706, 0.00015380425083242043, 0.038450131415013036
-0.0724049700527396, 0.00020290978728543555, 0.050843289711165744
-0.08002311715884597, 0.00029735790061285094, 0.045659028841802084
-0.040217306579147113, 2.2867183866361423e-05, 0.04991539777339986
-0.036093609098354275, 2.1572056984216623e-06, 0.031076120131036694
-0.03883195887319721, 5.420627949695773e-06, 0.03377970982660211
-0.0348176996326799, 1.5528198457420058e-06, 0.026115054558810576
-0.030107739954412977, 1.0273670594520117e-09, 0.028278003336524193
-0.04092092576366702, 1.875934399186442e-06, 0.024153281691580777
-0.050382953519551715, 1.2940341533447568e-05, 0.028421376600269308
-0.04665544919763491, 5.245990658332204e-06, 0.025041151096878128
-0.02668483696236438, 1.888718108222548e-09, 0.010658800760597734
-0.03763459268096004, 1.0527528237310208e-09, 0.015705732807782896
-0.03333229353215323, 1.395751628595242e-09, 0.013261252745591673
-0.033965779244998655, 1.4154269886683786e-09, 0.011393390425337845
-0.027660020789228402, 1.5460017006154962e-09, 0.019624141538101342
-0.02116836889375604, 2.248727919688261e-09, 0.010057258936260487
-0.03398119017952367, 1.075506547796609e-09, 0.022153634126322104
-0.030819636581702316, 1.5801648260915152e-09, 0.012338572608899144
-0.04665695333261164, 1.6727395686489837e-05, 0.037784333599505865
-0.053296433752108775, 2.8709496618511724e-05, 0.03716433413753173
-0.048220476968384454, 2.9827428921345982e-05, 0.046237928150068316
-0.059035026518548084, 6.756104180221455e-05, 0.045361719522026965
-0.073334162678232, 0.0002517511837301507, 0.054245802843836045
-0.06195295162514038, 0.0001854509182328322, 0.058856563063355995
-0.05950057471777366, 8.619801735103592e-05, 0.049170418798572785
-0.05460358225302317, 5.2972944714721864e-05, 0.04570408268212542
-0.06741490932343017, 0.0001079780446215451, 0.043158753922504754
-0.06558097792123103, 0.00017623496125538675, 0.05491955237653391
-0.07690239929916401, 0.00028223136791909523, 0.050619055317637086
-0.07155430518287033, 0.00020088073919951785, 0.052232889062374104
-0.04347532973798819, 1.5129275120446331e-05, 0.04079649774915148
-0.039379280767196045, 9.099207203348352e-06, 0.039462382884079696
-0.05762211073419272, 8.568302639573038e-05, 0.050873104374831966
-0.05217120958017464, 8.816537718106567e-05, 0.05653487368682898
-0.06095816531689649, 0.00011471498284987259, 0.05245474133496216
-0.05526235105857319, 0.0001469111652755537, 0.06139676077946065
-0.06524555915561883, 0.00025972020971606365, 0.06246984356101703
-0.043512765537436736, 6.0443335185380106e-05, 0.05693980273852055
-0.041749371225169335, 4.730316542486859e-05, 0.054449149788046686
-0.04901849195396788, 4.937708222365944e-05, 0.050856581966678714
-0.05374485537343475, 0.00012005385631917925, 0.06001801936601535
-0.04922808485232524, 0.00013512378652144909, 0.06664387950109642
-0.023016980043641458, 4.100937665568502e-07, 0.04413988538831649
-0.02867513974358635, 8.444047639412196e-06, 0.04353024908512805
-0.03345374615417478, 1.6405982947146752e-05, 0.04866297723072413
-0.025201216018504547, 2.122708305067693e-05, 0.05826701919848683
-0.02110769286267905, 1.9390751361617183e-05, 0.057936376772397005
-0.017026302616234567, 2.040995692333112e-09, 0.02033834605511661
-0.01707168535257027, 1.989416327115164e-09, 0.021344203463720436
-0.032187689603405276, 1.0442782409463346e-09, 0.025491078748019053
-0.020127831845317735, 2.116176345360365e-09, 0.015704558329809895
-0.004729911789450398, 3.3818461743082746e-09, 0.005306834550071957
-0.029315172560366632, 1.1987066417379534e-09, 0.02521618725384537
-0.021250805172521117, 1.795920543474497e-09, 0.02110872534583581
-0.02013626401989769, 2.0575885231391473e-09, 0.016890205812148517
-0.01591579128840124, 9.523652587406668e-10, 0.04081113395031276
-0.033780502848376526, 1.4089670660271789e-05, 0.0448684060788824
-0.036152241977137234, 1.8145934547967096e-05, 0.04810160746419796
-0.03401115177048096, 2.54872113791092e-06, 0.036872074423106006
-0.048841331580793027, 8.399604445272966e-05, 0.05839985828114458
-0.03309301335995379, 1.7858717369532664e-05, 0.050997283987013906
-0.03369946010983829, 1.8959489678993378e-05, 0.05142845100861802
-0.04072414264081171, 5.69211180711157e-05, 0.05934417577057491
-0.030681497626490608, 3.5534121994823385e-05, 0.06065619046856175
-0.04507824149242314, 0.00022883656396000015, 0.07705853867876906
-0.05203257010384378, 0.000253561086671942, 0.07483150989096332
-0.037459873147282025, 5.63775484518113e-05, 0.061090483812251524
-0.05443392993628186, 0.0001594928796069846, 0.06408760358029199
-0.058018973108261325, 0.00031481267728117714, 0.07319283242946777
-0.0460710367213385, 0.00016619094896010535, 0.0713382301751136
-0.037358835651484665, 8.197570265394111e-05, 0.06625272792676293
-0.05138295449302889, 0.00019482912349692006, 0.0714849565139928
-0.031844423859592096, 2.3139146113588378e-05, 0.05637719083804457
-0.02903333739969946, 2.4672808070058838e-05, 0.058905488939165675
-0.02659436361997512, 6.438219001758552e-05, 0.06843786580771619
-0.033068860048684076, 6.986382182725752e-05, 0.06597912695923201
-0.03480631877357948, 6.316689581492414e-05, 0.0642493806266222
