-0.11136222623589939, 0.5303919069481825, -0.21291513699657388
-0.08191106333139361, 0.5297381928908937, -0.22086335385034506
-0.12319859230885052, 0.5388016719583064, -0.2044248748066421
-0.13050133236885925, 0.5553180570487177, -0.19783109386633765
-0.1233775893906049, 0.5574542302339678, -0.2022634441606624
-0.10957717613870696, 0.5452830457096408, -0.20915846144768027
-0.1388082454149736, 0.5208879735316183, -0.19353664429117248
-0.1413384452820321, 0.513098786510822, -0.18984576672844228
-0.10554172711057014, 0.5268498905198175, -0.21642053746097456
-0.12353494423900677, 0.5369736701061637, -0.20490458200753392
-0.13286733070557893, 0.5301786668539812, -0.19935375760005625
-0.12196711830450593, 0.5162728162753546, -0.22181901147192412
-0.13762264758670814, 0.5153913168526192, -0.2002884341270763
-0.14317006342785077, 0.5016202057110217, -0.19091633888871512
-0.14818287498686292, 0.4934147753799408, -0.20225584650561412
-0.09910609972640437, 0.5213709467484952, -0.2564002406165657
-0.09615749436901484, 0.5179623473800261, -0.25082197120353444
-0.09435237418667781, 0.5148964040134203, -0.24662253161440684
-0.07395715197387116, 0.5159369719137712, -0.2342409448886853
-0.09146888986086303, 0.513964248221117, -0.23472010608951677
-0.09272003923402333, 0.5186810596383142, -0.22630894149077974
-0.13728216121329476, 0.5122459478115837, -0.2214954431653682
-0.11433372486685638, 0.5147645685487656, -0.2290610964392811
-0.11427920308734485, 0.518488960834577, -0.22135792586252045
-0.15269931763588962, 0.4938843169473661, -0.21107419969264193
-0.1464606107828071, 0.506127777279133, -0.2182025782014912
-0.13924695718535, 0.5224617507597799, -0.24503967416453348
-0.16518328273295751, 0.5238388723020684, -0.24203908158949297
-0.13527898772109648, 0.5164622977889622, -0.23738044091445284
-0.15329335770281458, 0.5184116430718932, -0.23592183994340923
-0.16780602446467685, 0.5107517490906895, -0.23162577325302036
-0.0803482914347039, 0.8103371129592359, -0.25033340409474397
-0.08036822965939312, 0.7986864214365845, -0.24617344011914355
-0.09257845511364306, 0.8137262453786899, -0.2494454892887758
-0.09783288511865001, 0.7995259073995172, -0.24302869233628532
-0.08532284833184459, 0.8223998383731315, -0.25430524643422336
-0.0632950981795052, 0.8361984313516115, -0.2715022264560484
-0.08011579625936231, 0.8341188418754786, -0.2657033129589965
-0.09700099028332991, 0.8322696970503967, -0.2596314829742924
-0.11306131000878406, 0.8351322586834405, -0.26225290333530127
-0.1272489205176616, 0.8348232035958041, -0.2620615105561371
-0.13530857896061582, 0.833659009802175, -0.2542203449691107
-0.11513446792720455, 0.8051333170825906, -0.24054309906628485
-0.10453870884753001, 0.8278045507980931, -0.25448090742670615
-0.11127269844641789, 0.8276828735437081, -0.2527893169494162
-0.12081313833749258, 0.8074774770749166, -0.23986101721257017
-0.15282315214569747, 0.8315410038527826, -0.24540387310141515
-0.143423716354658, 0.8224938512210963, -0.23872540400538245
-0.1452528552613566, 0.8022037813552134, -0.22833969142049074
-0.13792961499119, 0.8282926064262353, -0.24547884853618443
-0.1283471002450017, 0.8052197900284213, -0.23646964143256602
-0.06294541397631222, 0.8359506045845109, -0.2775812787933493
-0.09564622379596693, 0.8299881996672301, -0.28328436321147465
-0.0849827237743321, 0.8355659497360988, -0.27511569226662835
-0.08485284350292084, 0.8155298409537142, -0.29139294001152555
-0.08693097500847577, 0.8294128795464477, -0.28542619373404354
-0.08034553612560218, 0.8041252830061567, -0.29314753176083874
-0.09560255398689407, 0.8209129162338267, -0.28799050206757426
-0.09514771416863915, 0.8131092276884289, -0.29009127596262335
-0.11171170389969748, 0.8240232798515736, -0.2836915096539633
-0.09846835472018507, 0.8020100124779304, -0.28997849963638195
-0.10405687722490235, 0.7894724302474564, -0.2891424215238946
-0.12257050088410948, 0.8011947078372965, -0.2845872879105964
-0.12087537791223853, 0.8032391566541309, -0.2849504762516261
-0.13954887088773182, 0.7881477916043949, -0.2800937346395055
-0.13967790013728296, 0.812994300159697, -0.2790460441231618
-0.1627617315138948, 0.8229969059723308, -0.26724301167746095
-0.14833405595593463, 0.7993646375115426, -0.2770688521739244
-0.1392510649417455, 0.833235428378591, -0.2648261678366754
-0.09784571441914275, 0.8356399299804251, -0.2695404290372494
-0.1223091235489969, 0.8328465052866043, -0.2728666328261474
-0.12634216812626842, 0.813560067384868, -0.28274166801423556
-0.11735935884649945, 0.8119182241693941, -0.28555691575949865
-0.13611338994645608, 0.8256607879778401, -0.2761386943829226
-0.15401332190009345, 0.8284284288466939, -0.2664739710812677
-0.14677433621120542, 0.8116830321749536, -0.2771266275165919
-0.13742497953206342, 0.8343680921770265, -0.2589740085645133
-0.23565840656441117, 0.597034578659964, -0.06356687070771185
-0.23764495655834028, 0.5901652587771709, -0.05013893124639135
-0.24124156362548627, 0.6142515486443765, -0.08675007107364806
-0.23643191660414697, 0.5968390951401739, -0.06346508251289426
-0.21764076275398073, 0.5942374162339, -0.07156953383446626
-0.22821392976142213, 0.5819711204365867, -0.033812061322351955
-0.20862524830398638, 0.5546128968671263, -0.033148992932184
-0.2046856423467219, 0.552768689164227, -0.057059024600282886
-0.21463751322193833, 0.5894581850581415, -0.06856347588836079
-0.21218763637498236, 0.578317322050618, -0.06088946951403266
-0.2174039036154705, 0.5788632162064927, -0.04485624308758947
-0.2034152264478224, 0.5654007143622486, -0.0760929313562302
-0.20646286484056336, 0.5592223026645823, -0.05422699271379815
-0.2149391407138103, 0.5889195725437316, -0.06671098688450136
-0.20680616016429318, 0.5831354612767169, -0.0818319757429674
-0.210505801276601, 0.590785158464223, -0.08032777907219665
-0.23118680702392755, 0.5935192823574345, -0.058010680804879755
-0.22445042544825689, 0.6074722662263145, -0.07932460958462327
-0.21914339343822, 0.6132775739396001, -0.08834139783193178
-0.20205786298559392, 0.5929679639273686, -0.09785379674634907
-0.20664013569910689, 0.5754826686662067, -0.07455077286286654
-0.20949749972701834, 0.5828636571063189, -0.07509169450007376
-0.20737191756245257, 0.6104674042114535, -0.0997962104685797
-0.20644752352598622, 0.6109530538334129, -0.10142928908922734
-0.22046103197329997, 0.6328358909091414, -0.09907424499143887
-0.2206881472692748, 0.62922561666085, -0.09694573168093679
-0.19958441976608104, 0.6122500422426232, -0.11174433768953057
-0.19595319406574407, 0.604023328997023, -0.11623595533010636
-0.20529264944295056, 0.5901939719194416, -0.09012975182526081
-0.20849625501089095, 0.5998247424243286, -0.09174522840683935
-0.205196295277885, 0.6293796628772592, -0.11228321840472633
-0.20198006445029554, 0.6082079387349892, -0.10632367674055199
-0.19732313556442857, 0.6825565284565349, -0.14397661274813833
-0.19749977793622778, 0.6574270481519318, -0.1338251930813919
-0.19574578653360858, 0.6452412582088346, -0.13145854583004957
-0.2107778615120937, 0.6763189745113708, -0.12913127347963213
-0.21929331568602833, 0.6817668810679044, -0.1274460299568362
-0.20443808590790588, 0.6826708597386089, -0.1365224807358592
-0.2032995794380876, 0.6970222750255819, -0.1442988670162853
-0.2097081171032122, 0.6485088175796072, -0.11548366901977265
-0.203734825609533, 0.645106149856573, -0.12191819291530337
-0.218757402893619, 0.6692231682681673, -0.12081238656280383
-0.21635703591833017, 0.6591116707676532, -0.11675927802406533
-0.24030970370423516, 0.6352773344276825, -0.10066482026292276
-0.2260232126516516, 0.6127807760325827, -0.08293770923923782
-0.23179995353295765, 0.6289209124941412, -0.09453682495764693
-0.22638031086597674, 0.719681610549803, -0.14940031008864094
-0.2132493049586212, 0.6643956236644699, -0.12141753390059734
-0.21566136302627592, 0.6658386427224099, -0.12085150341540292
-0.22768130102741388, 0.6763876564036275, -0.12377423427914731
-0.21650381558145024, 0.6372922010683733, -0.10423613138361668
-0.23764328793791012, 0.6895118674542294, -0.13573481162476758
-0.2307741783982483, 0.6901722197994853, -0.13278327640157117
-0.22409158704682758, 0.676749583069195, -0.12397190362944893
-0.22671357886677157, 0.6512304125169661, -0.10809352609668467
-0.23967183805458114, 0.6668652138183495, -0.12125190562678709
-0.2719256138104067, 0.5381094022693201, -0.06536263717095311
-0.26869030067598226, 0.5650152053371178, -0.06083369836137502
-0.2695046151668135, 0.5600479749034648, -0.055901942843833166
-0.27065137734530775, 0.550947463108836, -0.06549892764979687
-0.2659343306016812, 0.5705531888994666, -0.053181998322274535
-0.26932804046538905, 0.5569548761989979, -0.07382192102492202
-0.2685856452545484, 0.5628292933196439, -0.07468889062379556
-0.2706840495216506, 0.5348039982092245, -0.07986868468226932
-0.26831699546838, 0.5579052842229941, -0.08961931644124049
-0.2683801416450926, 0.5631052596761281, -0.08176504356360277
-0.2638271464202696, 0.5797665515883319, -0.07133693877894132
-0.26613166965373014, 0.5757898669446613, -0.07686484155662096
-0.2615875712342123, 0.5835034973454554, -0.06919242152985894
-0.24763211374293692, 0.583307219453411, -0.038782944531569136
-0.24607761647482987, 0.5941457076044493, -0.06485113701589545
-0.25311091717143563, 0.5953151580260054, -0.07496062703800427
-0.25405975019313765, 0.5996800529193935, -0.08403931178640903
-0.26473283086067084, 0.58360883597313, -0.08729171582801692
-0.25596719669048285, 0.5914524802442628, -0.07253504059382669
-0.2573629808908729, 0.6066887742984919, -0.09389311673537659
-0.2557302444717607, 0.6240269095298019, -0.10462239334893339
-0.24551204241696778, 0.6211747716598781, -0.0934690090555376
-0.2488067370595878, 0.6380923757510666, -0.10697474297447114
-0.24193908998260133, 0.6227191400750107, -0.09294437172679493
-0.23528120347087114, 0.6791564599504105, -0.12769347887100746
-0.24519795347551762, 0.6891184256014875, -0.14063971435895933
-0.24293925666157146, 0.6520567058587854, -0.11269833417518749
-0.24130787595127973, 0.6653051443742157, -0.12102678614416741
-0.2347742606224803, 0.6311370248507353, -0.09583941135815432
-0.24591189616624204, 0.6625610163872726, -0.12214984081015781
-0.24636971261866142, 0.6871574471443557, -0.14104256156262424
-0.2534043859023039, 0.6521871510175841, -0.12370728672072434
-0.2643621433837725, 0.5915095362099905, -0.10202398839709545
-0.2657256725429281, 0.5815235793268865, -0.09292050941900895
-0.26474114132935517, 0.5549349758171933, -0.11288007836135458
-0.261446443749443, 0.601472161621867, -0.09812590273049565
-0.2609393532692902, 0.6018471409240649, -0.0958164380669761
-0.2633168739686863, 0.5836712591919667, -0.11705691820139069
-0.2580153059037184, 0.6111169008041828, -0.09827571007266413
-0.2616250808921482, 0.608516850755344, -0.10955695334339195
-0.2608543899926351, 0.6109915582212624, -0.10826215696360307
-0.24838955321920347, 0.6673906883881511, -0.12776891786161798
-0.250467647356035, 0.6895476471291535, -0.16200369171571657
-0.25224272494634253, 0.6764806149532747, -0.15401538741856496
-0.2528007391850204, 0.6266159053026639, -0.10192915007701336
-0.25801290806212107, 0.6346423979807994, -0.12490704494075847
-0.2555770594140729, 0.6314535746195235, -0.1488502639218987
-0.25354465784075514, 0.6591688537780995, -0.15316036237810585
-0.25468336774918743, 0.6459255350761692, -0.15020003640387053
-0.2542023004314088, 0.6346892319754123, -0.15546869414729858
-0.2558681857818659, 0.6458635957534828, -0.12565047967437473
-0.2548737844439297, 0.6520980368063547, -0.12713815568173495
-0.2624136672500779, 0.565223623371862, -0.12399380545349918
-0.26264258404802904, 0.5639941391239354, -0.12311806403029406
-0.2631150262206844, 0.600771920403965, -0.1085712563012253
-0.2614139922831612, 0.60681183170692, -0.12132456065295594
-0.2578694928637091, 0.6298839233467444, -0.13559420294888835
-0.25857115872561776, 0.6307612000809246, -0.13110377622939925
-0.25756539025600056, 0.6199574002406312, -0.13999145067294277
-0.25239312177704604, 0.6171225550294323, -0.15892617576611925
-0.2504954203212068, 0.6357856638797874, -0.16557649218887022
-0.2530357007292932, 0.6185288744749052, -0.15738699378418905
-0.2516959620801799, 0.6311471384947545, -0.1620305537990563
-0.24852278997086658, 0.6134069221414298, -0.16863546883735758
-0.2576266667427689, 0.6160006585174228, -0.14074028633975502
-0.26162078807788935, 0.5951401609466327, -0.12468555573773915
-0.25872283675567537, 0.6106305870566415, -0.1362046756369254
-0.25970476817502997, 0.6186122429112606, -0.11224156667866098
-0.2590222522938026, 0.6190927190370938, -0.10762924512026077
-0.20487983987967362, 0.34482951220120456, -0.10817464553803088
-0.2226868237657823, 0.34043939149000824, -0.09318763495392843
-0.2075907809365143, 0.34489410655368397, -0.09932766292137395
-0.19448799321169, 0.3759298286970316, -0.08908558182742754
-0.19297738551758054, 0.35901735433463317, -0.11010647287978441
-0.1865533187870448, 0.3879918660781623, -0.10733938555971392
-0.203057010193855, 0.3547509958130699, -0.0833072578892986
-0.19523956949381896, 0.3859656769127931, -0.07625883149979908
-0.19643422494091453, 0.363774158736654, -0.0908096573432725
-0.20839476297833598, 0.35019846147964384, -0.06860712754853099
-0.19928647369113556, 0.37445811220429703, -0.06517865111937488
-0.2079338402194178, 0.35880824109556564, -0.04027134578206932
-0.2053711902228439, 0.3718353625488692, -0.026184252944769885
-0.206203773303229, 0.3695191035493475, -0.025188978775879715
-0.20283838289480102, 0.36844742052588764, -0.04831500994468044
-0.21190129177309133, 0.34906924252690946, -0.05022474253484541
-0.21269390445179479, 0.34494674190994623, -0.07958766367830805
-0.2170664132050932, 0.3424960367070775, -0.07533668383959946
-0.22463018668536125, 0.3429659280824655, -0.02825578215194193
-0.20721564718371885, 0.3565392386516837, -0.05364362781569956
-0.21460666595348282, 0.3458816650815857, -0.062203866738349184
-0.20290664810452952, 0.36102621421728576, -0.06555468752423949
-0.2334715504780312, 0.34068870425899045, -0.037162329395097726
-0.2249026197884948, 0.34129322235409626, -0.06401688936516177
-0.25190962634243447, 0.3573813192685624, -0.11713630902974814
-0.23926245002645785, 0.3429210243120061, -0.1076502878809891
-0.23282291331571672, 0.34216172791487265, -0.11902842417891275
-0.2253113539789653, 0.3404536766769246, -0.11215462980479135
-0.22432731034278844, 0.34033388919183444, -0.10416628581270804
-0.23435307793616164, 0.34063475731117543, -0.08916996633791988
-0.23712767383159367, 0.3418852665570788, -0.10166667837769282
-0.22854251069109888, 0.3403861398137222, -0.08363224048279413
-0.23392923466310098, 0.340589837115786, -0.08189404119524689
-0.22392251033586902, 0.3418070364769179, -0.0534924385117298
-0.23086075014197702, 0.3404641573551822, -0.07576140169071557
-0.2372940493088389, 0.34070628753377163, -0.061607438802199474
-0.24752515410345266, 0.34220228706248296, -0.0508012487072427
-0.2517088139975682, 0.34760688990179195, -0.09462294686685399
-0.23985022478060963, 0.34178026952195273, -0.08861273557217382
-0.25535976531054794, 0.34458740198125964, -0.04585300686304312
-0.23971209585271633, 0.34128189861212044, -0.07733708998841299
-0.2545454320527154, 0.3493148817169376, -0.08826506615635363
-0.2500187943066243, 0.34395346373171737, -0.07351237271851374
-0.25946232287961407, 0.3489168773964887, -0.059915822389261596
-0.18369575447233089, 0.5235503297767454, -0.23429761068896976
-0.18325255333901513, 0.48754310327502615, -0.22845281336078516
-0.1865236211639631, 0.43695022194650357, -0.2159091422719593
-0.1905092674834374, 0.5041707851552092, -0.22690480254417333
-0.20119201639275555, 0.55090324737799, -0.2248427751059583
-0.1945708798307834, 0.4944577292287534, -0.22224471914553265
-0.19337326523550113, 0.5136054342455516, -0.22616674622400784
-0.19403717593693948, 0.45795646203615903, -0.2172763578664259
-0.2016023494629165, 0.5187364900685733, -0.21994978379559207
-0.19780117479397508, 0.5033040360719218, -0.22084602875422019
-0.19222471436916125, 0.47962120546884923, -0.2218642573695177
-0.1973365065704602, 0.4299421205058693, -0.2110432640561157
-0.19082842664195662, 0.43582648023953, -0.2165306620452206
-0.1840739081430114, 0.3628034770336181, -0.20695420360835187
-0.18436898577805516, 0.4021320521312567, -0.2111806850305144
-0.19251323901266196, 0.38542172983401024, -0.20914405952049936
-0.19452255721463305, 0.3691579588425785, -0.2058513059938107
-0.19201327618373573, 0.3711609477725675, -0.20782360136777644
-0.18983280765939614, 0.4087631509128462, -0.21387202625385082
-0.19101757482193493, 0.4220583718063907, -0.21469443607817934
-0.2043201216792495, 0.36527230080709044, -0.19788406716966886
-0.20066320526059714, 0.43890083772907273, -0.20961104505509245
-0.2041101503614794, 0.4296678413515973, -0.20582647007919483
-0.19708131767027576, 0.4852872714373512, -0.2187781224341877
-0.19688149860820053, 0.4736266499045924, -0.21736709421414224
-0.19984838201359204, 0.3571996098143193, -0.20042984837723718
-0.2027575235352825, 0.35669854180910077, -0.19806682694954292
-0.20153544146250302, 0.3985009342625213, -0.204126670402291
-0.21231177577216215, 0.3926243894949302, -0.19440163493721146
-0.20986258867333032, 0.39045039665258324, -0.19634005052038758
-0.20871783720382842, 0.3699432018877907, -0.19463751533159113
-0.21632338907634316, 0.3979418271454792, -0.1913712314795998
-0.21616787038407473, 0.3831034819348996, -0.1893134451742943
-0.21492847902495732, 0.35047865291582514, -0.17987759462675842
-0.21066545793104208, 0.4020211030703956, -0.19711521853334102
-0.21948612237717205, 0.3944144114795082, -0.18716686502133295
-0.22165244457306707, 0.397200193323863, -0.18506899420748218
-0.23072563187859105, 0.3848731906540863, -0.17030887935517508
-0.2298172194504297, 0.38262477104422377, -0.17125524373465079
-0.22880812644833026, 0.4028115154323614, -0.17625822674807237
-0.21995545381676443, 0.43245336097929105, -0.19137098223224652
-0.21695505055836745, 0.4075961514080001, -0.19187550266092576
-0.20552222852162014, 0.544200794571447, -0.2200305456888907
-0.19820300394058518, 0.4947304229710838, -0.21920679381767608
-0.20565672476400548, 0.5142203036596993, -0.21565657720819056
-0.20559739454900353, 0.4755637750000926, -0.21043241514673638
-0.20515832468693623, 0.45157175547944695, -0.20762819892513273
-0.20949022965783953, 0.4701813319082908, -0.20624537839784568
-0.20889748118973525, 0.4961629947355912, -0.20995312839046976
-0.2129233942031616, 0.4465437808138275, -0.20019955060537115
-0.21164271211985816, 0.44712995964583907, -0.201450988633332
-0.22203594104139773, 0.44975565476473317, -0.19098393081553985
-0.22095884376349173, 0.44860947304910026, -0.19210116291869034
-0.23285610399498546, 0.447341392953174, -0.17602986791258585
-0.22988381282244513, 0.4553946060648345, -0.1813359669595302
-0.23362007617710612, 0.4581940265198852, -0.17629074271023928
-0.21783179443843267, 0.46398587755280296, -0.1974454163286481
-0.21604448655661038, 0.49286435780572735, -0.2026923390542649
-0.21525521347533333, 0.5350524175846604, -0.20936008300135867
-0.22992466874437376, 0.5279508101092032, -0.19049079282564976
-0.23086494916844794, 0.5407615983509533, -0.19108195145355733
-0.21825772623490555, 0.4918200320954811, -0.2000876616962534
-0.21598648067850337, 0.5013780282337655, -0.20377095643216356
-0.2138239715832144, 0.4639597170708555, -0.20146327660900198
-0.21546511747842523, 0.4843361131160042, -0.20241375601780068
-0.21283019428925815, 0.5243154168108355, -0.21034188895682332
-0.2142569139006259, 0.5135460162926073, -0.20740713894788376
-0.21724156793732705, 0.5262475454543253, -0.20589685347707093
-0.23112733000906166, 0.4846310599599406, -0.1830628817964533
-0.23165045103658863, 0.48308017220792915, -0.1821439851149393
-0.23169288667300206, 0.50086707420295, -0.1843601607065599
-0.2161442353012206, 0.5093592295860117, -0.20471528946179882
-0.191626427653976, 0.538401274702115, -0.2309228017603777
-0.1928878424519284, 0.5244828819925786, -0.22805494895442285
-0.19262699608736253, 0.6158097872327108, -0.2378595100895789
-0.19418404897902708, 0.6058864964852237, -0.23580445621049284
-0.19598254839262766, 0.6189458941749837, -0.23579346446591926
-0.19365698721539704, 0.6828034737224727, -0.24504653262077514
-0.18439600985316934, 0.6398982761699848, -0.2460119157318133
-0.18857099011819073, 0.6488918337155265, -0.24450131109116144
-0.18568637509852792, 0.6827367148118818, -0.24970777746065087
-0.1870350616183524, 0.5764226776358997, -0.23784402379170494
-0.1852567492729444, 0.5889200585405376, -0.2402413495512582
-0.18590642862334578, 0.5853224118477758, -0.23946570964444477
-0.1832551235379532, 0.5356308988789911, -0.23596906917538413
-0.1972867009062419, 0.5249998000468842, -0.22449643126671076
-0.2017170726212117, 0.5280237947221622, -0.22119296528633353
-0.20326215462851666, 0.5676380895583116, -0.22485607717796793
-0.20338117426894084, 0.5821702853994472, -0.226197537473667
-0.2072904502033363, 0.6192916042607048, -0.2266026296077033
-0.2257886882798562, 0.5634467447289827, -0.20102846554989912
-0.23090023741013596, 0.5509779887396832, -0.19243454014488062
-0.20879291200171465, 0.5450305126259171, -0.21710117204477633
-0.21271082744706693, 0.5936686636625764, -0.21900307088591026
-0.2118681264290545, 0.5846825647537774, -0.21893006293842066
-0.2134403875602473, 0.5972318138608613, -0.2186437749746295
-0.21411118872981072, 0.5959057379393778, -0.21785225960126756
-0.22127887585012668, 0.5549443037589129, -0.20547809654976884
-0.22719745582758966, 0.6128300297519025, -0.2047449690156339
-0.22210936793109518, 0.6333040058797904, -0.2132739472848487
-0.22199121698011293, 0.6330757688955574, -0.2133845655476726
-0.2204346498772935, 0.6000751588272728, -0.21173177043172522
-0.22093117159389833, 0.6006155680280632, -0.21126101563114513
-0.21391878865509267, 0.5659357770489069, -0.21497605619105858
-0.21114768628730593, 0.6387306601655096, -0.2252866840498073
-0.2128604407518457, 0.6421607993657731, -0.2240387055365598
-0.21010974172227212, 0.6320495708952705, -0.22541563745306592
-0.20863781957128436, 0.5774261982688673, -0.22108271520654962
-0.21035864628006845, 0.6119348955724078, -0.22314159463943498
-0.20908553043578376, 0.564911327047763, -0.21937351007616923
-0.21004562930466927, 0.5600316118945785, -0.21800160784242312
-0.19561117675550876, 0.5557588841354355, -0.22974697248102627
-0.19356299904487598, 0.5487219484036244, -0.23063759401556574
-0.19719315867338982, 0.590939815110739, -0.23210521647627758
-0.20649789914167058, 0.6879731832671875, -0.23623161032460183
-0.19838610858995623, 0.6363061258474338, -0.23605552470400323
-0.20311495964361037, 0.6854070646606903, -0.23845470638775193
-0.20493140783224603, 0.6401101665878586, -0.23109543670895974
-0.2090516344739386, 0.634139347646568, -0.22671725777575694
-0.20131651735107342, 0.6435800591194278, -0.23469280013192997
-0.1989810248541315, 0.7030101970122398, -0.24392634497798707
-0.197328174288705, 0.7148128472031876, -0.24691883327858913
-0.2037563222497327, 0.708328284738558, -0.24110773228689064
-0.21223063734530426, 0.6902781324181838, -0.23142387277664753
-0.2164931254370791, 0.6575890949179424, -0.22252871586594766
-0.21652016018477632, 0.668344369295777, -0.22413785445099915
-0.21506851272744684, 0.7156757979016476, -0.23295540878848145
-0.2123727026659685, 0.729410564006922, -0.23772714831750222
-0.21684461518772385, 0.7051267654965251, -0.2295617812417248
-0.22588875204321113, 0.713016483249724, -0.22116682519792125
-0.22454736495721356, 0.724222590717074, -0.22485576446065758
-0.22500035180526246, 0.6871549779425321, -0.2181291282058137
-0.2227004645520142, 0.6926801282382242, -0.22160291515893307
-0.22260299005679843, 0.685207628819498, -0.2204947606893989
-0.228128052445075, 0.776799188376911, -0.22476518560621217
-0.2329597890526117, 0.7561407499421204, -0.21767458277432766
-0.2322136845492005, 0.7556381016948178, -0.2186492193409266
-0.2115880540596207, 0.7709858799000422, -0.24408044873126974
-0.2146477238319798, 0.7478822139090173, -0.23865146364643008
-0.21582041115831757, 0.7177392898557535, -0.23261496479650254
-0.2164034030331453, 0.7163245933224117, -0.23185073020816607
-0.2163962930902668, 0.7424737988452776, -0.23638080555232865
-0.2087985731823798, 0.7634885036067276, -0.24575570130413543
-0.19913012579187903, 0.7501109114288079, -0.2509342265887233
-0.2214968577685688, 0.7516361138977885, -0.23288247194511533
-0.2136953152390415, 0.7933984216567165, -0.2431316760720394
-0.2135546021758306, 0.7961569681415468, -0.2431404595265365
-0.18891658782911408, 0.6310010391989315, -0.24230599059689029
-0.19419483759256878, 0.6268420432119557, -0.2379657690027361
-0.19441842395572928, 0.6453109228058587, -0.24005101069086163
-0.18388164340333416, 0.7027268000814676, -0.25343386560014025
-0.18426957190346566, 0.7325068920158961, -0.2571792084522166
-0.19351938098509205, 0.7460047020250962, -0.2540512578659926
-0.1839613731571711, 0.6405784601334232, -0.24632222520689911
-0.17767004407067716, 0.6331179905782267, -0.2488546648912579
-0.17972477700741818, 0.6156778606211639, -0.2458946567914957
-0.17352084833562725, 0.6150375824802029, -0.2491126514898357
-0.20705285853798827, 0.7415153425389858, -0.2441452124165978
-0.20815855440075262, 0.7064696472669831, -0.23764418264486925
-0.201307123111277, 0.7246631612818214, -0.2453748196854462
-0.1851360524300555, 0.6951707273914814, -0.25163001368172117
-0.1910536555532149, 0.6917338097000293, -0.24753111031782685
-0.19317759810497662, 0.7283308779739532, -0.2517126065122592
-0.20598875994504978, 0.7813128098069824, -0.24969383684235927
-0.19810880694829153, 0.7733701961530862, -0.254039744334871
-0.19269161609305727, 0.7720106624364176, -0.2572460923306211
-0.1869581403203489, 0.7473560486788391, -0.25770918619831784
-0.19399520769415152, 0.7913265943228163, -0.25770575177579624
-0.19800864459014866, 0.8040003738628797, -0.2543946527535153
-0.18246977417503782, 0.778885410391315, -0.26310658091092426
-0.18941863261189995, 0.7798236436871605, -0.25973197214203314
-0.1762508053108573, 0.6982775006419653, -0.25665034115030755
-0.17440449955530998, 0.7148209468104314, -0.25975878863458374
-0.17502797102268597, 0.7199595680082476, -0.2601503620105511
-0.1685477408987861, 0.751750082620249, -0.2666746588422665
-0.17239913221839248, 0.7620436075343886, -0.26606652371388034
-0.17516582204143388, 0.7745135547811254, -0.2661275428174457
-0.1787779538408276, 0.8027693162213014, -0.2648721168491998
-0.2724995401699657, 0.39106291233681134, 0.12614278069368862
-0.2710388286807779, 0.384230764175462, 0.1299011412499796
-0.273449874377789, 0.3763365575654546, 0.11610547758026918
-0.27120666112369884, 0.3542359265870041, 0.12142479732425285
-0.27084939803618996, 0.437102270302127, 0.1276985354280267
-0.2725754878504824, 0.42896733200347215, 0.1241857779569337
-0.2643698008076115, 0.3399586409703703, 0.1150931840332151
-0.2762664039333559, 0.4202476992195282, 0.10839248800260246
-0.27544391809081253, 0.43838453205147604, 0.11519892288500118
-0.2766198386962775, 0.4307814170084612, 0.10760883831666126
-0.27168831724684117, 0.3666602744806928, 0.1250238918125589
-0.27341416631703686, 0.3929558847875431, 0.12320932708811358
-0.2717826061357767, 0.37066970908116437, 0.12590774388285586
-0.27210867090485713, 0.3485511756733328, 0.09968347430876437
-0.2733349450664898, 0.36330379727090917, 0.10128757929929534
-0.27267937729935143, 0.35217286930226616, 0.09313530171049224
-0.2737356853646628, 0.36721524744785383, 0.09976641711433479
-0.2746516035705289, 0.4085176294639197, 0.11744473457142748
-0.2749553807040768, 0.4130188318812976, 0.11586733344538552
-0.27533974385097715, 0.43205113490641095, 0.11515059592282792
-0.27002706807922044, 0.4876894954357531, 0.1233851158858102
-0.27463223504138773, 0.47630790085866115, 0.11194786734732456
-0.2752476654722287, 0.45931415359369543, 0.11332605705767672
-0.27518022125872105, 0.5032190644526502, 0.0981220977940162
-0.2691064403252861, 0.5096911805919033, 0.11988814898513131
-0.27554595164004436, 0.4888987707431876, 0.10327864930361
-0.2759386296668441, 0.4961181009172251, 0.09734032340658583
-0.2773636802469434, 0.40196580080894295, 0.08960276888909273
-0.27706333044008513, 0.4077728745412253, 0.09717507030769587
-0.2770667854792316, 0.4191759353363568, 0.10262249810392714
-0.27552166044849274, 0.4845655062585855, 0.1048658168496399
-0.27484421826588, 0.4834642610262817, 0.10881515438225602
-0.2781321424659809, 0.4613858388953211, 0.09189376860209628
-0.2773118119091993, 0.47491794986750824, 0.09493406891443984
-0.27744894516860547, 0.4735975421854244, 0.09384978586983043
-0.27847062403076217, 0.47563061641456117, 0.0749540502703136
-0.2794172652710203, 0.4551981346002215, 0.06550956139919487
-0.27924900911909145, 0.4563537622335577, 0.0736185329828542
-0.27581390705792536, 0.5061564691643394, 0.08972543340890057
-0.27450215127088334, 0.5176547471856465, 0.0882824635444298
-0.27789392051072237, 0.4967474241504271, 0.0662989938243081
-0.2755462744028577, 0.525213106771754, 0.03788547682622877
-0.2780151831334206, 0.5004423011066068, 0.02155592353746269
-0.2773029480565, 0.5098707420164231, 0.054093880867683616
-0.27688573590203075, 0.5140562190190162, 0.05659753608190755
-0.27658719946464855, 0.5153045508404028, 0.05971178217036135
-0.27754344817876586, 0.5075129066778594, 0.04350181357309527
-0.27855806903684455, 0.4826702357543478, 0.029454199908296105
-0.2790071949426795, 0.46369840486852343, 0.030944811050776087
-0.2789281627462337, 0.4569503941879804, 0.021157107158440262
-0.2775374206462313, 0.5035912602807651, 0.061787851766425254
-0.2792194125717333, 0.46064404460439873, 0.0462357631786956
-0.279128376458138, 0.4642549584022475, 0.048377979328453925
-0.27913849040305144, 0.4600924779545269, 0.03812635601535848
-0.279261758674804, 0.46143782676484496, 0.051824215087319686
-0.2757686060773309, 0.38197590865891184, 0.0871697950963421
-0.27661441115277674, 0.39473016973341846, 0.09315028147456418
-0.2751367453429103, 0.3799009099993815, 0.09481657937885196
-0.2755216507912591, 0.381383655207202, 0.0905139896497589
-0.2784790280023951, 0.4349864285609123, 0.08727803366619827
-0.2779382187518442, 0.4184806586360277, 0.08827998634480105
-0.2780870410597074, 0.44156629486779747, 0.0970932136694816
-0.2742123931371956, 0.36429827100863277, 0.08050706098630524
-0.27514520930747194, 0.3722627812587701, 0.0739300287154108
-0.2763029096796624, 0.38577115774651793, 0.08038182355428436
-0.27339776090831724, 0.3546266733546776, 0.07529673990131053
-0.2786279347639348, 0.4681659557497715, 0.08146653956144873
-0.27784960577806583, 0.4819739044061959, 0.08403899670930817
-0.2770491223015057, 0.4884114180935628, 0.09086654312731088
-0.27766342025837665, 0.4018427496496057, 0.08439138007327798
-0.2785124904530622, 0.4245784882345564, 0.07108505286962064
-0.2783892895106278, 0.4219001798620684, 0.07545647669268726
-0.277175548857122, 0.4075893539571465, 0.02881886953335388
-0.27816222372274824, 0.4334691362279977, 0.027283678551732318
-0.2772708678454714, 0.40518172746777303, 0.03353396069206991
-0.27731007658780166, 0.40627341387128413, 0.03341025805884172
-0.27830908151630773, 0.4920806553441003, 0.05009919638775425
-0.2784185409361669, 0.48727067120734097, 0.050338725744030165
-0.27838166673503983, 0.49124867585981, 0.03924316449284326
-0.2784658485667727, 0.48641384305277935, 0.04473300458973135
-0.2792358596449129, 0.4632684838911575, 0.05916400265329368
-0.27822147604094993, 0.4896190898269632, 0.06399847156689623
-0.27853299009218324, 0.48447708797536226, 0.0586027907670629
-0.27773293279379574, 0.40363800987293386, 0.05344564072735384
-0.27769818558075227, 0.4087434374812646, 0.04496047246841793
-0.2778281855003195, 0.40890098371318373, 0.049967574094583106
-0.27902101343197566, 0.4399411994605996, 0.0548215903712891
-0.2793333724853212, 0.45289297964567127, 0.04323729282798906
-0.279081780681941, 0.44605563298437756, 0.04436664864925448
-0.2779991920235742, 0.42162773347135546, 0.03546780800609584
-0.2780248595418671, 0.42199789980733987, 0.03625472439133234
-0.2730614232968862, 0.3569143702016162, 0.02206055804678929
-0.2738705462129168, 0.36602092637231404, 0.023897521014479332
-0.2732022768692984, 0.3571120240359188, 0.02592716341915826
-0.27299710399263605, 0.35712397116291383, 0.019528469626466635
-0.26700690635316426, 0.34615519396700933, 0.04767639659494666
-0.27691068718260314, 0.3921727628036751, 0.07849584790882183
-0.27762189106900714, 0.3997154091182863, 0.07171768716060892
-0.27589616610784384, 0.3800949056760179, 0.06510532355080764
-0.2774071953398613, 0.39709517006079453, 0.06775947966769884
-0.2665372916615221, 0.3467200395580925, 0.02054129783385176
-0.2749497609697324, 0.37309736095707113, 0.03955116172924012
-0.27696606619379494, 0.39504829844952594, 0.04787753321278141
-0.2776315934247105, 0.4003824995823653, 0.05656966886919443
-0.27360953866563387, 0.3553646248663797, 0.0553348955891243
-0.27422658843112624, 0.3630012352960656, 0.043963104328163756
-0.27415482258975776, 0.36211467689754584, 0.04526387058929919
-0.2739407389465265, 0.35838557736152, 0.06379201676716999
-0.27926178608456115, 0.44948221940321165, 0.07846930605815466
-0.27886967884459013, 0.4340419163432555, 0.06548487832292514
-0.2792050343213066, 0.4428639230650359, 0.060018014562596464
-0.27929512322525274, 0.45045897483874664, 0.07830305056828346
-0.1745445430805399, 0.5725393402599541, -0.2444068846012708
-0.17969724573226886, 0.5907727358150032, -0.24346123917610624
-0.18208729464210696, 0.5943259252733241, -0.24255358699200563
-0.17625989455964813, 0.5417690558356593, -0.2405688458740622
-0.17957011703058876, 0.5853171619390121, -0.2430058469106809
-0.17423287488757572, 0.5182801050653966, -0.2381873896770873
-0.16660322283113632, 0.5717569848241506, -0.2473168299400769
-0.16404432323413132, 0.601003449736948, -0.2516472325177547
-0.17202156100286825, 0.5651950541771615, -0.24454415422458042
-0.17370843489793555, 0.5315260144431845, -0.24027179217373623
-0.17342761138825938, 0.5706450725870111, -0.244695670996576
-0.17591019731321628, 0.6441616269328463, -0.2509503074765132
-0.16739162340869918, 0.67308170225085, -0.2578083150424566
-0.17704204483739064, 0.6778804019015804, -0.2537822757308527
-0.1684130949598549, 0.6725640968684546, -0.25727996962211747
-0.16105408042481742, 0.676699836727882, -0.26081156792269233
-0.16447375718747936, 0.6651888870480931, -0.25822394526832937
-0.16049052083836363, 0.6382021714895697, -0.256989514813116
-0.16250510823448844, 0.5290385299899035, -0.2434696833913346
-0.16254101207794225, 0.5434717627669944, -0.24521650617217317
-0.1611608719886248, 0.5917615317515403, -0.25153234683422226
-0.1581105383350147, 0.5963350867111379, -0.25306748607248686
-0.15886647690692765, 0.5527538756443786, -0.2474731643433079
-0.1466522370126757, 0.552331026050158, -0.25053287388332224
-0.15221353136116864, 0.5881912559511697, -0.25379027145489524
-0.15522460565275142, 0.5619587026509001, -0.24965690649802155
-0.1570475961480285, 0.5580088339076414, -0.24869587495922962
-0.15023972794081764, 0.5515060729273347, -0.24953921876078655
-0.1528164609502615, 0.6291263914859115, -0.258508824401517
-0.1523815149675795, 0.6250833884900063, -0.2582037160280347
-0.16685120624707617, 0.6068281040618334, -0.25115073096989743
-0.1661756147336995, 0.6202973649139296, -0.25283279746963977
-0.1661206434350584, 0.6263995334024308, -0.25349517042789554
-0.17098610649865803, 0.7406398533118944, -0.2644555372034023
-0.16730081189443866, 0.6897623438619945, -0.2597871006626722
-0.17273274381014686, 0.7268478732134609, -0.26202730771488175
-0.15825589858255995, 0.7295463819411131, -0.2683142770218655
-0.15741304639266795, 0.7088460593040933, -0.2661335578695916
-0.1548279868174693, 0.606856381464796, -0.2553278199682358
-0.1545022017488273, 0.6128688492482532, -0.25610138562377593
-0.15513837597433033, 0.6113755941859683, -0.2557332400096382
-0.1473115023992396, 0.7461517835921243, -0.27406233201922403
-0.14948031139435644, 0.8006715478281268, -0.27666622208167324
-0.1686321625645567, 0.7738354374289536, -0.26872079855779973
-0.16356006774908666, 0.7625633338549238, -0.269717659421264
-0.1577328611919679, 0.6844835682450128, -0.2630657382140856
-0.15934813313848092, 0.6991131629480979, -0.2642110380338524
-0.15520289290163194, 0.7726986906822938, -0.27379180906550293
-0.1543016367195904, 0.6820692225363068, -0.26400290825431694
-0.1534469199358213, 0.6966608024224419, -0.2660836198993916
-0.1700672895589893, 0.8078623600922135, -0.2684629487734221
-0.16229269040312175, 0.8006669508220857, -0.27189054360529624
-0.1606726265696909, 0.7504916242145847, -0.2697354024642532
-0.14494341334646987, 0.8022493035683351, -0.27806135577566854
-0.1436809768576293, 0.7545502730782483, -0.2759854569427096
-0.13687033542997012, 0.7687770566797693, -0.27931146351605685
-0.1463601210064792, 0.6657532684466302, -0.26469499787456785
-0.14712923974683295, 0.6182648502259632, -0.25888482357913684
-0.1515665090816823, 0.6204619738247292, -0.25793193716746404
-0.1470631636297108, 0.6614989603552237, -0.26400127899939696
-0.14657368388955022, 0.6603659240636695, -0.26400136018017517
-0.14065984330872852, 0.6205739456172905, -0.26092415806881203
-0.1476222893386882, 0.7269196736094767, -0.2717446678768403
-0.14797466722653418, 0.7363478377347623, -0.2727662561976036
-0.14723085434224162, 0.7671305007595106, -0.27599537176158295
-0.14614858000051337, 0.7002151679056108, -0.26898431259795524
-0.1339568265894306, 0.6795580448527866, -0.27019821129095395
-0.1394510831608559, 0.6892335980555415, -0.2696959601302136
-0.13765433083408263, 0.6985965571790913, -0.2713920049398515
-0.12652180701441043, 0.7746937084306813, -0.28279979664815114
-0.12483169237508879, 0.7854462371023366, -0.284218882744078
-0.1265389844283178, 0.765661107478095, -0.2820096130893964
-0.1162227371753841, 0.6788959441754219, -0.2748284631133163
-0.11407401098631673, 0.6893636485974792, -0.2766539355919141
-0.12384888451500732, 0.6915038347899491, -0.2744523300312166
-0.12183311214359097, 0.6918210555342459, -0.27499937952762793
-0.13093517557526332, 0.8064430023715028, -0.28209996506097623
-0.11603955135248184, 0.7454208720957426, -0.28283802260498314
-0.11667772924699614, 0.7621134964545807, -0.28416946236848345
-0.11693698978009764, 0.7602747090986337, -0.2839412500807527
-0.08031956858364736, 0.7559168441046384, -0.290839852093265
-0.0848934788535999, 0.7759092902527076, -0.2918615450594085
-0.08664615408402924, 0.7497294659599487, -0.28930058321219004
-0.09696583272241249, 0.807709319622518, -0.29014664100855836
-0.09361377070025151, 0.8117761558378664, -0.290694325658839
-0.10612296268323396, 0.8042166895704095, -0.2884225047241431
-0.10696403992164435, 0.7551439240418951, -0.28585994184602914
-0.10711610118541726, 0.7569285434009083, -0.2859875564195309
-0.10271955803247755, 0.7757309797933752, -0.28851798898129205
-0.0879507580226772, 0.7344539010512786, -0.28757025378205553
-0.08515385457610039, 0.6815518407116397, -0.28159042235558096
-0.08406808546097914, 0.7052065061563233, -0.2846450011868481
-0.08708008460841929, 0.6858729997587217, -0.2818021874252008
-0.10142709598697883, 0.7859820176389523, -0.2896511114648984
-0.09424743556420713, 0.7743756149077254, -0.2900284870466552
-0.08944940583193287, 0.7799652880556764, -0.291429923564699
-0.12215169508144297, 0.7843204219412299, -0.28478456048461886
-0.11301242635758742, 0.7547908099174903, -0.28441947064122114
-0.11854154545951946, 0.7775623521675117, -0.28506432726839104
-0.09826160362175543, 0.6971481745198458, -0.2810247949122766
-0.10543998425103869, 0.683727548913313, -0.27791542075842546
-0.10620560518538814, 0.7041956888902656, -0.28027265073597757
-0.09427626043515568, 0.689334791128332, -0.28087689550123435
-0.13593530907814333, 0.5606244300709817, -0.25451495413418973
-0.1387189749143651, 0.547197659026718, -0.2519384774452275
-0.1417885337511723, 0.5632713844341714, -0.2532628459638544
-0.14731686206204742, 0.5723110702770753, -0.2529623999378259
-0.1410319367664609, 0.5555569666138513, -0.25243021994563913
-0.12719012277361774, 0.5205558770102141, -0.2458486316119475
-0.13736625877367412, 0.6567520199168588, -0.26632481115082945
-0.13259792597572612, 0.6560762473248005, -0.26770459014880144
-0.14131089481918357, 0.6537203208505653, -0.26473716534589453
-0.13736685764944495, 0.6508828994584381, -0.26559528262980514
-0.13359939484518701, 0.6640426170658668, -0.26838713081273324
-0.12955440701178897, 0.5494693556885013, -0.25448706840417645
-0.13427632264645162, 0.531722242834132, -0.25094380328838495
-0.1243156787178843, 0.5368808271108761, -0.2539788489074405
-0.13439681420259653, 0.5338139605177946, -0.25120335135255334
-0.1285998807917895, 0.5669031075894677, -0.2571076413040614
-0.1313486648267853, 0.711832042637065, -0.2749018333594838
-0.1317085456250738, 0.717245594361481, -0.2754476544939367
-0.13627723234528377, 0.7319066935325084, -0.27584656866981117
-0.13631175453512775, 0.7395757288143711, -0.2767625305256982
-0.128614538633451, 0.6286054513308901, -0.2652948682565778
-0.13226131863687146, 0.6167369655456866, -0.26291678392511597
-0.13110892462750978, 0.6053906537813323, -0.26174332138907763
-0.12019158914510705, 0.6110887299321731, -0.265058722370619
-0.12818552918421536, 0.6662689877488929, -0.270198960463648
-0.084550499515153, 0.6019864488593404, -0.27118374787562766
-0.07599055709268424, 0.5977245451602791, -0.2720455315927339
-0.08478796481768726, 0.6276817802963757, -0.27457525772788655
-0.08227755589272417, 0.6292206562982728, -0.2752003941956082
-0.0811231800337901, 0.6389086315124816, -0.27668703728452654
-0.08862090841298698, 0.6036023298667205, -0.2707191072241083
-0.09964561977748548, 0.7391155492827093, -0.28585041094595576
-0.10292695680788329, 0.7258128258515915, -0.283586544282772
-0.0920806972541103, 0.6923661316570316, -0.2816807813660612
-0.08966692606896015, 0.7244436293424523, -0.286049539228414
-0.10617331149894534, 0.6440600956464961, -0.27260099637011004
-0.10032557131773948, 0.6098925578558001, -0.26925724558866315
-0.106360184098803, 0.6023301710226612, -0.2670417395823507
-0.11058668678043453, 0.6122777976772318, -0.26750713155251354
-0.10589923397889105, 0.64920443244698, -0.2733368628721333
-0.1122066336745634, 0.7167771930379181, -0.28045573676022884
-0.12382713446760078, 0.7309820050396006, -0.27929725396361005
-0.11817862123353232, 0.7229650088202363, -0.27972495938303177
-0.10976157719979708, 0.7094489497364398, -0.2801712065859022
-0.11145587913061705, 0.7399924002115345, -0.2834685442290532
-0.09124116551403022, 0.5519124894483991, -0.26316683889251846
-0.09026211646382142, 0.5700812588792523, -0.265854750326982
-0.09295914511668317, 0.5366045926308747, -0.2607438268197294
-0.07879878534691862, 0.5262202602776563, -0.2618173424640623
-0.08525179598218138, 0.5431409701515919, -0.2630148626776379
-0.10111161879208842, 0.6499773266573711, -0.27441131339734415
-0.10674272089903342, 0.668166559949953, -0.2756812227978973
-0.09825000270440709, 0.6558044576531422, -0.27576988598051855
-0.10143566857015923, 0.6601726605487563, -0.27570087381837566
-0.0925217326834017, 0.6348286017000795, -0.27414926344941404
-0.11052234795702925, 0.5206092346058013, -0.2516926162824435
-0.11563896255200498, 0.5609831690550491, -0.25936028795214416
-0.11691821772270353, 0.5852118282450745, -0.2624135315723588
-0.11754249587325613, 0.5512680884686152, -0.25756093533919333
-0.11480621681208056, 0.5667945564941153, -0.2603638265490743
-0.12441930912488254, 0.5794777290481752, -0.2598337583808886
-0.0922407971747745, 0.592443053354363, -0.2685645971642949
-0.09828735204957254, 0.5533937351132119, -0.26197882869630157
-0.09682049861751232, 0.5504276006484483, -0.26186693594576693
-0.09442046843773089, 0.5905180274282724, -0.2678605652094776
-0.09156901401641654, 0.5855838261647417, -0.2677573627407653
-0.1193684036688831, 0.6432815185347094, -0.2694086537824315
-0.11808560678526342, 0.6351362451336853, -0.2686666441365144
-0.11475891101471515, 0.6648756949750099, -0.27339980969419536
-0.11266612308943096, 0.6269656947842883, -0.2689665509243438
-0.11759617141534545, 0.6214987178261724, -0.2670052920105465
-0.10451711797984914, 0.5592287006167812, -0.26151059737190774
-0.11208343611471205, 0.538141338110423, -0.25696259598501425
-0.1110356026137345, 0.5238759404812567, -0.2551888339388097
-0.09935204981737941, 0.5233721134525187, -0.25758703140193384
-0.11400001307020295, 0.5264395579263734, -0.2549210205478654
-0.25147835685010494, 0.5766411155621474, -0.15771091243280927
-0.25071111769708565, 0.5648572891975154, -0.15824624814106317
-0.2509708494585769, 0.5850004026645452, -0.15986276080149786
-0.2616333653196388, 0.5845411440331382, -0.12668566728866026
-0.26004176357995146, 0.592618235560613, -0.13324815937215806
-0.26103817563968396, 0.5854934850267052, -0.129109859271371
-0.2526560393946935, 0.5418617278280927, -0.1508348831888856
-0.2535081262196267, 0.5317215824549919, -0.14756990377913876
-0.257996963709031, 0.5671964433930482, -0.14068915011940833
-0.2605894541354594, 0.5545293968136757, -0.13013078902368236
-0.2597346639486499, 0.5369606788756721, -0.13134581711187532
-0.26248713147376407, 0.5489243920867533, -0.122818577630217
-0.2636522731103352, 0.5785778476504422, -0.11712503561642905
-0.26446232088443944, 0.5601969926552546, -0.11370348824633361
-0.26543639892967014, 0.5414957895427652, -0.10912098126513706
-0.2619592064703823, 0.5092315709837968, -0.12015244247290718
-0.2611093924212391, 0.49039383068291065, -0.12091548471601452
-0.2617271339162174, 0.492108364893027, -0.1191748655223129
-0.26044831924537515, 0.4907562271506908, -0.12299573089186651
-0.2523565313106808, 0.48699576560112146, -0.14453348134426594
-0.25133319548116384, 0.5124499252413296, -0.1502953390937774
-0.2517728641428727, 0.5127844413132003, -0.14928338658096588
-0.25931217766277775, 0.4937840356345255, -0.1270045506818457
-0.2580932066901044, 0.4901681843216461, -0.13074926392334224
-0.26202978606931876, 0.5175747963899178, -0.12083472584377233
-0.2595872962498171, 0.5025665013351736, -0.1272628292636745
-0.25803507335415565, 0.47030271296665815, -0.12832844458839032
-0.2607579328463056, 0.45514440850532906, -0.11687713432317082
-0.2589082868337523, 0.44992370830675493, -0.12147681100628567
-0.2532970473656722, 0.41781031129286156, -0.13104983299648754
-0.25367879808522165, 0.414155265100159, -0.1294875511302879
-0.24947674388128355, 0.43946861256242004, -0.14413644122632957
-0.25048232403833603, 0.4467883402212212, -0.14291527114714128
-0.2539944499333009, 0.4066553226641613, -0.12706572185282256
-0.24974445622173844, 0.38008726118690334, -0.13024948730274397
-0.24074162622752363, 0.34638460643006713, -0.1265152036651287
-0.2544058778469842, 0.3949591400014809, -0.12215665420404087
-0.2543826961225151, 0.4013005593119977, -0.12428724401264295
-0.2564859705998856, 0.39715038175265055, -0.11672396907764691
-0.25447520070127116, 0.353352126366575, -0.09943500967859577
-0.25672910342426214, 0.3727399994261007, -0.10761119553532231
-0.2605268254961601, 0.39757727026392176, -0.10357701782670914
-0.25856374107500024, 0.3920912961676284, -0.10860567871326024
-0.2603409652476229, 0.43004513329204763, -0.11330648766070223
-0.26082016192301416, 0.45213291589338056, -0.11610431631269101
-0.2575274343759108, 0.4156442377821032, -0.11890117546394566
-0.26385851787565673, 0.5176758708102005, -0.11440878527161119
-0.2647927512090019, 0.5047638704183072, -0.10899670326056204
-0.2659496795689305, 0.5084916946542847, -0.10440212460539203
-0.26436320117907414, 0.5077929400844808, -0.11117431602642225
-0.2648844404222883, 0.4644517130767243, -0.10453279483858405
-0.26507129165643223, 0.4601737036258012, -0.1028177260043009
-0.26542084787069314, 0.45381002475023635, -0.09999301753484618
-0.2572580830911075, 0.3929750700026652, -0.11305189744105651
-0.25163257686249435, 0.3657083839194602, -0.12081922312154608
-0.25269993049541034, 0.3672063044453576, -0.11811178836617761
