-0.8667385416962398, 0.47115379571914673, 0.24235298541462869
-0.8796492358582868, 0.47115379571914673, 0.21532698203416267
-0.8147854063183271, 0.471153753996718, 0.2999832179923316
-0.8065316970596489, 0.47115373751599204, 0.3350237321188669
-0.8442852299464954, 0.47115379571914673, 0.28038164859341685
-0.746796990045739, 0.4711537957191467, 0.35263159722967063
-0.7671294108815485, 0.4711537957191467, 0.37271386580593047
-0.8029745006687845, 0.47115378971064814, 0.30423777088115295
-0.6922703892513077, 0.4711537835021734, 0.3937570073430615
-0.6797510012655708, 0.4711537955739443, 0.4326406168064212
-0.692005314859935, 0.47115379571914673, 0.42460810845630925
-0.7187057662048969, 0.47115379571914673, 0.38657976384653503
-0.7293260174713898, 0.47115379571914673, 0.40356539076276954
-0.614997768974434, 0.471153778934007, 0.43519601389964857
-0.6007296111409672, 0.4711537957191468, 0.4889809495794193
-0.6240099882814958, 0.47115379571914673, 0.44783692846965684
-0.6544863079370191, 0.4711537642573084, 0.418364322298429
-0.6650298151412193, 0.4711537732271941, 0.4320800224550223
-0.641783994067884, 0.47115379205802393, 0.46455299544035084
-0.5224093019262307, 0.47115379571914673, 0.4826271082465131
-0.5518670406631079, 0.471153772744683, 0.47704810636656797
-0.5258507033517229, 0.47115377353564825, 0.5267005452422986
-0.564978320434177, 0.4711537383232026, 0.48877199945129146
-0.5603159833092478, 0.4711537643444415, 0.46948025001206023
-0.5794184807385219, 0.47115376217833427, 0.4898823427092911
-0.44226936539411, 0.47113271934597456, 0.5619489503368562
-0.427821536580754, 0.4711537957191468, 0.5083859772061172
-0.43405864341258066, 0.47115379571914673, 0.5106903891399144
-0.44941274472443804, 0.47115379571914673, 0.5539992013070734
-0.4697127029285126, 0.4711537957191467, 0.49156661345887886
-0.4752499010155088, 0.4711537957191466, 0.5266389856267281
-0.4852393816995373, 0.47115379571914673, 0.519320840545521
-0.4967389766343638, 0.47115379571914673, 0.5086675431888477
-0.3388887469355846, 0.47115379571914673, 0.5377782640954597
-0.3509596106487475, 0.47115379571914673, 0.5392826393385244
-0.32286522399077316, 0.47115379571914673, 0.5618320297330198
-0.33726063236182335, 0.47115379571914673, 0.565481885335159
-0.3578788653032432, 0.47115379571914673, 0.5825704822932501
-0.3702257885411005, 0.47115379571914673, 0.5679113318766554
-0.38607222890849313, 0.47115379571914673, 0.5435080820913376
-0.4153293550942439, 0.47115379571914673, 0.5097672546844988
-0.4129748635752569, 0.47115379571914673, 0.5612314338433592
-0.23175417655169345, 0.47115377347564447, 0.5621189366443322
-0.22495264114179464, 0.47115375133825627, 0.5444033522623707
-0.23751453892638563, 0.4711537696461018, 0.5475041917668397
-0.2578123684737403, 0.4711537837467826, 0.5634005159301319
-0.24869187639047124, 0.4711537788877792, 0.5848726487783498
-0.3064464146004796, 0.4711537873237698, 0.5344478792270461
-0.29597603747170587, 0.4711537787584169, 0.5474808127619573
-0.31476374126823864, 0.4711537911057051, 0.5608419214478588
-0.28701861990276506, 0.4711537583999562, 0.5973740812707318
-0.1891748715889, 0.47113625992841635, 0.6206018202237901
-0.11589730009608473, 0.47115379571914673, 0.5815869795717801
-0.1562962557250769, 0.47115379571914673, 0.5539493192816065
-0.11493760219546069, 0.47115379571914673, 0.6249063838161697
-0.13050298636936822, 0.4711537957191468, 0.6023621103697621
-0.13244946879041963, 0.47115379571914673, 0.6194130436458433
-0.16716320477221078, 0.471153792296564, 0.5723156240710525
-0.19750717634604764, 0.47115375792157266, 0.5541252540655723
-0.19981381885694133, 0.4711537817710936, 0.6000222332724783
-0.21585320566062233, 0.4711537537825229, 0.5613739221963113
-0.21114249877631114, 0.47115374570952395, 0.5513395835213661
-0.02491065440466457, 0.47115379472776175, 0.5993211823295477
-0.01816713277731871, 0.4711537765356091, 0.5851246732964367
-0.012362284184552742, 0.47115379571914673, 0.6279434753240802
-0.036173655288184024, 0.47115379571914673, 0.6301196861977256
-0.019101353693384455, 0.47115379571914673, 0.6298176772858057
-0.06270104307436321, 0.47115379571914673, 0.5721177556106125
-0.06399446442785467, 0.47115379571914673, 0.6083426473598192
-0.0929503044188611, 0.47115379571914673, 0.6020592906278545
-0.10122700887975003, 0.47115379571914673, 0.6137844903610952
-0.10189758650701608, 0.47115379571914673, 0.5891923791173955
0.09188507212549418, 0.47115379571914673, 0.5862465514161477
0.06422437642369272, 0.47115379571914673, 0.5640534164518256
0.09146379595697562, 0.47115379571914673, 0.549962339328592
0.05905042204767107, 0.47115379571914673, 0.6264495287647812
0.06526910821937247, 0.47115379571914673, 0.5893774840856174
0.01366556666028566, 0.47115375586724295, 0.5777587725184574
0.01765096805500522, 0.4711537603121926, 0.5809212119594875
0.04197236720472009, 0.47115378743884284, 0.6061651639630948
0.038600437186385984, 0.47115378900471416, 0.6222338423279479
0.04086869767224322, 0.471153788355739, 0.6212920608082025
0.19393739108342198, 0.47115379571914673, 0.5551180890939291
0.203907888753944, 0.47115379571914673, 0.588693224745086
0.19308140218340242, 0.47115379571914673, 0.5618785501094479
0.17535213775562838, 0.4711537761297087, 0.5962252862003974
0.1807602461863207, 0.47115378713123646, 0.5891149390710844
0.14380808263457973, 0.47115376958606114, 0.5791357913734202
0.1419477607835801, 0.4711537592138681, 0.5930327288210784
0.12025751990086339, 0.47115377731715813, 0.5706882017920656
0.13616644092806834, 0.4711537583592441, 0.6032740542369073
0.14027496761277475, 0.47115375375911983, 0.6136040183248784
0.28780310619695004, 0.47115379571914673, 0.562381389071694
0.29055285899619987, 0.47115379571914673, 0.5608921959789648
0.27756308802880514, 0.4711537957191468, 0.534127132974388
0.2607467494715988, 0.4711537957191468, 0.5606958579786188
0.2612826479752082, 0.47115379571914673, 0.6008155340115097
0.2575715738348824, 0.4711537957191468, 0.5696788883618292
0.24704034798844063, 0.47115379571914673, 0.5721506755164795
0.210670477430389, 0.4711537957191467, 0.5888768972640688
0.2324854648387331, 0.47115379571914673, 0.584543989677946
0.2169994685333302, 0.47115379571914673, 0.5876287680816393
0.39044982986998333, 0.47115379571914673, 0.5360094097497883
0.40828460487335055, 0.47115379571914673, 0.5545995959446478
0.37602986786998516, 0.47115379571914673, 0.5731229375159715
0.3689951876158125, 0.47115379571914673, 0.5783115116792114
0.3442191869559804, 0.47115379571914673, 0.5299156352675018
0.3326678152854371, 0.47115379571914673, 0.5455715284667594
0.32381556086900887, 0.47115379571914673, 0.5703917014454398
0.33043109785026215, 0.47115379571914673, 0.5594062691539078
0.34628518017489984, 0.47115379571914673, 0.5710121788873546
0.4930361875977937, 0.4711537957191468, 0.49296699021762636
0.49614296193709884, 0.4711537957191468, 0.48705955665866346
0.47039563112672267, 0.47115379571914673, 0.5230018985897127
0.44242174590318356, 0.47115379571914673, 0.5172853621302982
0.43542624352782916, 0.47115379571914673, 0.522116475795313
0.423440929021106, 0.47115379571914673, 0.5591993016892897
0.4152374034090521, 0.47115379571914673, 0.5466847288152714
0.5450938311857603, 0.4711305731865959, 0.5170891254026023
0.5678722155231003, 0.4711537957191467, 0.4717894441337703
0.5756536520929412, 0.47115379571914673, 0.4867340348452494
0.5492014516414963, 0.47115379571914673, 0.49995902934812747
0.5442389285592198, 0.4711537957191467, 0.4726620800850175
0.5178297230225285, 0.47115379571914673, 0.5052227596519332
0.5162930403532848, 0.4711537957191467, 0.49237273392239966
0.6468809706680718, 0.47115379571914673, 0.42208147545511543
0.6514746808322001, 0.47115379571914673, 0.4206115113165531
0.6364650615055335, 0.47115379571914673, 0.43241263022590004
0.6218534164342051, 0.47115379571914673, 0.4186409286795989
0.5945378980800726, 0.47115379571914673, 0.4441739820084779
0.5998338054563546, 0.47115379571914673, 0.45453568437784947
0.7090526465467724, 0.47115373831787966, 0.3656672156705764
0.7169156663299208, 0.4711537645492171, 0.39226252177365206
0.6935818829550637, 0.47115374756600337, 0.3962011396700481
0.6642311437737067, 0.4711537956368696, 0.4441061387864455
0.6671099239627092, 0.4711537909085756, 0.44560197847793764
0.7754043609656746, 0.47115379571914673, 0.3493668362448829
0.756956612426599, 0.4711537777341429, 0.3608299397462923
0.754754520477771, 0.47115378960210497, 0.37427734225111753
0.8359188493175378, 0.47115379571914673, 0.27018231675483567
0.8219899698833981, 0.4711537957191468, 0.3054813563683706
0.7994593193075555, 0.47115379571914673, 0.3072113101860119
0.8809541572970103, 0.47115379571914673, 0.21667570166959926
0.9070216955223852, 0.47112500262881446, 0.1825300814645862
0.9302046892785861, 0.4711302258099291, 0.11770882039139485
0.9395762038338741, 0.4711537957191468, -0.05405033137477064
0.9825100560197787, 0.4341277480125427, -0.0522041501182154
0.9693398439893249, 0.4341277480125428, -0.052484652229575025
0.9777031811843038, 0.4341277480125427, 0.015180423715712928
0.9676564858418297, 0.4341277480125427, 0.09118310830959263
0.9333736053911821, 0.4341277480125428, -0.1730650555822409
0.9524259280259972, 0.4341277480125427, -0.13971227751839982
0.9622606601585255, 0.4341277480125427, -0.04669057413359259
0.9545254963414237, 0.43412774801254267, -0.005896151745731678
0.9406510466612684, 0.4341277480125427, -0.01951165320635203
0.9389637384327923, 0.4341277480125427, -0.07830738693601547
0.9356843979687739, 0.4341277480125427, 0.04656349354891743
0.9511074900068868, 0.4341277480125427, 0.05387749933438117
0.9534960698179868, 0.4341277480125427, 0.07833883586994612
0.957422602789684, 0.4341277480125427, 0.11805069760748238
0.9415311161198059, 0.4341277480125427, 0.1482107243512922
0.9484421902579746, 0.4341277480125427, 0.10073294473057598
0.8980088961461244, 0.4341277480125428, -0.18624213207377913
0.9049023131936146, 0.4341277480125427, -0.20000257291833887
0.92037385829759, 0.4341277480125427, -0.2112532189009371
0.9134729313743857, 0.4341277480125427, -0.21694602883900027
0.9209921488932007, 0.4341277480125427, -0.13162785555127263
0.9284710634972648, 0.4341277480125427, -0.06363930757001328
0.9252045268457976, 0.4341277480125427, -0.09158974174664962
0.8964090815220623, 0.4341277480125427, -0.010722706162798952
0.9064820518109262, 0.43412774801254267, -0.006522194542493079
0.9098419504558473, 0.4341277480125427, -0.11970545091795605
0.8976077175775898, 0.4341277480125427, -0.1391850269650372
0.898458872403503, 0.4341277480125427, 0.025619201642332553
0.8950434548525042, 0.4341277480125428, 0.00978186209705665
0.910217013530629, 0.4341277480125427, 0.050498582973074246
0.9121175800301765, 0.4341277480125427, 0.1294226543592251
0.921555002255186, 0.4341277480125427, 0.016463784850691603
0.9293837406904808, 0.43412774801254267, 0.06883720255744587
0.923981063180298, 0.4341277480125427, 0.0846503200117169
0.928476741735085, 0.4341277480125427, 0.17535277430075516
0.9287179175707243, 0.4341277480125427, 0.13128879640413504
0.9014047464181383, 0.4341277480125427, 0.22725552660270518
0.8935304103129463, 0.43412774801254267, 0.21952943892218985
0.8978882146193179, 0.4341277480125427, 0.18481953268823006
0.8366621923959566, 0.4341277480125427, -0.24297992076846886
0.8365590590572228, 0.4341277480125427, -0.25616985549888815
0.8489584351894175, 0.4341277480125427, -0.21567456875607177
0.8606799241288182, 0.4341277480125427, -0.16657300904582223
0.8650806339934549, 0.4341277480125427, -0.24042140059378012
0.8657181891847664, 0.4341277480125427, -0.19838218357497692
0.8736550080935928, 0.4341277480125427, -0.1936166731760705
0.8841797041222517, 0.4341277480125427, -0.06617714602965309
0.8810411315485391, 0.4341277480125427, -0.08154208379218862
0.8684595321690729, 0.43412774801254267, -0.12291362771963243
0.8802123838114551, 0.4341277480125427, -0.10912324846935756
0.8802015726271453, 0.4341277480125428, -0.08682417992695718
0.8543190711531723, 0.4341277480125427, -0.053491334618786426
0.8453877465021569, 0.4341277480125427, -0.044796948676571295
0.8653969735982749, 0.4341277480125427, -0.00461731284946183
0.8433465230250674, 0.4341277480125427, -0.07156232576133839
0.842016013030483, 0.4341277480125428, -0.0980413947219946
0.8593638276239052, 0.4341277480125427, -0.13088986881010692
0.8602114248076287, 0.4341277480125427, 0.005483303311202147
0.8464353401625263, 0.4341277480125427, 0.03535075820944385
0.8502712903597132, 0.4341277480125427, 0.02294433874279457
0.859775117660709, 0.4341277480125427, 0.062296476724393535
0.8632237893006874, 0.4341277480125427, 0.15213739905311033
0.8674193792874738, 0.4341277480125427, 0.10714625043520323
0.8663161155703132, 0.4341277480125427, 0.024633442309042568
0.8700960057900131, 0.4341277480125427, 0.059249649561506884
0.8854355343427276, 0.4341277480125428, 0.109040665180828
0.8846715312588508, 0.4341277480125427, 0.0753769915228808
0.8826792251035284, 0.4341277480125427, 0.24279766996320973
0.8859026146440145, 0.4341277480125427, 0.23438847916219088
0.8750328284172944, 0.4341277480125427, 0.19768551704695292
0.8444945880785419, 0.4341277480125427, 0.27292280833275506
0.8588561603198436, 0.4341277480125427, 0.21989291591459348
0.8505367558557428, 0.4341277480125427, 0.2183978994649575
0.8477997885723323, 0.4341277480125427, 0.1977738757751632
0.8381117228104396, 0.4341277480125427, 0.20476382916184488
0.7800185622001242, 0.4341277480125427, -0.3128068264031893
0.7833409750031539, 0.4341277480125427, -0.2615822928014651
0.7801552211479954, 0.4341277480125427, -0.3113573967730134
0.7999320261485922, 0.4341277480125427, -0.24091749831191475
0.7764873978787952, 0.4341277480125427, -0.21947810892191308
0.8291208328664833, 0.4341277480125427, -0.29641765221440475
0.814090999205472, 0.4341277480125427, -0.2527562662013798
0.8157816156624602, 0.4341277480125427, -0.25241387749405
0.8303218537482746, 0.4341277480125427, -0.2447913316053463
0.8247980255932286, 0.43412774801254267, -0.27307961477519127
0.8131442877291626, 0.4341277480125427, -0.03303312241018729
0.8353997322575919, 0.43412774801254267, -0.10781225016598882
0.8313653565179027, 0.4341277480125427, -0.05234711052376487
0.8356790773553764, 0.4341277480125427, -0.0854654628843883
0.8137103547782122, 0.4341277480125427, -0.04828911200104898
0.8145294505493437, 0.4341277480125427, -0.1666464547250726
0.8264495566057396, 0.4341277480125427, -0.15585245763952896
0.7916724901407801, 0.4341277480125427, -0.04317383223330577
0.7873686168554046, 0.4341277480125427, -0.035054186934598046
0.783118876623365, 0.4341277480125427, -0.0378222596905309
0.8051510645068322, 0.4341277480125427, -0.11849683116366208
0.7835583375832594, 0.4341277480125427, -0.16372072189240952
0.7842841021406348, 0.43412774801254267, -0.08095662807824446
0.7771082090633963, 0.4341277480125428, -0.2009896968440755
0.8036319982430395, 0.4341277480125427, -0.1905981544860791
0.7849397153082458, 0.4341277480125427, 0.03114014538517346
0.7789044919576154, 0.4341277480125427, 0.10793534256365439
0.7844053127635809, 0.4341277480125427, 0.03556935914856972
0.7736171311490647, 0.43412774801254267, 0.15220090968608524
0.7913916622839503, 0.4341277480125427, 0.19295063549422914
0.7818313154104083, 0.43412774801254267, 0.1602805990128303
0.8006119731040269, 0.4341277480125427, 0.14670064622841236
0.7944543843614258, 0.4341277480125427, 0.10932938150624727
0.8184145408140739, 0.4341277480125427, 0.03160483478312727
0.8162338495274755, 0.43412774801254267, 0.0980770178554641
0.8104376198779062, 0.4341277480125428, 0.10018061606371756
0.8326204704415385, 0.4341277480125428, 0.16080391875696928
0.8224519094451495, 0.4341277480125427, 0.13333670591791102
0.8219331936366011, 0.4341277480125427, 0.09770198235771031
0.8130772362414019, 0.4341277480125427, 0.30011628801240575
0.831419964081162, 0.4341277480125427, 0.2037523982990793
0.8343173157704715, 0.4341277480125427, 0.2554560471635179
0.8064793710250465, 0.43412774801254267, 0.2361395453735252
0.820573983614048, 0.4341277480125427, 0.22212632700268456
0.7898727415963234, 0.4341277480125427, 0.29818735450841827
0.7821794962319459, 0.4341277480125427, 0.33586059071520147
0.7997249622406062, 0.4341277480125427, 0.2480118290513438
0.7970237198517242, 0.4341277480125427, 0.22859690564525154
0.7814770011451221, 0.4341277480125427, 0.29014389722363654
0.7796830975471218, 0.4341277480125427, 0.2902012977477573
0.7285664326553201, 0.4341277480125427, -0.37243705007662853
0.7164866077575738, 0.4341277480125427, -0.33759643459884114
0.7187690791708489, 0.4341277480125427, -0.3861976025310584
0.728002681988045, 0.4341277480125427, -0.3716266122798947
0.7268231251470337, 0.4341277480125427, -0.3523397731468273
0.7285019202342282, 0.4341277480125427, -0.3359589731752342
0.7350105243087559, 0.4341277480125427, -0.3684971237077414
0.7211033256470274, 0.4341277480125427, -0.2533372739051355
0.7449791118283828, 0.4341277480125427, -0.33844766718975794
0.7435335568703808, 0.4341277480125427, -0.30970984656450756
0.748413841375432, 0.4341277480125428, -0.3750468529203565
0.7586449055713949, 0.4341277480125427, -0.27029077632411186
0.7630286869324752, 0.4341277480125427, -0.2453045419712453
0.7720776272971418, 0.4341277480125427, -0.20921777318672571
0.7562753981444638, 0.4341277480125427, -0.09060825413870192
0.7479898990507948, 0.43412774801254267, -0.016352600559810623
0.7661962362029154, 0.4341277480125427, -0.07883646937765602
0.7700214226188787, 0.4341277480125427, -0.15951462130185898
0.7503180387154191, 0.4341277480125427, -0.01085874613454513
0.7371860972810329, 0.43412774801254267, -0.18352221495008186
0.7396511467953445, 0.4341277480125427, -0.15840489664040847
0.7522992809050005, 0.4341277480125427, -0.15811968577826524
0.7407249916501397, 0.4341277480125428, -0.04729358868611787
0.7366144509683842, 0.43412774801254267, -0.08921464466033378
0.7212121462141956, 0.4341277480125427, -0.03804017087360543
0.7366694658079636, 0.4341277480125428, -0.14259358676456074
0.7255682259207713, 0.4341277480125427, -0.0855861337010944
0.7271702325895153, 0.4341277480125427, -0.10871349436507552
0.7271013513589677, 0.4341277480125427, -0.16720225302420372
0.704357834888967, 0.4341277480125427, -0.22207895539084802
0.7225513243375434, 0.43412774801254267, -0.18261818481339254
0.7082534457328716, 0.4341277480125427, -0.177009665065747
0.7264991626495003, 0.4341277480125427, -0.17629630931846949
0.7078584593559377, 0.4341277480125427, 0.14027642340802549
0.7157417841139115, 0.4341277480125427, 0.06572348433095046
0.7111323163775505, 0.4341277480125427, 0.11345659397602621
0.7320298343744749, 0.4341277480125427, 0.03379323386761322
0.7163443269518803, 0.4341277480125427, 0.0602106089673984
0.7000542697504089, 0.4341277480125427, 0.14282394183505842
0.7090969248007961, 0.43412774801254267, 0.20225524556823113
0.726379037230615, 0.4341277480125427, 0.153301744619595
0.7228177685370819, 0.4341277480125427, 0.12303987798988145
0.717217686030549, 0.4341277480125427, 0.1307852370644143
0.730961265569743, 0.4341277480125428, 0.19560138207014116
0.7376674274325393, 0.43412774801254267, 0.10435289858927765
0.7550030029822823, 0.4341277480125427, 0.0691185326957696
0.7395053366206757, 0.4341277480125427, 0.016040936461257673
0.7385989700053918, 0.4341277480125426, 0.11033123556868155
0.7573910066026718, 0.4341277480125427, 0.1776203802423718
0.7458388314776283, 0.4341277480125427, 0.21196157642688399
0.7593752075574827, 0.4341277480125427, 0.15978452354015796
0.7590754972156646, 0.4341277480125428, 0.1106427460806109
0.7572003456346943, 0.4341277480125428, 0.1487574260800411
0.7674514486519165, 0.4341277480125428, 0.2392431691685226
0.7618307763904434, 0.4341277480125427, 0.35476355991253344
0.7686311861793733, 0.4341277480125427, 0.22890989198878592
0.7416384190934481, 0.4341277480125427, 0.30229207513251555
0.7372616958444403, 0.4341277480125428, 0.2353006426903708
0.7386304680406032, 0.43412774801254267, 0.3383010815359552
0.7344957717498111, 0.4341277480125428, 0.33629871857219257
0.7296784519914995, 0.4341277480125427, 0.3579391236737518
0.7322277256993599, 0.4341277480125427, 0.28547446235705426
0.7055890936498893, 0.4341277480125427, 0.3897967555614922
0.7315219864165314, 0.4341277480125427, 0.23183472037619543
0.7068648208449132, 0.4341277480125427, 0.29165967516107666
0.7251170392948018, 0.4341277480125427, 0.2725937117268479
0.7040126964426902, 0.4341277480125427, 0.2348807411774121
0.6356673427342384, 0.4341277480125427, -0.34199896449982414
0.6230109831255275, 0.4341277480125427, -0.41080339405244337
0.6182906213256862, 0.4341277480125427, -0.25860352030749556
0.6191928135117224, 0.4341277480125427, -0.34088448182467407
0.644633544801902, 0.4341277480125427, -0.39284914421524664
0.6430381944046943, 0.4341277480125427, -0.3243852441939761
0.6411626078439906, 0.4341277480125427, -0.345148541980244
0.6580060493416366, 0.4341277480125427, -0.27225186902264914
0.6299377286734796, 0.4341277480125427, -0.30259123221620843
0.6732823652927585, 0.43412774801254267, -0.410864482258008
0.6728216963908709, 0.4341277480125427, -0.3998357319971949
0.6583594062154762, 0.4341277480125427, -0.42273809617484415
0.6781854444292517, 0.4341277480125427, -0.40485195778752814
0.6772084892990798, 0.4341277480125427, -0.24988958602090525
0.6844610224398563, 0.4341277480125427, -0.2672271044843426
0.685286470826781, 0.4341277480125427, -0.23908954311048283
0.6770492187295987, 0.4341277480125427, -0.2845690294038234
0.6884648499304383, 0.4341277480125427, -0.0988223398921195
0.6790038992807756, 0.4341277480125427, -0.10325968178325506
0.6819466805306804, 0.4341277480125427, -0.015214039653968288
0.6803019295817432, 0.4341277480125427, -0.10725919070653601
0.6751134549074673, 0.43412774801254267, -0.007776827570148472
0.6724608742431027, 0.4341277480125427, -0.06474814807214561
0.6733947324907316, 0.4341277480125427, -0.20634059636516439
0.6691090593957382, 0.4341277480125427, -0.19384571952532234
0.6763242344099539, 0.4341277480125427, -0.20388157090264036
0.6772956218566506, 0.4341277480125427, -0.2048057558305726
0.6688062654389573, 0.4341277480125427, -0.21500905442438561
0.6781410698350663, 0.4341277480125427, -0.13677519371797348
0.6410483615740699, 0.4341277480125427, -0.10569556258659979
0.6300307438381848, 0.4341277480125427, -0.009895850346878652
0.6509005707108864, 0.4341277480125427, -0.1561429095822659
0.6514817816450457, 0.4341277480125427, -0.0036619689633027343
0.6589647488148078, 0.4341277480125427, -0.20768214498310078
0.6487232305997621, 0.4341277480125427, -0.030531002881050456
0.6355231850844889, 0.4341277480125427, -0.12623320391933252
0.6447888088039597, 0.4341277480125427, -0.16171409109294393
0.6226400836293436, 0.4341277480125427, -0.10559047029739337
0.6271993045117203, 0.4341277480125427, -0.08010221643626227
0.6369901510786546, 0.4341277480125427, -0.14203125475258438
0.6361765819708665, 0.4341277480125427, -0.19400363011843397
0.6396326997535804, 0.4341277480125427, 0.0912507892727628
0.6534624671911262, 0.4341277480125427, 0.024816001961170984
0.6199576490148984, 0.4341277480125427, 0.00016211000740051697
0.638717926586633, 0.4341277480125427, 0.11248064240300336
0.6444503352101277, 0.4341277480125427, 0.08416121671372752
0.6450336862573021, 0.4341277480125427, 0.04726404374885463
0.6356934716503115, 0.4341277480125427, 0.2515884153887149
0.6594458499140848, 0.43412774801254267, 0.15748325175228847
0.6351151804821846, 0.4341277480125428, 0.2443382836246092
0.6563250700641434, 0.4341277480125427, 0.16000895617275843
0.6458895976568694, 0.4341277480125427, 0.12443351128470673
0.6588132709785167, 0.4341277480125427, 0.04215118843231333
0.6765632832318607, 0.4341277480125427, 0.028614152772931386
0.6748928828975123, 0.4341277480125427, 0.030181959434767678
0.6731855968585594, 0.4341277480125428, 0.07128554980777432
0.6804704252273157, 0.4341277480125427, 0.04109012820341313
0.6871306983181475, 0.4341277480125427, 0.01273969878255296
0.6645336940979324, 0.4341277480125428, 0.17349826836660215
0.6857718944532326, 0.4341277480125427, 0.13139361340776365
0.6897524749184596, 0.43412774801254267, 0.09074996062960071
0.6768435901415975, 0.4341277480125427, 0.2018843920173374
0.6826136019115171, 0.4341277480125427, 0.1288219381279448
0.6675922723370107, 0.43412774801254267, 0.21522144864116363
0.6729567401990206, 0.4341277480125427, 0.36997724576570645
0.6670012729271627, 0.43412774801254267, 0.3907265654147351
0.6720139223034681, 0.4341277480125428, 0.3715288449833343
0.6864435080482216, 0.43412774801254267, 0.4131532677328152
0.6703551732201667, 0.43412774801254267, 0.3511126215928134
0.671026475947558, 0.4341277480125427, 0.30457879587166964
0.6746342821548716, 0.4341277480125427, 0.32119993289496007
0.6598779227420636, 0.43412774801254267, 0.31227252082264434
0.6587349726473537, 0.4341277480125427, 0.3456090449688525
0.647868173547523, 0.4341277480125427, 0.3680491581359189
0.6476120581479385, 0.4341277480125427, 0.3950824888294643
0.6295564161527236, 0.4341277480125428, 0.39198117484750544
0.6426359825440197, 0.4341277480125427, 0.36803483255991454
0.618471049197975, 0.4341277480125427, 0.32155069220371224
0.6273808155079006, 0.4341277480125427, 0.3035634368296073
0.627782355414524, 0.43412774801254284, 0.2709239959202391
0.6311293693715341, 0.4341277480125427, 0.3762019109795226
0.6182808764405564, 0.4341277480125427, 0.43043941623354104
0.5322284191308706, 0.4341277480125427, -0.46618338073887094
0.535989769107986, 0.4341277480125427, -0.43847274362685074
0.5347691146803674, 0.4341277480125427, -0.4688268763503968
0.5495093721881636, 0.4341277480125427, -0.4299657620514782
0.5487547561291826, 0.4341277480125427, -0.45635301871033557
0.554256105881718, 0.4341277480125427, -0.28766134236245
0.5594260705544566, 0.43412774801254267, -0.407598935087119
0.5686793872022797, 0.4341277480125427, -0.4255845717619425
0.5445448112088191, 0.4341277480125427, -0.28271044131172146
0.562881684054634, 0.4341277480125427, -0.3303997602337912
0.5617885190430961, 0.4341277480125428, -0.39575120318253887
0.5786028903056306, 0.4341277480125427, -0.38533912509974233
0.5936732514139491, 0.4341277480125427, -0.39355170134918716
0.5897528987345468, 0.4341277480125427, -0.3988301953104637
0.573825161373996, 0.43412774801254267, -0.3662365152488019
0.6099548556770494, 0.4341277480125427, -0.42698865417532794
0.6150199985170737, 0.4341277480125427, -0.3906530852291082
0.614193166842602, 0.4341277480125427, -0.36525709386202715
0.6167518914097879, 0.4341277480125428, -0.2736057951307837
0.6092422182684262, 0.4341277480125427, -0.3335328380754697
0.6128735648321686, 0.43412774801254267, -0.43456749459297755
0.5978206503314456, 0.4341277480125427, -0.008196475568949462
0.6088746907914737, 0.4341277480125427, -0.1063777391328332
0.6109551078797766, 0.4341277480125427, -0.09014126464284371
0.5962905561301862, 0.4341277480125427, -0.008097556125630793
0.6023985607921377, 0.43412774801254267, -0.05463347177682627
0.6073076408751563, 0.4341277480125427, -0.07476329367667922
0.6173299037855872, 0.4341277480125427, -0.2238559506773788
0.6064877396537472, 0.4341277480125427, -0.2518484969018092
0.58335369648691, 0.4341277480125427, -0.20322203837533065
0.5796591334362149, 0.4341277480125427, -0.26332368495128466
0.5975456164515033, 0.4341277480125427, -0.2507725945988163
0.5821533222413517, 0.4341277480125427, -0.13436554864619138
0.596276520728666, 0.4341277480125427, -0.21166460985305904
0.5804428256798168, 0.4341277480125427, -0.08677009729235802
0.5641375241235566, 0.43412774801254267, -0.05193020071224424
0.5682152285310114, 0.4341277480125427, -0.23171024369443183
0.5445449018329784, 0.4341277480125427, -0.02968076166114825
0.5465178004332939, 0.4341277480125427, -0.04570350747957169
0.5741560841700887, 0.4341277480125427, -0.0862413888935671
0.5708050637941848, 0.4341277480125427, -0.021025751762797213
0.5340042012972402, 0.4341277480125427, -0.0024178096063925004
0.5347037958986854, 0.4341277480125427, -0.16513301947078338
0.5594918286353509, 0.4341277480125428, -0.2400770384552532
0.5371484655946791, 0.4341277480125427, -0.2121615795124309
0.5359144653085063, 0.4341277480125428, -0.263038185539722
0.5312088657748297, 0.4341277480125427, -0.17470510005632714
0.5511386860836747, 0.4341277480125427, -0.2497329463513125
0.5590301435605551, 0.4341277480125427, -0.18431653201694326
0.5408208453228793, 0.4341277480125427, 0.06910462212656036
0.5578234851661474, 0.4341277480125427, 0.03970282004167852
0.5323822653385267, 0.4341277480125427, 0.017512158788950304
0.538267168794746, 0.4341277480125427, 0.026810553993356703
0.5717347892849648, 0.4341277480125428, 0.002099356952645616
0.5684958580080643, 0.4341277480125427, 0.0163900228054559
0.536531537310722, 0.4341277480125427, 0.1646984297728484
0.5383306048512583, 0.4341277480125427, 0.04931696896378254
0.5748868417701007, 0.4341277480125427, 0.011894684735892211
0.546714193023194, 0.4341277480125427, 0.19514146285546774
0.5681365866216046, 0.4341277480125427, 0.2633112314844783
0.5688252749194012, 0.4341277480125427, 0.13907681241093917
0.5630729394188969, 0.4341277480125427, 0.1007819556853453
0.5685558051237953, 0.4341277480125427, 0.10051693791311059
0.5748799543179501, 0.4341277480125427, 0.05270987605814595
0.5885208065767381, 0.4341277480125427, 0.04480912223077104
0.5980083898279186, 0.4341277480125427, 0.057440381354137864
0.5862560459793573, 0.4341277480125427, 0.1475200037015637
0.6065673032040297, 0.4341277480125427, 0.06825981577785539
0.5844543676979866, 0.4341277480125427, 0.11622253481946848
0.6161592932898108, 0.43412774801254267, 0.0056141964942338285
0.5898456420601078, 0.4341277480125427, 0.028636288614763177
0.6026563069833308, 0.4341277480125427, 0.19226944309069854
0.5886013545951551, 0.4341277480125427, 0.2097927015187003
0.5989034425316397, 0.4341277480125427, 0.19394012248236514
0.6146621500398122, 0.4341277480125427, 0.19508551536387836
0.6110768182798919, 0.4341277480125427, 0.18729385817752497
0.6031139960279294, 0.4341277480125427, 0.16796633921412113
0.6165754467747816, 0.4341277480125427, 0.05719112254092797
0.6050694465539102, 0.4341277480125427, 0.33464417496888
0.6088278547807016, 0.43412774801254267, 0.38221026271020886
0.6061867894117647, 0.43412774801254267, 0.3511766575043067
0.6137529933018311, 0.4341277480125427, 0.3042901883482963
0.5953618687365333, 0.4341277480125427, 0.37929843604306934
0.5910257545329991, 0.43412774801254267, 0.284462573408427
0.5841489973247479, 0.4341277480125428, 0.28973227044437994
0.5990370520182047, 0.4341277480125427, 0.27799389246459427
0.6065874703030536, 0.4341277480125427, 0.2834237814576443
0.6027839756336464, 0.4341277480125427, 0.30085393358741075
0.5558902438793298, 0.4341277480125427, 0.39244560092965886
0.550132320317138, 0.4341277480125427, 0.4443482197167018
0.5641392450155144, 0.4341277480125427, 0.4256510562133692
0.5723289708689943, 0.4341277480125427, 0.43707820203639786
0.5718670300941211, 0.4341277480125427, 0.3732056843169032
0.5336099978022446, 0.4341277480125427, 0.3580391785041574
0.5453863586489008, 0.4341277480125427, 0.28208526217685287
0.5472240055518354, 0.4341277480125427, 0.36593037810091245
0.5452726789953372, 0.4341277480125427, 0.3268180882064735
0.5533327829133723, 0.4341277480125427, 0.28979412685423855
0.5299691697815727, 0.4341277480125427, 0.305783740496143
0.4597299168528255, 0.4341277480125427, -0.4360285622199471
0.4434368987080953, 0.4341277480125428, -0.4369583564426368
0.4592542407268754, 0.4341277480125427, -0.4819902919558884
0.43763229323846015, 0.4341277480125427, -0.49568339428198865
0.4648673341019027, 0.4341277480125427, -0.48763775740906934
0.45780103667447714, 0.4341277480125427, -0.4103383974851431
0.4731757888238822, 0.4341277480125427, -0.3354049096776115
0.47154178307754446, 0.4341277480125428, -0.30301932974570933
0.47842926063808405, 0.4341277480125427, -0.37399889791248825
0.45386896247528835, 0.4341277480125427, -0.34426545247578655
0.46666988767503004, 0.4341277480125427, -0.34618506221973433
0.47311306522001073, 0.4341277480125427, -0.4079432309867782
0.4754477521748635, 0.4341277480125427, -0.4177892862660384
0.5054102715883755, 0.4341277480125427, -0.452766703639733
0.518366613522259, 0.4341277480125427, -0.4885668780730866
0.506959650133437, 0.4341277480125427, -0.4290624720449012
0.4893697515351048, 0.43412774801254267, -0.43176168306038076
0.49233271418162966, 0.4341277480125427, -0.34990473694403396
0.4990410277432328, 0.4341277480125427, -0.482785512617415
0.4982631186013953, 0.43412774801254267, -0.3180102770339986
0.5173126072660997, 0.4341277480125427, -0.2892845668501677
0.5216435506669332, 0.4341277480125427, -0.42225666387518535
0.5202801929372644, 0.4341277480125427, -0.43191214476966044
0.5105625668145024, 0.4341277480125427, -0.403333124157884
0.5229323268844351, 0.4341277480125427, -0.2326751648282686
0.5187140474663667, 0.4341277480125427, -0.15345189533746487
0.5173653880592184, 0.43412774801254267, -0.09778247977044796
0.5114883246693382, 0.4341277480125427, -0.040056518343109346
0.5129315280678406, 0.4341277480125427, -0.09758843080029359
0.5115045356984804, 0.4341277480125427, -0.11753121365431601
0.506794605948728, 0.4341277480125427, -0.03890315459583959
0.5111540823391356, 0.4341277480125427, -0.01913972249092733
0.4830793810150065, 0.4341277480125427, -0.013034219764777458
0.4861118841983551, 0.4341277480125427, -0.18741314971194734
0.4933321724351256, 0.4341277480125427, -0.22696409007300328
0.4854417507382347, 0.43412774801254267, -0.15695506958499852
0.48530925003704783, 0.4341277480125427, -0.22860673831097536
0.5048430820882492, 0.4341277480125427, -0.1467543940895345
0.4876687820196861, 0.4341277480125427, -0.12443571849584893
0.48394611430177, 0.4341277480125428, -0.2218795612878309
0.4564805396447974, 0.4341277480125427, -0.022516133287334244
0.4618188094736068, 0.4341277480125427, -0.15819944359043753
0.4523508995760526, 0.4341277480125427, -0.028571129463499368
0.47251630709133435, 0.4341277480125427, -0.016745763583318113
0.47590447191399077, 0.4341277480125428, -0.08804409706132137
0.45632876011862833, 0.4341277480125427, -0.01230112681263718
0.4508421173719841, 0.4341277480125427, -0.032305525672682474
0.4755348843522201, 0.4341277480125427, -0.0044092624600241105
0.4446084586289648, 0.4341277480125427, -0.1832267348850501
0.45742204549521814, 0.4341277480125427, -0.2887004739181741
0.44115670034657073, 0.4341277480125427, -0.26220621060719235
0.44087450634464886, 0.4341277480125427, -0.08669604534331021
0.45225716830999374, 0.4341277480125428, -0.284245666119965
0.4493799701715568, 0.4341277480125427, -0.14756195089245874
0.4455079225293495, 0.4341277480125427, -0.1339557377488283
0.47137727544157815, 0.4341277480125427, -0.2772048511649131
0.4470558437626468, 0.4341277480125428, -0.19010289850920503
0.45338558114125016, 0.4341277480125427, 0.056486681450023356
0.4420781699438989, 0.4341277480125428, 0.14700305208573303
0.44719055525426776, 0.43412774801254267, 0.043153918684641995
0.4762968009525935, 0.4341277480125427, 0.012113691186816272
0.47078137242217566, 0.4341277480125427, 0.06310016867844315
0.4657324090893392, 0.4341277480125427, 0.053374289159483876
0.47450999350276696, 0.4341277480125427, 0.015812417006935874
0.4588639321214631, 0.4341277480125427, 0.005192708384024575
0.4770812628339037, 0.4341277480125427, 0.24076315302084048
0.4426391296182711, 0.4341277480125427, 0.27042964842116496
0.44021119696771305, 0.4341277480125427, 0.26418929938552704
0.4683009553822507, 0.4341277480125427, 0.10820482452749672
0.46103282178468646, 0.4341277480125427, 0.19823808684116145
0.4404731764660356, 0.4341277480125427, 0.2731085288241128
0.4582532817911902, 0.4341277480125427, 0.1988402136736867
0.47351620060143174, 0.4341277480125428, 0.24739251389427125
0.49360138878122795, 0.43412774801254267, 0.004461611382794474
0.5253099406490017, 0.4341277480125427, 0.013868603034085911
0.5001300406138603, 0.4341277480125427, 0.03349351023285998
0.49200943580778833, 0.4341277480125427, 0.04173046890914039
0.5067982945868548, 0.4341277480125427, 0.005349354319333319
0.5027636930264999, 0.4341277480125427, 0.1022187738500355
0.49696179721686007, 0.4341277480125427, 0.0058382451475141465
0.49564855627730087, 0.4341277480125427, 0.06717443297337986
0.5160853133054372, 0.4341277480125427, 0.08727520198068045
0.5264760320665799, 0.4341277480125427, 0.16567324937457267
0.5204071939182111, 0.43412774801254267, 0.19907992214847536
0.5214600832044186, 0.43412774801254267, 0.2768520923591363
0.5114861511510074, 0.43412774801254267, 0.27612547009667865
0.5197961826811688, 0.4341277480125427, 0.06863622276047184
0.5247282444054363, 0.4341277480125427, 0.055044390066027925
0.509707535360536, 0.4341277480125427, 0.23694341673443509
0.5049099694165676, 0.4341277480125427, 0.40956024811351555
0.5049039619469433, 0.4341277480125427, 0.39137920446147556
0.5213197293106522, 0.4341277480125427, 0.3551147625987259
0.5090447466046999, 0.4341277480125427, 0.3758075460867692
0.5001778576700925, 0.4341277480125427, 0.4509601959568421
0.5244588495648057, 0.4341277480125427, 0.4662526811618536
0.48870723359425716, 0.4341277480125427, 0.29462605233608796
0.5042779471398368, 0.4341277480125427, 0.3738614894371013
0.49654425798999724, 0.4341277480125427, 0.37160390888892236
0.5076032064981488, 0.4341277480125427, 0.3127400761908642
0.4958503794934135, 0.4341277480125428, 0.3273146717267258
0.49562217970381917, 0.4341277480125427, 0.3263427650456895
0.47532401697704296, 0.4341277480125427, 0.38169691829468055
0.44154558791580567, 0.4341277480125427, 0.4865341343108411
0.43466488256076874, 0.4341277480125427, 0.5140431198847554
0.46026192919292475, 0.4341277480125427, 0.4648209262647882
0.4512769421494729, 0.4341277480125427, 0.4865253155426836
0.4793528967863637, 0.4341277480125427, 0.44959339464498743
0.4487110174775755, 0.4341277480125427, 0.37931514342973605
0.43370704418596767, 0.4341277480125427, 0.37014366779328267
0.46205508024117775, 0.4341277480125427, 0.3666020635044929
0.46516642343777276, 0.4341277480125427, 0.30588470286685143
0.4398225393454449, 0.4341277480125427, 0.4424009090627011
0.445204874132303, 0.4341277480125427, 0.36145960500020535
0.3311897809924781, 0.4341277480125427, -0.36728226242746553
0.3509078153123316, 0.43412774801254267, -0.5097416077591755
0.3361261763871182, 0.43412774801254267, -0.4001037914680403
0.33920840313626505, 0.4341277480125427, -0.5323040372906462
0.36388393103054806, 0.4341277480125427, -0.495120559911409
0.33878231252578705, 0.43412774801254267, -0.4600236861071301
0.3376285027612138, 0.4341277480125427, -0.3524031651871505
0.36265922017634256, 0.4341277480125427, -0.361799674313962
0.34864199254872985, 0.4341277480125427, -0.38074609400330633
0.3685840261012039, 0.4341277480125427, -0.4390389268913537
0.34738143742973526, 0.4341277480125427, -0.3764110657872294
0.3467197701813291, 0.4341277480125427, -0.31409311871728146
0.3772971585557868, 0.4341277480125427, -0.43224997598763715
0.3610523300942713, 0.4341277480125427, -0.3637464140213067
0.4010093456038122, 0.4341277480125427, -0.4238880818496974
0.39509796538516034, 0.4341277480125427, -0.42581883683919564
0.392860857264443, 0.4341277480125427, -0.4025291267829799
0.39617994010909513, 0.4341277480125427, -0.4402382462043586
0.4128499896691943, 0.4341277480125427, -0.480536395930389
0.39296017796341337, 0.4341277480125427, -0.43616370042903396
0.4219432534687364, 0.4341277480125427, -0.5121488435641017
0.40689319247648686, 0.4341277480125427, -0.367482521527143
0.42239467907747363, 0.4341277480125427, -0.4325299535875663
0.4011836041273895, 0.4341277480125427, -0.3562291699809378
0.42951919819961626, 0.4341277480125427, -0.37592587164566177
0.4125466006551046, 0.4341277480125427, -0.42088063123737873
0.4187900751716932, 0.4341277480125428, -0.33740695915133945
0.4277459200312318, 0.4341277480125427, -0.4293781860438537
0.42064952667944683, 0.4341277480125427, -0.08588860100283302
0.3948228532487741, 0.4341277480125427, -0.04234576659298231
0.42208439141555176, 0.4341277480125427, -0.12162112709256968
0.3987851310926016, 0.4341277480125427, -0.015564743441501194
0.4167742730523395, 0.4341277480125427, -0.1801782527226425
0.40930453089910146, 0.4341277480125427, -0.12287989937521025
0.4283578332477121, 0.43412774801254267, -0.2642280585718586
0.41706392517193974, 0.4341277480125427, -0.08781472642764424
0.4277996735333509, 0.4341277480125427, -0.23304655203912086
0.3951507127208067, 0.4341277480125427, -0.1058550080523261
0.40387862846771694, 0.4341277480125427, -0.18611940223519616
0.3899318373242938, 0.4341277480125427, -0.19797917055885372
0.38686275728181524, 0.4341277480125427, -0.14189845116392713
0.4032331503166985, 0.4341277480125427, -0.12517550140366712
0.406435560885269, 0.4341277480125427, -0.1424838736931172
0.4080682182355251, 0.4341277480125427, -0.1999585556182848
0.3944788273941726, 0.4341277480125427, -0.09554360827129703
0.4008770334946412, 0.4341277480125427, -0.18499807560428738
0.3488239958537658, 0.4341277480125427, -0.09203435066180955
0.3724988694010618, 0.4341277480125427, -0.0881914497400262
0.36335791040426113, 0.4341277480125427, -0.08529532467838723
0.3627202281012222, 0.4341277480125427, -0.1301882298435279
0.3596181245105471, 0.4341277480125427, -0.0024208754182500156
0.3774167739396265, 0.4341277480125427, -0.1707964372929416
0.38168710939612444, 0.4341277480125428, -0.08657879505188726
0.3515035189264638, 0.4341277480125427, -0.05061613701126313
0.38109549330936143, 0.43412774801254267, -0.17401332396051
0.33875484321329613, 0.4341277480125427, -0.09268953921133428
0.35723093478521056, 0.4341277480125427, -0.2895956182576236
0.3392771255219345, 0.4341277480125427, -0.22939804037446082
0.37149641378597165, 0.43412774801254267, -0.30408059371401297
0.3431298235733654, 0.4341277480125427, -0.1444564612317339
0.36189389517748904, 0.4341277480125427, -0.20150939331898143
0.3390182672068084, 0.4341277480125427, -0.18856151934757798
0.34666843299711575, 0.4341277480125427, -0.15934256668517513
0.3410857168066747, 0.4341277480125427, -0.11610716971039321
0.33691779159205804, 0.4341277480125427, -0.25499523063481694
0.353654650663797, 0.4341277480125427, 0.14556586526198276
0.3387575309325488, 0.4341277480125428, 0.2215690392090441
0.3503470651269398, 0.4341277480125427, 0.052216177453286425
0.34782523637387863, 0.4341277480125427, 0.037849850235306313
0.34495549342745063, 0.4341277480125427, 0.1142429991652694
0.34134079050449717, 0.4341277480125427, 0.2489608460458002
0.35174713130160457, 0.4341277480125427, 0.15977671670290902
0.35482416599220096, 0.4341277480125427, 0.10692331964604278
0.37734488073251593, 0.4341277480125427, 0.001475888177683388
0.37918024271701517, 0.4341277480125428, 0.16066985450365484
0.37247230938778564, 0.4341277480125427, 0.11901025096086923
0.3715277447323282, 0.4341277480125427, 0.13836570220411615
0.35030788364515886, 0.4341277480125427, 0.24342826758079827
0.3537236794899253, 0.4341277480125427, 0.18707295507029695
0.3544466150549851, 0.4341277480125427, 0.22600258535479442
0.3497141686124834, 0.4341277480125427, 0.2577286905056769
0.3574393024721512, 0.4341277480125427, 0.26408566019265745
0.3507067471080427, 0.4341277480125427, 0.2070295734490149
0.38730557530732534, 0.4341277480125427, 0.16572320194192067
0.38985431853067964, 0.4341277480125427, 0.1598652340902719
0.4241710402123796, 0.4341277480125428, 0.010945743742681624
0.39711004019387797, 0.4341277480125428, 0.1687084388251788
0.39828101732888765, 0.4341277480125427, 0.11019645890213527
0.39722662271624726, 0.4341277480125427, 0.10698485486847226
0.40545797694297775, 0.4341277480125427, 0.09328599099599037
0.38582128468292, 0.4341277480125427, 0.04143310696480778
0.3894871852746931, 0.4341277480125428, 0.06267318389547342
0.40412480982352195, 0.4341277480125427, 0.1774503510066633
0.4253995899348472, 0.4341277480125427, 0.20897930192644057
0.4166657430158638, 0.4341277480125427, 0.2020846231849756
0.4303437629731407, 0.4341277480125427, 0.17931130175954804
0.391121830744964, 0.4341277480125427, 0.2642189325854763
0.40216297384186334, 0.4341277480125427, 0.2686832229709033
0.4322612398022222, 0.4341277480125427, 0.07202267581447136
0.4117526917062113, 0.4341277480125427, 0.2970667084377918
0.4308703425055215, 0.4341277480125427, 0.21277168786147732
0.4333771977179042, 0.4341277480125427, 0.36300366458209765
0.4244475085938384, 0.4341277480125427, 0.3911471981840484
0.4286611864045586, 0.4341277480125427, 0.4378901255987629
0.3959128746126335, 0.4341277480125427, 0.4861717725561239
0.40266782597017614, 0.4341277480125427, 0.5139754259566326
0.4306138438510144, 0.4341277480125427, 0.5182920379150802
0.4101501298243941, 0.4341277480125427, 0.4388917440680422
0.3959852854044703, 0.4341277480125427, 0.46547511128582736
0.4217777748110653, 0.4341277480125427, 0.3031839517105497
0.4047557268400208, 0.4341277480125428, 0.3146729226197614
0.3899088216267273, 0.4341277480125427, 0.4397206832097584
0.40172497668919926, 0.4341277480125427, 0.34962826662518737
0.3884714722947205, 0.4341277480125427, 0.44255339464090737
0.4160983558555311, 0.4341277480125427, 0.35975402370658893
0.3437853509237017, 0.4341277480125427, 0.5035820002865583
0.3422523348335463, 0.4341277480125427, 0.4958490871070113
0.3612628561300373, 0.4341277480125427, 0.5030355267374287
0.3581880032849136, 0.4341277480125427, 0.4585154728858222
0.3679088719363325, 0.4341277480125427, 0.5053075229254766
0.37000520945106047, 0.4341277480125427, 0.48080156885730985
0.35531966000109005, 0.4341277480125427, 0.44163569904103206
0.33631594663348496, 0.4341277480125427, 0.3571095985007122
0.3508037176497901, 0.4341277480125427, 0.4376072184467944
0.34265258529511544, 0.4341277480125427, 0.34753617891783395
0.3358523314438161, 0.4341277480125427, 0.48541680235060725
0.3743838790126163, 0.4341277480125427, 0.31497357364449574
0.3705759041173912, 0.4341277480125427, 0.3572831723694124
0.33184314121272956, 0.4341277480125427, 0.41352742421855965
0.23517157098472197, 0.43412774801254267, -0.48142666141207846
0.23234040526196909, 0.4341277480125427, -0.5064259607910104
0.2290308977343317, 0.4341277480125427, -0.3874311288884255
0.2289919802364314, 0.4341277480125427, -0.503126992508005
0.22767866064690134, 0.4341277480125427, -0.5369718360456878
0.2501522950287287, 0.4341277480125427, -0.45827662190683516
0.22900661048027066, 0.4341277480125427, -0.5087800377125781
0.24068616169590717, 0.4341277480125427, -0.5264795536233295
0.25004167668660715, 0.4341277480125427, -0.3208813358713517
0.25863590188085867, 0.4341277480125427, -0.4164057169142238
0.2704548268827125, 0.4341277480125427, -0.48665650717906395
0.26494090735081405, 0.4341277480125428, -0.4937870064556304
0.2613579043093422, 0.4341277480125427, -0.37930575429105673
0.2523912407113614, 0.4341277480125427, -0.39185710555169373
0.2587902666790457, 0.4341277480125427, -0.39879427511934096
0.281447463827759, 0.4341277480125427, -0.5136639119810775
0.3013554176955791, 0.4341277480125427, -0.5075362431365865
0.2819645436106, 0.4341277480125427, -0.4188783453129502
0.2998011865695053, 0.4341277480125427, -0.516130132106115
0.292786527138397, 0.43412774801254267, -0.42689621399355804
0.291711248936257, 0.4341277480125427, -0.39559361652302044
0.2930843043397422, 0.4341277480125427, -0.46235949387505554
0.2930208216015279, 0.4341277480125428, -0.3845099792630137
0.31597597766816166, 0.4341277480125427, -0.3969484921712642
0.3041962336719799, 0.4341277480125427, -0.38680566283797635
0.27986172154529315, 0.4341277480125427, -0.32200441286170955
0.30824723651608743, 0.4341277480125427, -0.3869237830005521
0.32543973824549643, 0.4341277480125427, -0.3593103359983346
0.3020074037966368, 0.4341277480125427, -0.4094927446963479
0.3203071346734427, 0.4341277480125428, -0.37561039300960297
0.32269823792631724, 0.43412774801254267, -0.09839869667426619
0.2920288001218128, 0.4341277480125427, -0.014670891444937474
0.3316448705851907, 0.4341277480125427, -0.05839745137063185
