1.2134581261180628, 0.001408804823102527, 0.16153127958246816
1.188977434026824, 0.0014088071119873243, 0.1375342776533284
1.2327547319583887, 0.0014088011009662136, 0.22327279039261108
1.2355469578683271, 0.0014088059378389445, 0.381938882358659
1.2282732771073404, 0.0014088041674962812, 0.38366635550280137
1.2203396053732987, 0.0014088050019013957, 0.2532221228091709
1.1892169677714317, 0.0014088079282447534, 0.23763087078759262
1.2383087173757983, 0.0014088021736029365, 0.21496512820895666
1.2819132117122072, 0.0014088100288063288, 0.33161299379163073
1.2812038419725753, 0.0014088084637224445, 0.22353441694613096
0.17713991372546667, 0.0014088058701379488, 0.25051184304095786
0.18871603627093764, 0.0014088061926508192, 0.2571546682936997
0.05726911363107479, 0.001408802531746057, 0.21777801547960882
0.2018207688402024, 0.0014088065565262815, 0.22878446572602867
0.23483117927761282, 0.0014088074766168185, 0.2598742997283238
0.3227267901801133, 0.0014088099242601205, 0.2767788025900605
0.16465518366796433, 0.001408805521952194, 0.23283002694866273
0.31397980188789165, 0.001408809680882325, 0.2809867120865816
0.17095156893921115, 0.00140880569788699, 0.251574549152652
0.3199510064863262, 0.001408809847856745, 0.30245205315198037
0.380912046647256, 0.0014088088072593155, 0.30399956964301933
0.530928039501602, 0.001408808620612709, 0.30204530592861434
0.49262709988798176, 0.001408806831050022, 0.28330145921647254
0.48164520382782144, 0.0014088092370731044, 0.30850182922988467
0.5979806744081685, 0.0014088069708213854, 0.28476586682880145
0.4725768160142189, 0.001408807790719466, 0.29335284292080654
0.623822282421157, 0.0014088090894328934, 0.30695608008231606
0.611436973303989, 0.001408808485111446, 0.3006264307273992
0.9496741200913102, 0.001408809023178015, 0.24487931201081264
1.0246704683580408, 0.0014088088912579816, 0.29064586352884964
1.0291953468425414, 0.0014088036183834527, 0.2381766907582225
0.9939113968397577, 0.001408809370241992, 0.2763322229970907
0.9753669131646014, 0.0014088077228204435, 0.24739132195800662
1.0949800062963533, 0.0014088055402582714, 0.41013179674274136
1.1168761681382582, 0.0014088068685263865, 0.41748372724719685
1.070300440695822, 0.001408808068475544, 0.35968088573357604
0.7677242929498516, 0.0014088053598143857, 0.365582808972812
0.6789781572608724, 0.0014088084270053275, 0.33353219450188387
0.7589501162796896, 0.001408808629335297, 0.331426131175498
0.7913714945397449, 0.0014088064998738676, 0.3536751566551696
0.7957723105977629, 0.0014088077005108863, 0.3411328312225036
0.787697966237674, 0.0014088076326538895, 0.3418409458322785
1.0231906581629973, 0.0014088014526663696, 0.42002134876796593
0.9781287118418764, 0.0014088041692305803, 0.3817033424047911
0.9956112035317641, 0.001408803115294082, 0.391778701342128
0.8933378397676139, 0.0014088092809078315, 0.4015420821455642
0.9227824900788095, 0.0014088075058143867, 0.3909616723050099
0.7741487280953538, 0.0014088100288063288, 0.2988638264086529
0.7133973988147878, 0.0014088100288063288, 0.2923623762759751
0.8529733890262386, 0.0014088100288063288, 0.2728765797192553
0.850081052293904, 0.0014088100288063288, 0.2882442108328117
0.8559567848796519, 0.0014088100288063288, 0.3088628404332451
0.8755685519421853, 0.0014088100288063288, 0.3036304283208487
0.46045079368412783, 0.0014088100288063288, 0.3177902776200696
0.341010122587619, 0.0014088100288063288, 0.33437433508079817
0.5263650389967149, 0.0014088100288063288, 0.33851370325695723
0.4466295819855882, 0.0014088100288063288, 0.3426098897125095
0.3974391206512882, 0.0014088100288063288, 0.36128863813020146
0.40458603252555714, 0.0014088100288063288, 0.35945976645533506
0.32719220940666754, 0.0014088100288063288, 0.3297644209033104
0.3747555928995472, 0.0014088100288063288, 0.3324432596506626
0.9823083502010702, 0.0014088100288063288, 0.29965252587206825
1.0067579819222856, 0.001408810028806329, 0.30983262228481534
0.917702868503459, 0.0014088100288063288, 0.30523142186090246
0.8810914910881263, 0.0014088100288063286, 0.31397874273705334
0.9479328382131571, 0.0014088100288063288, 0.28434878778115014
0.781563580515907, 0.0014088072445934204, 0.22622219618436754
0.7353501470227994, 0.0014088092264389228, 0.26730567863077476
0.8400073933408098, 0.0014088095632801096, 0.22487027638840287
0.7210211508727677, 0.0014088049459230634, 0.2287058112681673
0.6583271728732909, 0.001408809506296621, 0.3040712615172997
0.8396727144201334, 0.001408809908501781, 0.22863791894707225
1.0541800824878054, 0.0014088035006802116, 0.2484252505392309
1.0798445791485831, 0.0014088032285852195, 0.24557167783743034
1.0982054764736207, 0.0014088087940442146, 0.3038610132682673
0.9182867089345788, 0.0014088091201259652, 0.11649771029548392
0.9490609326601425, 0.0014088099971670287, 0.10730019213778205
0.9934199414763233, 0.0014088076270664506, 0.1321492456053354
0.9277097609045049, 0.0014088099443740436, 0.10785477341321156
1.0186231807856398, 0.0014088057324169734, 0.1520139808755164
1.1355830246381988, 0.0014088100288063288, 0.09192049095148347
1.1541474953201742, 0.0014088100288063288, 0.09872350389321716
1.1143838078391415, 0.0014088100288063288, 0.09108203786659722
1.1270148839024556, 0.00140880968096316, 0.18660475264655565
1.0652816868705923, 0.0014088021381826142, 0.2066542633711327
1.0601044166003981, 0.0014088045206944377, 0.17671977789429086
1.0158183177598357, 0.0014088072281414963, 0.057587877858424
0.9720520016445955, 0.001408809229554739, 0.05105966149919717
1.0474627084502628, 0.0014088047156940748, 0.051123260796463066
1.0340566892736107, 0.0014088066272726519, 0.0627561910485051
0.6626534055955597, 0.0014088062409247796, 0.14667815268839055
0.7722508155082055, 0.0014088094755441041, 0.11276813077237266
0.7326570407346695, 0.0014088077917244657, 0.13042112429309186
0.8056839779847953, 0.001408807878116688, 0.12951835538814502
0.8356404227244139, 0.0014088096392956507, 0.1110538572091008
0.7589559323452028, 0.0014088084776307866, 0.12323057610489996
0.8611697073765644, 0.0014088096981513716, 0.11043782595451927
0.8893071709650955, 0.0014088095024190252, 0.12331469769746901
0.8889274758320977, 0.0014088095251898304, 0.13580564078428353
0.9881072361345857, 0.0014088035803063775, 0.19704898059496814
0.954161882271269, 0.0014088056150307325, 0.20134056627899066
0.5940779484971966, 0.001408801524469433, 0.2266992802610676
0.4405176964173134, 0.0014088064049241251, 0.2494935043419806
0.3434074220514519, 0.0014088094930192828, 0.21938783644986162
0.5253470656228063, 0.0014088037086937536, 0.24156837748422105
0.3757436187477638, 0.0014088084626960404, 0.2816677139464607
0.4785848977218414, 0.0014088051942175133, 0.2657643522584018
0.4818150612788964, 0.001408805091650002, 0.2628824925221728
0.3645871872792855, 0.001408808818016697, 0.2641583007290301
0.4809285062029032, 0.001408805120746788, 0.23939509448234875
0.7492441802619323, 0.0014088045296265271, 0.1995946167458942
0.7196874636896736, 0.001408803291562717, 0.17947087869943643
0.8115198614688856, 0.001408807138237665, 0.2044319738550967
0.7698818992964038, 0.001408805394102246, 0.2004332837099157
0.8126187597621432, 0.0014088071842779065, 0.18978637559474967
0.8061217655572218, 0.0014088069121196173, 0.20707206082844842
0.5034685829564199, 0.0014088084418056382, 0.16955433919703322
0.6320085326940208, 0.0014088022089558025, 0.19209503316416202
0.6360614050984104, 0.0014088007095340335, 0.20648412635211366
0.44615590338654465, 0.0014088064019144005, 0.21009546868816883
0.61051797013122, 0.0014088065175553617, 0.15403305611168816
0.6329571692070903, 0.0014088015701763385, 0.19848464207718114
0.6104927803631992, 0.0014088077502155756, 0.1411004810527257
0.613690013523942, 0.0014088012456847947, 0.20832082668059324
0.5692596966635526, 0.0014088054369412696, 0.17914586609104338
0.24937483489244586, 0.0014088100288063288, 0.1880778132365325
0.31644707090781915, 0.0014088100288063288, 0.19407447827204105
0.07582016725503363, 0.0014088100288063288, 0.13617897667055234
0.1860462042431251, 0.0014088100288063288, 0.12367389431941833
0.16794394168841903, 0.0014088100288063288, 0.11432106019270163
0.24479429441534448, 0.0014088100288063288, 0.17994265392879724
0.17416319122411877, 0.0014088100288063288, 0.13786250037635847
0.29998461572053736, 0.0014088100288063288, 0.20417388593460767
0.24552408433181822, 0.0014088100288063288, 0.14820351677508906
0.3699247931200129, 0.0014088100288063288, 0.12497630038640092
0.5017012489426416, 0.0014088100288063288, 0.14689302571762788
0.4388827890800799, 0.0014088100288063288, 0.11417543168732985
0.3506184126888411, 0.0014088100288063288, 0.16243638719869857
0.40913995640465034, 0.0014088100288063288, 0.15579699171689665
0.3394162425309857, 0.0014088100288063288, 0.13774219023366024
0.5469291467315684, 0.0014088100288063288, 0.13597089141462226
0.5372631103282034, 0.001408810028806329, 0.1115413618100894
0.32926428975558675, 0.0014088100288063288, 0.15536552260914954
0.8782854391914637, 0.0014088100288063288, 0.07835011411713899
0.815527676718597, 0.0014088100288063288, 0.08926539978852707
0.821910440460325, 0.0014088100288063288, 0.0528712691413213
0.8704046348051846, 0.0014088100288063288, 0.10363870173065197
0.8187070039048352, 0.0014088100288063288, 0.04313019495122682
0.7043680340958928, 0.0014088100288063288, 0.08749908301331327
0.18230478441695616, 0.0014088060375468132, 0.01012994569008913
0.23793035097040394, 0.0014088075860467016, 0.03713831120971507
0.3171484769613449, 0.0014088097884712276, 0.03758156725509653
0.17436117741647666, 0.0014088058171800194, 0.016525742384183868
0.24227107873439108, 0.0014088077058416206, 0.02531263083844494
0.31351348302541665, 0.0014088096871337236, 0.033852877730364044
0.06014253265492374, 0.0014088026410044284, 0.006984588780664725
0.3187107408257153, 0.0014088098361918551, 0.09491381681080004
0.25214454889859855, 0.0014088079813111974, 0.03830068761347275
0.13402083957702152, 0.0014088046974573528, 0.04064575480777512
0.4431934993631137, 0.0014088086614104747, 0.09260303668371112
0.5001113965103285, 0.0014088064358760977, 0.0692386449211434
0.5538777412443845, 0.0014088036864556297, 0.04037408512191709
0.5413021434948766, 0.0014088054312335952, 0.058691801889743704
0.6241067076696829, 0.0014088069147020865, 0.07426748983404866
0.48595793270784227, 0.0014088051059218366, 0.05527565046913421
0.5522317014158015, 0.0014088044628677073, 0.048525378054760024
0.5793115759896256, 0.0014088027399304797, 0.030437170583900372
-0.06002698736919043, 0.0014088058912539963, 0.06353020946570498
-0.06388541058708216, 0.0014088026549154012, 0.029550852709446143
-0.13045704419898677, 0.0014088041328288111, 0.04506483848373967
-0.058537764879239826, 0.00140880407149191, 0.04442410978963457
-0.09722999992201027, 0.0014088091781035363, 0.09803803067791403
-0.0914793047711811, 0.0014088055552690859, 0.06000118697909003
-0.0925047209280655, 0.0014088066695441734, 0.07170021163488066
-0.11258850402140233, 0.0014088067271526808, 0.07230414728180634
-0.05691742318575792, 0.001408808068241217, 0.08638711975330741
-0.06940446386247111, 0.0014088058090669835, 0.06266688054704309
-0.46353212124719007, 0.001408807019395496, 0.041096883761818644
-0.5791428809818949, 0.001408802892764321, 0.023280042018225644
-0.5017989624046526, 0.0014088056565130023, 0.006358915917647289
-0.42360018520381043, 0.0014088084493390635, 0.0032795910422173478
-0.41074804365979467, 0.0014088089078549738, 0.007462991924984921
-0.5253980482087369, 0.0014088048112302514, 0.03072029847910437
-0.3923238001232707, 0.0014088095629157375, 0.034908972748881585
0.25513899811506985, 0.0014088089978406073, 0.20190968199209564
0.07485573458991368, 0.001408805151922194, 0.18964012524168183
0.15034087454760145, 0.0014088097255994126, 0.16375459276682466
0.16640671872194018, 0.001408808327850139, 0.18306856892379264
0.14695134054295436, 0.001408805568212392, 0.20628951745849497
0.08870405652959595, 0.0014088041292711303, 0.20438115024771214
0.06486580445373161, 0.001408803221836225, 0.20693478653903363
0.1345423358138183, 0.0014088083904180352, 0.17312882748707242
0.30735366521742924, 0.0014088098788758322, 0.20790081769148028
0.21115738134540307, 0.0014088074193407876, 0.205619086960803
-0.2423956686853229, 0.0014088100288063288, 0.11768371919921558
-0.2587145281401455, 0.0014088100288063288, 0.17538749694362613
-0.29314552111593484, 0.0014088100288063288, 0.15051464373679566
-0.24342285576030953, 0.0014088100288063288, 0.14349776123503175
-0.30418137766645237, 0.0014088100288063286, 0.18668929779079496
-0.3005040187265725, 0.0014088100288063288, 0.13634029435261802
-0.1963951168956149, 0.0014088100288063288, 0.11861982162919738
-0.1681879834884512, 0.0014088100288063288, 0.13917491522903344
-0.1655866549469171, 0.0014088100288063288, 0.13453172995511564
-0.598517924623496, 0.0014088033507361456, 0.19962385807859928
-0.6480832734127691, 0.0014088057250242303, 0.15628631240546292
-0.5699468219241911, 0.0014088080634153152, 0.16099007415610853
-0.5851108866026601, 0.0014088092381465069, 0.1430413781204894
-0.3907427515564602, 0.001408809675359703, 0.21101737853301844
-0.6545364900084332, 0.0014088084972838724, 0.12487765767656048
-0.6497260576310762, 0.0014088069295350753, 0.14307303310732533
-0.48979281097737254, 0.0014088084283122373, 0.18709115134862112
-0.722461569351759, 0.0014088076389016035, 0.05178455203129426
-0.6991051632788957, 0.0014088064868006394, 0.05088170370845647
-0.6811940674595781, 0.0014088068964640795, 0.06375854236693643
-0.7059713221323496, 0.001408808212739045, 0.06570357981130373
-0.854637175611448, 0.0014088092041088527, 0.0049049328101777945
-0.6609790144224494, 0.0014088012258190276, 0.013938004523629264
-0.8762516721490199, 0.0014088099073491372, 0.13964713496335895
-0.8400510812744354, 0.0014088082549566995, 0.12770577614923515
-0.7546306541479951, 0.0014088043771272297, 0.20914403638037418
-0.8289994256817973, 0.0014088077625038253, 0.18605999836562148
-0.8060335408585579, 0.0014088067130721422, 0.17257910326187317
-1.0425554792219442, 0.0014088015099707617, 0.1962866494837882
-0.917267635637828, 0.001408809293655605, 0.11467925336279877
-1.0332425358089397, 0.001408807455076041, 0.13395180145799584
-1.0256094229989174, 0.0014088027590259014, 0.18319089267055672
-1.0153116710182601, 0.001408805847049063, 0.15081299775993304
-0.8728324440736427, 0.0014088100288063288, 0.2916083296937991
-0.8412411738391521, 0.0014088100288063288, 0.2623990085864951
-0.746131246783174, 0.0014088100288063288, 0.2913729687201376
-0.8175196100973712, 0.0014088100288063288, 0.25608332867383987
-0.8039785653854434, 0.0014088100288063288, 0.2965095918398181
-0.8350739827347394, 0.0014088100288063288, 0.2597087413100948
-1.0382388996205816, 0.0014088035905175746, 0.24429673975577898
-1.032299560880594, 0.001408803699098463, 0.24172181644942123
-0.9872027479558424, 0.0014088098685223096, 0.27814705416605195
-1.0081536004584002, 0.0014088074547899542, 0.26596294008577204
-0.998843372193249, 0.0014088060596150849, 0.35827040394697873
-0.9572348153313607, 0.0014088071099919064, 0.3473015734045769
-1.0092804945341771, 0.0014088026458749707, 0.39393189056072964
-0.9183977667733223, 0.0014088094416242149, 0.3229474867654608
-1.0059004666831415, 0.0014088091610029107, 0.32587021843724995
-0.8654950493373873, 0.0014088094099996324, 0.3912627573195101
-0.7879753958134668, 0.0014088058733663724, 0.36591485240922833
-0.7772186346702773, 0.0014088053825684825, 0.3890699016165529
-0.8072785025971876, 0.0014088067539401886, 0.41640011950873157
-0.8307217509468938, 0.0014088078235618062, 0.3778153870038107
-0.8386744014497352, 0.0014088081864404038, 0.3477065887550628
0.26804733627155725, 0.0014088098062761895, 0.3144667718023343
0.0672654887222875, 0.0014088074631217772, 0.28993779572860645
-0.01555625692812552, 0.001408806747425797, 0.28244706537643893
-0.01724666939479058, 0.0014088020256713578, 0.23299124310051028
-0.004962150063502379, 0.001408807782681996, 0.2932896949135406
0.2542916822171097, 0.0014088085313776813, 0.3011143249626764
-0.024216213642419243, 0.001408802669996963, 0.23974041133595025
0.2854066307254728, 0.0014088089366631462, 0.3053572382232464
-0.009073921250574678, 0.0014088023719640503, 0.23661778932835653
-0.22172955930619168, 0.001408805484079728, 0.25990265636030274
-0.1697531425367609, 0.0014088039780058724, 0.24800375693937735
-0.23122678633139954, 0.0014088057612852865, 0.22902420145772318
-0.25661583508162455, 0.0014088064969191207, 0.23552257962272521
-0.31555755661562884, 0.0014088082059340247, 0.2307294771690963
-0.3496155657822313, 0.001408809192580575, 0.24216718471937332
-0.12257918914057958, 0.0014088026122267934, 0.21851645185107327
-0.30190987055236806, 0.0014088078083083686, 0.2632189783847996
-0.32700451220631577, 0.0014088085373161164, 0.23837516820313254
-0.25594263573640025, 0.0014088064754074767, 0.2682896744872751
-0.16457483168909912, 0.0014088084084221653, 0.16385442923002014
-0.08658082368169279, 0.0014088053957775142, 0.17175492871469905
-0.11384201732111944, 0.00140880977829848, 0.13402099175513518
-0.2508753989775074, 0.0014088074582836924, 0.20010689859545353
-0.14795910711450946, 0.001408803363192259, 0.211790109028969
-0.0765671212512604, 0.0014088016805036978, 0.20773088917671098
-0.060626325333152445, 0.0014088049064669077, 0.1689932304275554
-0.05558694890934117, 0.0014088010451870695, 0.20801713690668855
-0.05832522820325162, 0.001408805998925732, 0.1568177600398399
-0.476799924086925, 0.0014088100288063286, 0.14662090610983664
-0.5455550352488329, 0.0014088100288063288, 0.12267032865466715
-0.6075047483913929, 0.0014088100288063288, 0.1242352384070194
-0.502109062015013, 0.0014088100288063288, 0.1079877760462497
-0.5541039061903998, 0.0014088100288063288, 0.12044740241974822
-0.46861021909239275, 0.0014088100288063288, 0.12696563911859868
-0.40427361757639285, 0.0014088100288063286, 0.1952404286357298
-0.5613364587409809, 0.0014088100288063288, 0.1314143023045036
-0.5763062757819426, 0.0014088079542795722, 0.29506656329112013
-0.6423035126556845, 0.0014088092337528689, 0.3084680784220161
-0.6197203261751023, 0.0014088085202616485, 0.3009948941606429
-0.5482770622361315, 0.0014088084881073593, 0.3006576279012211
-0.4391391389730296, 0.0014088094180188632, 0.31039667961901074
-0.5515004314845037, 0.0014088098792584905, 0.31522841798400103
-0.5343675931144212, 0.0014088058008744058, 0.2725117427677754
-0.7194621634287901, 0.0014088087158082188, 0.12073099788287867
-0.7573082763624728, 0.0014088093206509021, 0.11439126111634629
-0.7131806122639768, 0.0014088068504098479, 0.14028936661154837
-0.6905385730140537, 0.0014088054943846373, 0.1545060741438699
-0.6789119438514563, 0.0014088083226730078, 0.12485083538105939
-0.6661578802911439, 0.0014088052668550155, 0.15689040836496695
-0.5099477061605243, 0.001408807444058006, 0.3995361864583098
-0.5494026544548685, 0.0014088060843652616, 0.39903746423620134
-0.4694670773349542, 0.0014088099279081026, 0.38865609864323863
-0.6583787120421316, 0.0014088044860597123, 0.37508990043443435
-0.6100122792849472, 0.0014088053227563732, 0.38438629023440973
-0.5664419438678363, 0.0014088097500319194, 0.35432602456622353
-0.3939100781823258, 0.001408809891692044, 0.4172329616158115
-0.6941455905287615, 0.0014088023423413408, 0.21950378614706864
-0.749993089643529, 0.0014088055340741247, 0.2262834822310151
-0.6659217713079535, 0.0014088070266272893, 0.2821024342742873
-0.689253262559668, 0.001408804769312748, 0.2472873020153966
-0.6810546911692367, 0.0014088076635415218, 0.2815495964006314
-0.6785659654502209, 0.0014088023170166024, 0.2266823580861786
-0.2827212370804004, 0.0014088084772232892, 0.3005488839625961
-0.17087064647639583, 0.0014088055071311072, 0.2694477355215758
-0.06587406758100564, 0.0014088012186701249, 0.22453743548833494
-0.33200105477549907, 0.0014088089576949352, 0.30557794645953196
-0.12875683515143516, 0.0014088041731432814, 0.2554783943548216
-0.10436046248008127, 0.0014088068914474192, 0.28395177363710344
-0.12769301931860366, 0.0014088080554748247, 0.29614224500826825
-0.12890474850148695, 0.0014088038102757542, 0.25167768752328024
-0.18932385498289292, 0.0014088065301441268, 0.28016155292910905
-0.12368372979942588, 0.001408808924962742, 0.30524959311966793
-0.4683464643436171, 0.0014088068219447478, 0.2501008708573452
-0.40030858228427085, 0.0014088092503559526, 0.25762811106485206
-0.4530676846110675, 0.0014088073670037204, 0.24816365761828985
-0.5698876095418192, 0.0014088031979128794, 0.24125942532870243
-0.39147233454336794, 0.0014088095633124095, 0.22622590815910895
-0.5607417047565604, 0.0014088035237102474, 0.23375132366127552
-0.38146083886734583, 0.0014088099253980035, 0.29076211279255637
0.06294021290182647, 0.0014088036741528086, 0.41126283251267387
0.08771877921768453, 0.0014088093478001392, 0.3591159784231148
0.06869882205457678, 0.0014088039229032839, 0.41033590456917446
0.0060416640760433335, 0.0014088049287086502, 0.3815838328223175
0.11787393495858317, 0.001408804973839825, 0.4136484583286946
-0.017354855325166518, 0.0014088031029944677, 0.3938768617919743
0.00048616871009490945, 0.0014088078793742579, 0.3490985246036321
0.23289304900400623, 0.001408807969358748, 0.4157742014133538
0.16346398735614442, 0.0014088095647576998, 0.37888374314501566
0.026109902792216082, 0.0014088071411008163, 0.36427715614826994
-0.23040068537684155, 0.0014088100288063288, 0.3269371231834853
-0.3581250263222019, 0.0014088100288063288, 0.3305193299269282
-0.22342446423556378, 0.0014088100288063288, 0.34274546695853525
-0.32441675841135037, 0.0014088100288063288, 0.3483472785139496
-0.3573321104681081, 0.0014088100288063288, 0.36894547331850136
-0.34195020415761135, 0.0014088100288063288, 0.356270753651639
-0.32140312765982454, 0.0014088100288063288, 0.39721640934408425
-0.21540095933511835, 0.0014088100288063288, 0.36616394346446934
-0.34936953977950846, 0.0014088100288063288, 0.3775841009015004
-1.2875027062035203, 0.0014088053798764046, 0.2594625761277952
-1.2288094828496656, 0.0014088092208172252, 0.30831769324030667
-1.2378321080573884, 0.00140880257686961, 0.4065178137434265
-1.2770422393904894, 0.0014088086949121744, 0.3307151444016333
-1.1020575990305128, 0.0014088100288063288, 0.33694612017758274
-1.1022184732902927, 0.0014088100288063288, 0.352353991466531
-1.092811592476091, 0.001408810028806329, 0.3257443850441652
-1.0000207762717797, 0.0014088100288063288, 0.3085039343689914
-0.9543044774953449, 0.0014088100288063288, 0.30085608890725624
-0.886195347950666, 0.0014088100288063288, 0.2783378021577697
-0.9063417018228186, 0.0014088100288063288, 0.2870498806466264
-1.22214933965464, 0.001408805838861714, 0.36055164227008585
-1.2215190372189582, 0.0014088057472103179, 0.36150913259980283
-1.069342358187073, 0.0014088065009530523, 0.2798471057219464
-1.0600972800117903, 0.001408809902119056, 0.3154715659143777
-1.1336971540660479, 0.001408808270269958, 0.2983695922441795
-1.172839378490264, 0.001408810028806329, 0.24578266670377583
-1.1639809883401433, 0.0014088100288063288, 0.2720858487831317
-1.155169848936246, 0.0014088098461978607, 0.30820964172139487
-1.1450902778733107, 0.0014088089155543343, 0.26848154672875185
-1.1569506011426072, 0.0014088099571954568, 0.23395798881006605
-0.9612764626716223, 0.0014088051019348327, 0.18305017075023172
-0.9083987457531828, 0.001408808260342718, 0.17408399981338057
-0.9385183421222911, 0.0014088064624969087, 0.17441846895021904
-0.9583091990387134, 0.001408805277130453, 0.19059380245351076
-0.9468820695752258, 0.0014088059592653804, 0.19028203257382553
-1.2120252693167806, 0.001408803679627348, 0.2245308357351814
-1.1758782692414669, 0.0014088099825365586, 0.23819117678487475
-1.0959164379549726, 0.0014088078781702062, 0.17616110321364836
-1.083573420380295, 0.0014088058410131944, 0.18590611342188418
-1.127836989626985, 0.0014088087459484195, 0.197086193095304
-1.0497995563308957, 0.0014088069225518722, 0.07088526045129512
-1.0882138831906374, 0.0014088064433903902, 0.028635647313947542
-1.0662856680481985, 0.001408806688583123, 0.05245492961082869
-1.115908101741511, 0.0014088100288063288, 0.1438520010087599
-1.1327318638072674, 0.0014088100288063288, 0.17484039570648488
-1.120853719878339, 0.0014088100288063288, 0.14388358279390626
-0.945199409148517, 0.0014088100288063288, 0.047750574851912725
-0.9735962540602152, 0.0014088100288063288, 0.10143133729873302
-0.8930962181592838, 0.0014088100288063288, 0.057285297724383705
-1.004336528212131, 0.0014088100288063288, 0.0923603900100909
-1.191170154964325, 0.0014088097974842922, 0.10937652002780282
-1.2065135339685809, 0.0014088035216993746, 0.17517621305911021
-1.180914761596801, 0.0014088068086461685, 0.19776277127217626
-1.1578706725760897, 0.0014088099171873033, 0.1312167855960953
-1.2322791358132608, 0.0014088093413608292, 0.11415718031295675
-1.2577190874119846, 0.001408806205652749, 0.22949783854528216
-1.1609570971629233, 0.0014088100288063288, 0.08890696830321514
-1.216200595859313, 0.0014088100288063288, 0.09846461312125605
-1.291971375985923, 0.0014088083115122627, 0.12495476535858731
-1.2561326016356344, 0.0014088059456785578, 0.17251675507235475
-1.2700282969172834, 0.001408809935241758, 0.10596828466065211
-1.235850821540075, 0.0014088029194030763, 0.032318553441171835
-1.3415637582120283, 0.0017438168941115684, 0.38937945700561816
-1.323041377725545, 0.00141365364459812, 0.2335951201073076
-1.3287973408631024, 0.0014398801763893967, 0.34459650986703383
-1.2810791540532709, 0.0014088075532112268, 0.144331859042117
-1.2771772038688778, 0.001408809875324182, 0.315172755588296
-1.3116458801149227, 0.0014088092034127628, 0.028953580200472992
-1.3203056898136836, 0.0014108576765102495, 0.09267794934005279
-1.3310042844456949, 0.0014429737184285516, 0.2902418212055702
-1.3334319597231967, 0.0014871582618083382, 0.06729378940481567
-1.3692763473357397, 0.007532357706242993, 0.2520794395440988
-1.3695047565040483, 0.011129851131151752, 0.11452504010626305
-1.370372167134204, 0.013072818401414629, 0.15304394893092638
-1.3691388338814425, 0.02368974781988139, 0.17747666520314134
-1.3331549259774182, 0.030100399500620642, 0.3655243854467536
-1.3103597007944046, 0.030196240171790123, 0.3497591744785675
-1.361399772453594, 0.02820805740449694, 0.2575113272188779
-1.3571242376481518, 0.02914182524920274, 0.24549772349981375
-1.352537972070989, 0.029263224408479862, 0.017400119010379637
-1.29742775841113, 0.030196240171790123, 0.22111241560621683
-1.3249678276418333, 0.030196240171790123, 0.18901344470550263
-1.337243309637415, 0.030085652353303217, 0.1997112329417911
-1.3334315179306366, 0.03007918794245098, 0.00938478047905882
-1.306565738805337, 0.030196240171790123, 0.13694702788230195
-1.2966669868614502, 0.030196240171790123, 0.005345798928016111
-1.293901536901756, 0.030196240171790123, 0.10958096726476564
-1.213940057649014, 0.030196240171790123, -0.5381800850734428
-1.186554221644975, 0.030196240171790123, -0.5255013902806878
-1.1113099623156215, 0.030196240171790123, -0.4963876137059838
-1.0881727865964346, 0.030196240171790123, -0.4745599910833528
-1.0945515919779536, 0.030196240171790123, -0.5168626571917301
-1.153078170357737, 0.030196240171790123, -0.593435673574597
-1.1443543664351998, 0.030196240171790123, -0.5706726960549404
-1.1383808503810242, 0.030196240171790123, -0.574209761990385
-1.1561550526824687, 0.030196240171790123, -0.46217999788218855
-1.1774139773430257, 0.030196240171790123, -0.5125523768273248
-1.2421745171596348, 0.030196240171790123, -0.6207846106953548
-1.2401012969772802, 0.030196240171790123, -0.48178042697646295
-1.2860047890729862, 0.030196240171790123, -0.43099595782400296
-1.268399582999041, 0.030196240171790123, -0.6887474491283084
-1.2886288929807752, 0.030196240171790126, -0.535851318483087
-1.2770141225649516, 0.030196240171790123, -0.6964107571036537
-1.3036409901475279, 0.030196240171790123, -0.7341252219460223
-1.0967383403181117, 0.03019624017179012, -0.680632616270571
-1.1477049957246714, 0.03019624017179012, -0.6633684788353879
-1.2318421167515983, 0.030196240171790126, -0.5715408818950671
-1.182581112973, 0.030196240171790126, -0.6992826262191995
-1.2144364436925534, 0.030196240171790123, -0.6511398870763062
-1.165636363251998, 0.030196240171790123, -0.5408294808723455
-1.1903493540896686, 0.030196240171790123, -0.5805094696314812
-1.2404764149027065, 0.030196240171790126, -0.6484188994365625
-1.2214327923216917, 0.030196240171790123, -0.7510382189572539
-1.1308617386513669, 0.030196240171790123, -0.7669864269588698
-1.1478174343901253, 0.030196240171790123, -0.7211620074950583
-1.1893523551874248, 0.030196240171790123, -0.6336873149997242
-1.0412619721766831, 0.030196240171790123, -0.766547294053765
-0.9634913129571492, 0.030196240171790123, -0.7485828707853173
-0.9778484656223501, 0.030196240171790123, -0.7679582390483609
-1.068499526155029, 0.030196240171790123, -0.6345943223737804
-1.0703409182096508, 0.030196240171790123, -0.6384534519136535
-1.0589662794353965, 0.030196240171790123, -0.692948834600771
-0.9502959243133491, 0.030196240171790123, -0.6368049187858411
-0.9371818256121505, 0.030196240171790123, -0.6394796237717602
-0.9844646182557021, 0.030196240171790126, -0.6536365918810474
-0.6699782247853774, 0.03019624017179012, -0.6275350994643661
-0.7099076926446801, 0.030196240171790126, -0.688389290754174
-0.8364578290023708, 0.030196240171790123, -0.696246179008929
-0.7419453408186828, 0.030196240171790123, -0.6875360855135135
-0.7352872020836579, 0.030196240171790123, -0.7005425434343313
-0.2167998705717526, 0.030196240171790123, -0.7726087482171939
-0.16076141846837108, 0.030196240171790123, -0.7745005721341676
-0.24742323205467426, 0.03019624017179012, -0.7572688705333331
-0.3081356177073081, 0.030196240171790123, -0.7688316244273422
-0.2288459759419681, 0.030196240171790123, -0.7584360585148814
-0.3478461702326332, 0.030196240171790123, -0.7515750655095959
-0.5618081964519349, 0.030196240171790123, -0.719480269669758
-0.4230002534281205, 0.030196240171790123, -0.713324319752406
-0.645880261034281, 0.030196240171790123, -0.7558594749157882
-0.5752315177739871, 0.030196240171790123, -0.7102358315713766
-0.5993624326524241, 0.030196240171790123, -0.7375189200639487
-0.425060299757564, 0.030196240171790123, -0.6466399617963167
-0.43618350300122904, 0.030196240171790126, -0.642303262673792
-0.477103474504197, 0.030196240171790123, -0.6794524176167928
-0.39100721993193405, 0.03019624017179012, -0.6351110494742717
-0.4255588397776968, 0.030196240171790123, -0.6706873519344205
-0.4215425795826881, 0.03019624017179012, -0.6368886012635342
-0.39243282955494874, 0.030196240171790123, -0.6971037925105248
-0.7378796219908359, 0.03019624017179012, -0.7237440843150653
-0.7715704233579233, 0.030196240171790123, -0.7309392615085317
-0.7739591456496644, 0.030196240171790123, -0.7371452293769432
-0.4817879659669959, 0.030196240171790123, -0.6264844913262714
-0.5391485881363833, 0.030196240171790123, -0.6408118934437693
-0.5843360070491904, 0.030196240171790123, -0.668508210356878
-0.6222195908175392, 0.030196240171790123, -0.6475604182267443
-0.6153741834331117, 0.030196240171790123, -0.6231979563016069
-0.6536401489270127, 0.030196240171790123, -0.6362527686242565
-0.5264156510342359, 0.030196240171790123, -0.64333579200603
-0.2328132549968691, 0.030196240171790123, -0.6834315007411058
-0.22153033188382903, 0.030196240171790123, -0.6795022679178827
-0.14819064209779348, 0.030196240171790123, -0.7070337937969957
-0.3102687247255982, 0.030196240171790123, -0.6808348169883631
-0.3710619531660059, 0.030196240171790123, -0.680772908570153
-0.16537991284958542, 0.030196240171790126, -0.6845759037818058
-0.3050660237001418, 0.030196240171790123, -0.6681008683173255
-0.6363829430137028, 0.030196240171790123, -0.4241169190205394
-0.52210260615122, 0.030196240171790123, -0.4581522254009406
-0.41275240552323395, 0.030196240171790123, -0.48376472347604854
-0.3874104697186193, 0.03019624017179012, -0.520420435310346
-0.3991952325274871, 0.030196240171790123, -0.4712399245366289
-0.4547734178659276, 0.030196240171790123, -0.46130003231909905
-0.4250922466387152, 0.03019624017179012, -0.48016621832615963
-0.3955157321417705, 0.030196240171790123, -0.4934229701332534
-0.2368629893499362, 0.030196240171790123, -0.5041345774595419
-0.16607807941117794, 0.030196240171790123, -0.4847481515311659
-0.1316117497631049, 0.030196240171790123, -0.45781113643181537
-0.2502326773345252, 0.030196240171790123, -0.4951310696350003
-0.28198588332611335, 0.030196240171790123, -0.5125471959867849
-0.2012776664714307, 0.030196240171790123, -0.48699187513347575
-0.09033150373579346, 0.030196240171790123, -0.46193690711291147
-0.10138915748953925, 0.03019624017179012, -0.4760309273955914
-0.2853558098590704, 0.03019624017179013, -0.5024058172989548
-0.18464778146110117, 0.030196240171790123, -0.6045454172958655
-0.3040124001640987, 0.030196240171790123, -0.5824453262900069
-0.3721406923053485, 0.030196240171790123, -0.5845767591646317
-0.31727995503233963, 0.030196240171790123, -0.606188198381081
-0.35814135955719806, 0.030196240171790123, -0.614848235357033
-0.2781199190229112, 0.030196240171790123, -0.6076997288033579
-0.28352245566390566, 0.030196240171790123, -0.5913274807928297
-0.3339835650853802, 0.030196240171790123, -0.6034549450084408
-0.1615520870316372, 0.030196240171790123, -0.6209000750016442
-0.46785601310430047, 0.030196240171790126, -0.5440389991130683
-0.6595598471135163, 0.030196240171790123, -0.568280000974533
-0.6144440635545715, 0.030196240171790123, -0.6058340455707305
-0.5236050615436402, 0.030196240171790123, -0.55327880989596
-0.6086375473267062, 0.030196240171790123, -0.5348805296586352
-0.6279609352948368, 0.030196240171790123, -0.5667889179172316
-0.6008702461216879, 0.030196240171790123, -0.5711780185771058
-1.0224336026419258, 0.03019624017179012, -0.6799937423245309
-1.0309295954955815, 0.030196240171790123, -0.7022455308583805
-1.01757097512577, 0.030196240171790123, -0.6585669955304645
-0.940159934313796, 0.030196240171790123, -0.6870380026609357
-1.1322954751604541, 0.030196240171790123, -0.5398320047347671
-1.083902344299461, 0.030196240171790123, -0.5502255814000305
-0.8684511587469466, 0.030196240171790123, -0.6773655774990001
-0.7451447779167926, 0.030196240171790123, -0.6246999910415781
-0.8505940596571672, 0.030196240171790126, -0.6620601573565914
-0.8721911226968733, 0.030196240171790123, -0.6865244856399288
-0.8738473362895147, 0.030196240171790126, -0.6931527819925056
-0.41571990169616346, 0.030196240171790123, -0.5802872049863764
-0.5119768488546668, 0.030196240171790123, -0.6108496790375592
-0.5863722252954974, 0.030196240171790123, -0.6094905806538647
-0.43009768180638047, 0.030196240171790123, -0.5729831125479921
-0.3973445293049114, 0.030196240171790123, -0.5796269896509993
-0.5026080920703381, 0.030196240171790123, -0.5833201173532314
-0.4264157433142034, 0.030196240171790123, -0.5949893217537617
-0.934762008549165, 0.03019624017179012, -0.5889960934792059
-0.88552812655624, 0.030196240171790126, -0.5769725863990052
-0.9646202328072735, 0.030196240171790123, -0.5254477949725043
-0.9109939860919993, 0.030196240171790123, -0.5529498227545081
-0.8144032903033867, 0.030196240171790123, -0.6124561168546072
-0.690550026613407, 0.030196240171790123, -0.5414110528111736
-0.6969710462271834, 0.030196240171790123, -0.5625533600822993
-0.7255676802626876, 0.030196240171790123, -0.5950947051701385
-0.7462167394680559, 0.03019624017179012, -0.5676198618979755
-0.7288665324538264, 0.030196240171790123, -0.5808839392407181
-0.7872997569456055, 0.030196240171790123, -0.581249228874976
-0.8676399584201268, 0.030196240171790123, -0.5374422997076668
-0.8401983296282707, 0.03019624017179012, -0.5766094544999272
-0.7585641987734485, 0.030196240171790116, -0.5549603208457639
-0.8641837948281907, 0.030196240171790123, -0.6051842989833762
-0.8187613753543936, 0.030196240171790123, -0.5933604708995558
-0.6674631110648708, 0.030196240171790123, -0.5203699668639775
-0.7073652414130741, 0.030196240171790123, -0.49883415878309106
-0.6775733654604823, 0.030196240171790123, -0.4577569954578255
-0.7603192023350208, 0.030196240171790123, -0.4715102930607953
-0.7291365395453326, 0.030196240171790123, -0.42241932565597307
-0.9770053198306329, 0.03019624017179013, -0.5662227078385039
-0.9393853268429636, 0.030196240171790123, -0.607477295912896
-0.9586629644913269, 0.030196240171790123, -0.6027114061325576
-0.936114068253953, 0.030196240171790123, -0.6160356050666407
-1.0330510289037274, 0.030196240171790123, -0.615885976217163
-0.8947502925689581, 0.030196240171790126, -0.5217123255080046
-0.9302440920703513, 0.030196240171790123, -0.5119017839063307
-0.8964809599642475, 0.030196240171790123, -0.4929171741453426
-0.8908830350604511, 0.030196240171790126, -0.49839189642806603
0.8788835519778417, 0.030196240171790123, -0.4559638628598718
0.8746358292305505, 0.030196240171790123, -0.4974533330995907
0.7529301928832017, 0.030196240171790123, -0.5116456938149265
0.7479018753571963, 0.030196240171790123, -0.5158968547620799
0.8363037136858336, 0.030196240171790123, -0.4563524662618357
0.8332086534159144, 0.030196240171790123, -0.44061433037927306
0.8074773525195533, 0.030196240171790123, -0.4873103843611225
0.7933614239334379, 0.03019624017179012, -0.612051544168553
0.7190038400495302, 0.030196240171790126, -0.5806852160078134
0.7325932059157905, 0.030196240171790123, -0.6051093319081484
0.6936705645787653, 0.030196240171790123, -0.5539629872396312
0.6931921319208888, 0.030196240171790123, -0.5825080589567273
0.8138030144955136, 0.030196240171790123, -0.6030527832367181
0.5837456287244007, 0.030196240171790126, -0.619455004347373
0.4877332364038865, 0.03019624017179012, -0.5878115766596523
0.36315633608813436, 0.030196240171790123, -0.5591807320754523
0.3425545230942771, 0.030196240171790123, -0.5870574734057667
0.38311008418984943, 0.030196240171790123, -0.5812444538059699
0.42618328202346534, 0.030196240171790126, -0.5748679531843419
0.4743188160249614, 0.030196240171790123, -0.5882635557457687
0.3562131234049736, 0.030196240171790123, -0.606011723815982
0.009344572758698433, 0.030196240171790123, -0.5410682087187706
-0.015683057129981012, 0.030196240171790123, -0.5552752556562173
0.008550838967165197, 0.030196240171790123, -0.5248938698077984
0.015262056086979614, 0.030196240171790123, -0.5662947586061826
-0.025947243663174167, 0.030196240171790126, -0.5458630042973038
0.054024749753493195, 0.030196240171790123, -0.5257789036729202
0.022553075190408563, 0.030196240171790123, -0.5622123029953742
0.034007587272584634, 0.030196240171790123, -0.5826517984467701
0.10534595975634388, 0.030196240171790123, -0.5355223867979324
0.3053046192058563, 0.030196240171790123, -0.4765545074723929
0.2819652553291663, 0.030196240171790123, -0.4211650023397533
0.2577340357433103, 0.030196240171790123, -0.4389019895286045
0.11610060120368254, 0.030196240171790123, -0.44688711829510935
0.20886038793552117, 0.030196240171790123, -0.4407154515126148
0.2568090546366188, 0.030196240171790123, -0.4479401749926706
0.11965224377572015, 0.030196240171790126, -0.4484050458200851
0.11747758748710124, 0.030196240171790123, -0.45856066238774684
0.1195613619155411, 0.030196240171790123, -0.456016753817221
0.5456809839939656, 0.030196240171790123, -0.4580283247790415
0.5418969325506554, 0.030196240171790123, -0.5226085568172396
0.4909696497110817, 0.030196240171790123, -0.51923500304441
0.6105531412578549, 0.030196240171790123, -0.4332169050008307
0.44172555799725793, 0.030196240171790123, -0.49974080649888003
0.5446735909593744, 0.030196240171790123, -0.5035590967847048
0.5779703827126955, 0.03019624017179012, -0.4518371661124992
0.4623095003222061, 0.030196240171790123, -0.4908324146226068
0.4449205290589277, 0.030196240171790123, -0.4927358317074815
-0.17375591749232036, 0.030196240171790123, -0.5411679173809781
-0.054579756301374516, 0.030196240171790123, -0.5531482651671777
-0.06014157004347911, 0.030196240171790123, -0.6092625473267239
-0.2297279045653681, 0.030196240171790123, -0.5578896255917322
-0.22687760854815125, 0.030196240171790123, -0.5430599925236246
-0.1527471597365132, 0.030196240171790123, -0.5294876311976098
-0.2638447976298885, 0.030196240171790123, -0.526453868764356
-0.3337170509330176, 0.030196240171790123, -0.5350832257157884
-0.1571380185098819, 0.030196240171790123, -0.5650261272572518
0.15348830100128003, 0.030196240171790123, -0.618256143732222
0.2848459116262123, 0.030196240171790123, -0.6035514490501597
0.2615789403707697, 0.030196240171790123, -0.5914234296652374
-0.011627779913477927, 0.030196240171790123, -0.6213708888070851
0.09761646122325109, 0.030196240171790123, -0.617537642433392
0.015057827023205812, 0.030196240171790123, -0.6130317090587751
0.2869086466083396, 0.03019624017179012, -0.5760525259099184
0.25935993861516693, 0.030196240171790123, -0.6188973678709435
0.15153732321824528, 0.030196240171790123, -0.6013045788450928
0.3356015635093177, 0.030196240171790123, -0.653172446774412
0.5471336873933076, 0.03019624017179012, -0.6979296414640116
0.5174788077835014, 0.030196240171790123, -0.6762148114668287
0.372932509348122, 0.030196240171790123, -0.6851363111209141
0.5514124126171094, 0.030196240171790126, -0.6848526194330922
0.33339930242327376, 0.03019624017179012, -0.6432014804702082
0.3874455846862097, 0.030196240171790123, -0.652178687701576
-0.0017582024463824106, 0.030196240171790123, -0.6224398142315885
0.1781628490755878, 0.030196240171790123, -0.633609567117035
0.06527088548498046, 0.030196240171790123, -0.6326116790535972
0.06683379441084202, 0.030196240171790123, -0.6388003557033659
0.005011593172117544, 0.030196240171790123, -0.6427207698071474
0.171606807268615, 0.030196240171790126, -0.6548256963855733
0.08535031151234002, 0.030196240171790123, -0.6446531012311911
-0.1686484801121748, 0.030196240171790123, -0.6375222253744727
-0.16114830459502702, 0.030196240171790123, -0.6590193224269627
-0.0687106800048495, 0.030196240171790123, -0.6289593336880495
-0.08621911134562943, 0.03019624017179012, -0.6536559451032629
-0.03369391059851736, 0.030196240171790123, -0.6885363297782284
-0.046306854611095655, 0.030196240171790123, -0.6275530117076356
-0.1832082964818453, 0.03019624017179012, -0.6279288263560405
-0.10392082406458958, 0.030196240171790123, -0.6850169798260872
0.19186143551171075, 0.030196240171790126, -0.6570847199210803
0.31549954162690574, 0.030196240171790123, -0.6984045507053982
0.2580111064662837, 0.030196240171790123, -0.6637315923378413
0.18736838290577446, 0.030196240171790123, -0.6892528748668842
0.11309280982057315, 0.030196240171790123, -0.6887419495785077
0.2046131177900593, 0.030196240171790126, -0.6687576049013676
0.28210413296938097, 0.030196240171790123, -0.6883101405335825
0.14003894191943866, 0.030196240171790123, -0.6949903731591239
0.11708411156090097, 0.030196240171790123, -0.7340265636585663
0.15218895087527337, 0.030196240171790123, -0.7269296934192635
0.05473722711532735, 0.030196240171790126, -0.7232854455875921
0.027427558950268677, 0.030196240171790123, -0.7587985676287221
0.11635237465279477, 0.030196240171790123, -0.7412136400653574
0.06660873788567567, 0.030196240171790123, -0.7406832311532342
0.5251150622498945, 0.030196240171790123, -0.7635880578554156
0.3762765606082316, 0.030196240171790123, -0.7745187889703826
0.529230444114447, 0.030196240171790123, -0.7730420206950194
0.4544018436492601, 0.030196240171790123, -0.769356057452873
0.35306494770666014, 0.030196240171790123, -0.7481349087697213
0.40401185993613886, 0.030196240171790123, -0.7526950453427816
0.850663641690658, 0.030196240171790123, -0.581611433639969
0.7141708450240808, 0.030196240171790123, -0.5334072665411927
0.7937195136624173, 0.030196240171790123, -0.5467074575892632
0.770950414789482, 0.030196240171790123, -0.5514204549610017
0.8236295467125484, 0.03019624017179012, -0.596329149134645
0.8398136796697504, 0.03019624017179012, -0.5769373843267445
0.9157375955079018, 0.030196240171790123, -0.6212617826994152
0.9371169643836575, 0.030196240171790126, -0.5983128694903652
0.991830950778027, 0.030196240171790123, -0.5865854975126045
1.0048905432227373, 0.030196240171790123, -0.5626068958285089
0.3533872392782343, 0.030196240171790126, -0.5293517968158071
0.5809623485447333, 0.030196240171790123, -0.5265512210112234
0.5077301835944987, 0.030196240171790123, -0.554696105158328
0.6156560352847333, 0.030196240171790126, -0.6106235898596726
0.42201418458620354, 0.030196240171790126, -0.5296472261710422
0.3553923262477623, 0.030196240171790123, -0.531464442450612
0.543665576109609, 0.03019624017179012, -0.5844900449993825
0.4892973679181821, 0.030196240171790123, -0.5350093683930158
0.6753255678901344, 0.030196240171790123, -0.6661790448159658
0.7818294008579216, 0.030196240171790123, -0.6766807889863897
0.6755012168006356, 0.030196240171790123, -0.6759836240335073
0.7002613770314065, 0.030196240171790123, -0.6925460961937561
0.6623796913675217, 0.030196240171790123, -0.678557460555792
0.8445569890809563, 0.030196240171790126, -0.7688048476385064
0.7111632760449944, 0.03019624017179012, -0.7363457739113847
0.6675454765744755, 0.030196240171790123, -0.7748559906438623
0.6522370985210255, 0.030196240171790123, -0.730113153591234
0.6931556857460743, 0.030196240171790123, -0.7706983938357328
0.3658759014454217, 0.030196240171790123, -0.6259308650546501
0.49511744522548196, 0.030196240171790123, -0.65517811915817
0.5343422051536548, 0.030196240171790123, -0.640551683833597
0.38840286266493973, 0.030196240171790123, -0.6374744263070198
0.5194627318431693, 0.03019624017179012, -0.6541539858212212
0.5290941228613707, 0.030196240171790123, -0.6381378085859196
0.571059367023858, 0.030196240171790123, -0.6293713064091182
0.8127382405108168, 0.030196240171790123, -0.6626010368301912
0.8271969007379179, 0.030196240171790123, -0.6278630279213142
0.782121791733547, 0.030196240171790123, -0.6669087451603604
0.8573106753207923, 0.030196240171790123, -0.6278913879351324
0.7785757248454441, 0.030196240171790123, -0.6355242131680374
1.036727875123377, 0.030196240171790123, -0.6964089701474377
1.0398629267173691, 0.030196240171790123, -0.6392714925706344
0.9485974981339358, 0.030196240171790126, -0.677709317587944
1.1101422492690698, 0.030196240171790123, -0.7244716388141057
1.0543371804275938, 0.030196240171790123, -0.7719906117186637
1.21462813364864, 0.030196240171790123, -0.678096988468458
1.2056544107978868, 0.030196240171790123, -0.7035962670138884
1.1178066200723988, 0.030196240171790123, -0.7014525351497706
1.0999491314488543, 0.03019624017179012, -0.6842323909588914
0.9456754323032022, 0.030196240171790126, -0.746315336423729
0.9019898523491385, 0.03019624017179012, -0.7087515629730747
0.9423653172330207, 0.030196240171790123, -0.72407055448604
1.2372827253457692, 0.030196240171790123, -0.7443266579409861
1.1634759405213426, 0.030196240171790123, -0.7257963060547514
1.259746461775735, 0.030196240171790123, -0.6310085706082958
1.2926210629303208, 0.030196240171790123, -0.703707219063008
1.2672949898840722, 0.030196240171790123, -0.5660473276691692
1.2449149869660123, 0.030196240171790126, -0.43761729891059065
1.2754904344333746, 0.030196240171790123, -0.5615216432292791
1.1321500896692924, 0.030196240171790123, -0.6129575582990708
1.125028385397544, 0.030196240171790123, -0.6179562429062214
1.126947639032687, 0.030196240171790123, -0.5632679152644087
0.9079944574880077, 0.030196240171790123, -0.6582644489910578
1.0364367511445944, 0.030196240171790123, -0.6258565759037423
0.9189501582834142, 0.03019624017179013, -0.6879200621778886
0.9360781882350675, 0.030196240171790123, -0.6634264213412656
1.0707186629448677, 0.030196240171790126, -0.6816772243693829
1.0498893763206816, 0.030196240171790123, -0.6918746306966749
1.221595920095865, 0.030196240171790123, -0.567551222510844
1.219102771474655, 0.030196240171790123, -0.5676431610810257
1.1721972015398463, 0.030196240171790123, -0.675729912320824
1.2445107524119807, 0.03019624017179012, -0.6756776247106187
