0.8490455811658061, 0.3333333432674408, 0.3548940247812736
0.2784465078185734, 0.3333333432674408, -0.30469540904474746
0.7515410407800123, 0.3333333432674408, 0.309599697926282
0.31750301441870166, 0.3333333432674408, -0.09385703280096452
0.27791189966603574, 0.3333333432674408, -0.2977683497138575
0.8315874374768595, 0.3333333432674408, -0.396155600855211
0.9344932934307442, 0.3333333432674408, -0.3403084867701951
-0.5991045947111773, 0.3333333432674408, -0.46868224516026163
0.6812036383483917, 0.33333334326744085, -0.005711791026433571
0.4647155512917069, 0.3333333432674408, 0.11372999430963818
0.30714986381253656, 0.3333333432674408, -0.1551381781747251
-0.06741996213516516, 0.3333333432674408, -0.03429434735458542
0.5627561896696939, 0.3333333432674408, 0.21219627180950826
-0.38602057789695343, 0.3333333432674408, -0.4904302650993969
0.8858442332527585, 0.33333334326744085, 0.4381443937946048
0.7162487829594256, 0.3333333432674408, 0.07733773877515478
-0.3037792684491469, 0.3333333432674408, -0.37567439624051735
0.8798786280716073, 0.33333334326744074, -0.30368609052656925
0.18796619028674538, 0.3333333432674408, -0.376753977356698
0.9315034880573586, 0.33333334326744085, -0.29614109567799046
0.5270268185454843, 0.3333333432674408, -0.04089138503463485
0.07913450049841209, 0.3333333432674408, -0.39871466871039335
0.8815685313109349, 0.3333333432674408, -0.10617303227888553
0.0563732613546406, 0.3333333432674408, -0.0680648220934032
0.4497358874092312, 0.3333333432674408, -0.2094516643064285
-0.5910300693419686, 0.3333333432674408, -0.3056963219466711
0.3131542243112441, 0.3333333432674408, -0.34733285738703823
-0.2522315233444662, 0.3333333432674408, -0.21676772492456312
0.9723153135212446, 0.33333334326744085, 0.2742362213718465
0.7819204471595667, 0.3333333432674408, -0.31451350082971985
0.2776278819358001, 0.33333334326744085, -0.48990805019915507
0.6572997349029178, 0.3333333432674408, 0.31016660596096585
-0.4624152114018279, 0.3333333432674408, -0.3393968681891233
0.09138850923834285, 0.3333333432674408, -0.20260759244133014
0.5955264373597688, 0.3333333432674408, 0.0791247637296097
0.6993179240859095, 0.3333333432674408, -0.3103073867196051
-0.6305506624780279, 0.3333333432674408, -0.35246860004643255
0.6725201958918938, 0.3333333432674408, -0.2419944443594745
0.14100456170799225, 0.3333333432674408, -0.2627495203915282
0.6994151390404535, 0.3333333432674408, -0.4550795759182732
0.837167691807956, 0.3333333432674408, 0.249927273091073
0.1372981304826834, 0.3333333432674408, -0.00886562969406371
0.4195996434067919, 0.3333333432674408, 0.08966157342609421
-0.5671682567933136, 0.3333333432674408, -0.32787819727606465
0.8555460616362875, 0.3333333432674408, -0.42025812014103203
0.6937290712610475, 0.3333333432674408, -0.46238413884139784
0.5463010568201991, 0.33333334326744085, -0.4615339324252342
0.8156979456999773, 0.3333333432674408, 0.2320180057849836
-0.19166155766070014, 0.3333333432674408, -0.4748932276428851
0.6352094034954043, 0.3333333432674408, -0.45092259208497076
0.7320288304480469, 0.3333333432674408, 0.006485305546241507
-0.5265189367240546, 0.3333333432674408, -0.4180907584190758
-0.19333071341143243, 0.3333333432674408, -0.28774110401672676
0.4462608732898746, 0.3333333432674408, 0.09015290785537014
-0.5705165306480813, 0.3333333432674408, -0.4488101358949815
0.8579166753108924, 0.3333333432674408, -0.3682700290313007
0.3799551731532556, 0.3333333432674408, -0.10544204084218173
-0.1645519502028343, 0.3333333432674408, -0.16287788265081088
0.4488957557204919, 0.3333333432674408, 0.02142463389857316
-0.070710487087842, 0.3333333432674408, -0.04394726519334072
0.6326259794954829, 0.3333333432674408, -0.4044754610252516
0.14478844984754452, 0.3333333432674408, -0.0887682694065959
-0.3801103272569992, 0.3333333432674408, -0.28688216820184675
0.9177652896720189, 0.3333333432674408, 0.32431792667803083
0.13390514368835826, 0.3333333432674408, -0.17755075576040003
-0.1275266828625743, 0.3333333432674408, -0.2233932070498459
0.38058953377251975, 0.3333333432674408, 0.1689021434216379
-0.13035056716417026, 0.3333333432674408, -0.35966427770128623
-0.12729123372925177, 0.3333333432674408, -0.12191850295681445
0.04899447345909419, 0.3333333432674408, -0.3975075928978769
0.9688424231954972, 0.3333333432674408, 0.360706127060785
0.5620015590067996, 0.3333333432674408, 0.03581540788475966
0.284174159140031, 0.3333333432674408, -0.10875671998077549
0.9396987582893285, 0.33333334326744074, -0.4226067781952808
0.3364900489129208, 0.3333333432674408, -0.08815273326141274
0.16627159418123688, 0.3333333432674408, -0.4336404648998937
0.33296116329050873, 0.3333333432674408, -0.17226559584214227
0.7062529821687771, 0.3333333432674408, -0.4616248300218912
-0.4855557991027786, 0.3333333432674408, -0.3521500658886737
0.11881546424088424, 0.3333333432674408, -0.4169187051145899
0.560628515482952, 0.3333333432674408, -0.01074444221173941
0.5104821611115242, 0.3333333432674408, -0.4767387957764194
-0.19951798515728753, 0.3333333432674408, -0.18027954398059795
0.4617511884721837, 0.3333333432674408, -0.4027386900320172
0.4903877559397695, 0.3333333432674408, -0.3319892247994483
0.6545858966483483, 0.3333333432674408, 0.009060127840123819
0.7140375917527768, 0.33333334326744085, 0.21481833180460363
-0.08094047044035024, 0.3333333432674408, -0.27903689384459884
-0.17859541604237616, 0.3333333432674408, -0.35753719556488944
0.3821865673202744, 0.3333333432674408, 0.1278238071198751
0.8486916022306672, 0.3333333432674408, 0.3656860749268284
0.1728063427296634, 0.3333333432674408, -0.21261175726471854
0.5217710626264564, 0.33333334326744085, 0.1688965465122975
0.9796230419020606, 0.33333334326744074, 0.1474200420443427
0.06190056698468566, 0.3333333432674408, -0.3674444386431919
-0.08439146127732355, 0.3333333432674408, -0.3371239557068897
0.7478570938139244, 0.3333333432674408, 0.10336501145130392
0.19665116393915372, 0.3333333432674408, -0.3786038531787042
0.9508237537461289, 0.3333333432674408, -0.07774760351251335
0.03306203494982407, 0.3333333432674408, -0.20917658130154604
-0.030543943259535578, 0.3333333432674408, -0.25613730879121777
0.3139928457868621, 0.3333333432674408, -0.26778732567978164
0.5067286022103921, 0.3333333432674408, -0.10284329742065008
-0.6316475766081702, 0.3333333432674408, -0.37505462020214575
0.2869690180151783, 0.3333333432674408, -0.06190448183893617
0.7689941622688246, 0.3333333432674408, 0.003930980445905605
0.36275602534477563, 0.3333333432674408, -0.3350108796438952
0.2141648580130624, 0.3333333432674408, -0.10033896006323784
0.21925260153791998, 0.3333333432674408, -0.01781327995672527
-0.36869371349089075, 0.3333333432674408, -0.3241967027218553
0.7645883879026016, 0.3333333432674408, 0.28148819127673486
-0.4380321037134014, 0.3333333432674408, -0.27233329964326136
0.6810241264521051, 0.3333333432674408, -0.44568923495133383
0.8181305047581618, 0.3333333432674408, 0.024922261377908067
-0.5693167982383245, 0.3333333432674408, -0.4525457073999938
0.7995040358345387, 0.33333334326744085, 0.04053673930966701
0.8809223440038221, 0.3333333432674408, -0.24078988592429534
0.943769346896028, 0.3333333432674408, 0.2630701500174528
0.7376967259211553, 0.3333333432674408, 0.0816370150925617
0.8671171902303914, 0.3333333432674408, -0.29024283909741677
0.36729603781889314, 0.3333333432674408, -0.30752463506640015
0.6011398747516593, 0.3333333432674408, 0.016177000695712748
0.3950503727440103, 0.3333333432674408, -0.06643391526328901
-0.500997249919146, 0.3333333432674408, -0.25763953299854303
-0.468853126190348, 0.3333333432674408, -0.4769938536489988
-0.03573320224463211, 0.3333333432674408, -0.47599487952275776
0.42514612479444475, 0.3333333432674408, 0.05261148914682262
0.8086243215536684, 0.3333333432674408, -0.009779936639956036
0.2697500431856543, 0.3333333432674408, 0.03572248495764016
0.7047170102196465, 0.33333334326744074, -0.37995656152516394
-0.03640675076514893, 0.3333333432674408, -0.185456542280244
0.7053190791378695, 0.3333333432674408, 0.3406145481710531
0.8815128025492522, 0.3333333432674408, -0.3395017522607076
0.9563172246731848, 0.33333334326744074, 0.13531399230828903
0.7804677726750673, 0.3333333432674408, 0.08714515889578897
-0.5607260698750107, 0.3333333432674408, -0.29658305152451475
0.6991200495101086, 0.3333333432674408, -0.4930685728795141
0.5136250407358944, 0.3333333432674408, -0.17556195636050476
0.9888791974032634, 0.3333333432674408, -0.008383390019531601
0.7512904128843451, 0.33333334326744085, 0.33563497367828904
-0.35961286692960126, 0.3333333432674408, -0.2571921464946342
0.9312219621985984, 0.3333333432674408, 0.39479017972558683
0.17780901673524124, 0.3333333432674408, -0.3634881168327178
0.916964366834535, 0.3333333432674408, -0.46906958047818526
0.6245962151420692, 0.33333334326744085, -0.3161358014280393
0.014736307309202612, 0.3333333432674408, -0.4530234331764756
-0.28828139897203425, 0.3333333432674408, -0.4075578592474252
0.9606552574094682, 0.3333333432674408, 0.4446105269209485
0.5937322235503686, 0.3333333432674408, -0.02231441244231551
-0.2785674861684306, 0.3333333432674408, -0.45697657139477754
-0.0468979048949299, 0.3333333432674408, -0.0819619744577765
0.5360677906706006, 0.33333334326744074, -0.34049854826442644
0.6931332400309762, 0.3333333432674408, -0.015416717669193253
0.7245863733309126, 0.3333333432674408, -0.03887258967247734
0.670713054779718, 0.3333333432674408, 0.08530900463494862
0.0807586934429374, 0.3333333432674408, -0.4657965001567601
0.5038550359129349, 0.33333334326744074, -0.36033437114242645
0.7793713701172201, 0.3333333432674408, -0.2689437132600634
0.8065099122607555, 0.3333333432674408, 0.15320871283696286
0.5780103593263901, 0.3333333432674408, -0.22138907041863
-0.13910887435812325, 0.3333333432674408, -0.29481582847144483
-0.14624808438406195, 0.3333333432674408, -0.12329968107058886
-0.547767281065626, 0.3333333432674408, -0.41172134555552387
0.7118603908920824, 0.3333333432674408, -0.022827377571190396
-0.14103452373393366, 0.3333333432674408, -0.28536927671593765
0.7044055412846452, 0.33333334326744074, 0.11249927389917871
0.5897292264060225, 0.3333333432674408, -0.22476191391055123
0.15386610449286292, 0.3333333432674408, -0.26103385432509185
0.515934423375354, 0.33333334326744074, 0.16772122524654193
-0.02494758617282028, 0.3333333432674408, -0.424241275645578
0.885377895784513, 0.33333334326744085, 0.08636668357424626
0.7867207789531279, 0.3333333432674408, -0.368084943792438
-0.25870569145081124, 0.3333333432674408, -0.17100979592513557
0.9275853113484083, 0.33333334326744074, -0.35780582518169496
-0.6662492230870469, 0.3333333432674408, -0.3398784623668053
0.854728764809914, 0.3333333432674408, -0.42406895335535005
0.23150350497955108, 0.3333333432674408, -0.26717454447545813
-0.06059047943260265, 0.3333333432674408, -0.03472579125473996
0.5008928910055856, 0.3333333432674408, -0.22146630384079014
0.4565307725234705, 0.33333334326744074, -0.29543036505402676
0.6497621682048778, 0.3333333432674408, -0.34999312862964727
-0.16488219579484226, 0.3333333432674408, -0.09751216176371669
0.6672580787470975, 0.3333333432674408, -0.36930192555732566
0.8294846519258857, 0.33333334326744074, -0.4214373652735202
0.08127272436151628, 0.3333333432674408, -0.1967980779259309
0.04721718841235606, 0.3333333432674408, -0.4820242503892467
0.6172566856120603, 0.3333333432674408, -0.3557520165172291
-0.44481466340868936, 0.3333333432674408, -0.458585235482279
0.11110642881624577, 0.3333333432674408, -0.08213173681287625
0.4670183305241663, 0.3333333432674408, -0.14912742202203824
0.8293965035448402, 0.3333333432674408, 0.22960928553415919
0.17864910778642495, 0.3333333432674408, 0.053020562230880586
0.2927032243419838, 0.3333333432674408, -0.4042361315205196
-0.7651174100360499, 0.3333333432674408, -0.384419676160004
0.15669294503190984, 0.3333333432674408, -0.009085452551191892
0.5727885757869131, 0.3333333432674408, -0.005462094709985182
0.715495908650756, 0.3333333432674408, 0.15099006518344688
0.47853827847477465, 0.3333333432674408, -0.06523741881444262
0.33190796701788394, 0.3333333432674408, 0.03559527733474693
0.17076246769488929, 0.3333333432674408, -0.2478290806653986
-0.5112451334989463, 0.3333333432674408, -0.436059228238254
0.575560796607917, 0.33333334326744085, 0.003686285433455297
-0.08110458756715988, 0.3333333432674408, -0.1190813583267509
0.6859084485451452, 0.3333333432674408, 0.1418176876860364
-0.22400645265949132, 0.3333333432674408, -0.2662161369143004
-0.19122273276207324, 0.3333333432674408, -0.35251664640133495
0.15263587414211993, 0.3333333432674408, 0.03180660298139895
0.49988826013340804, 0.3333333432674408, -0.30823003909000757
0.9238034593832093, 0.3333333432674408, -0.0936195260639163
0.8229989626438428, 0.3333333432674408, -0.3184363058333985
0.914116490076665, 0.3333333432674408, -0.4845590246481396
0.5161724313687757, 0.3333333432674408, -0.4411115590561723
0.5832827903832638, 0.3333333432674408, 0.08791172566579904
0.6708732075426718, 0.3333333432674408, 0.055776917994401876
0.19075368306799612, 0.3333333432674408, 0.001978905348678728
0.6354291898286898, 0.3333333432674408, 0.26855572846605547
0.11244404113978335, 0.3333333432674408, -0.2995146914793709
-0.6421043368745372, 0.3333333432674408, -0.48158518097143327
-0.004145547979971798, 0.3333333432674408, -0.47560606037029485
0.26039268143743405, 0.3333333432674408, -0.4800847809375548
-0.0745655928889774, 0.3333333432674408, -0.20664145004018336
0.01732494415226138, 0.3333333432674408, -0.44852807402140976
0.508547878538869, 0.3333333432674408, 0.05055183390788512
0.7998660295784688, 0.3333333432674408, -0.3441599012952404
0.891739916026834, 0.3333333432674408, -0.30515683644969477
0.8999489805170355, 0.3333333432674408, -0.013583799505843583
0.3336497739673449, 0.3333333432674408, 0.11057099698478415
0.6458503124785784, 0.33333334326744085, -0.22159876757209196
0.480420854538229, 0.3333333432674408, 0.12128157549957821
0.6099429912386238, 0.3333333432674408, 0.2605512885807238
-0.11588340679517461, 0.3333333432674408, -0.3136339021515079
0.29875946037867096, 0.3333333432674408, -0.12584671885094184
0.295325825607835, 0.3333333432674408, -0.4529868429444631
0.3790455455368641, 0.33333334326744085, 0.08910516378440822
0.4915098134616501, 0.3333333432674408, -0.14030113580038261
0.7839215270341267, 0.3333333432674408, -0.43440220093555293
0.06142359550339288, 0.3333333432674408, -0.12208200476923232
0.8324388377876965, 0.3333333432674408, 0.09751965219708747
-0.009858001776866576, 0.3333333432674408, -0.30990026033937146
-0.3981687469308836, 0.3333333432674408, -0.2444515283474234
-0.030427208818698315, 0.3333333432674408, -0.1594705540024334
0.6160253963738069, 0.3333333432674408, -0.40564984252567865
0.6090401093677591, 0.3333333432674408, -0.08601728201256327
0.7476920915572769, 0.3333333432674408, -0.1417600923608307
0.38696657851868815, 0.33333334326744085, -0.47537839307021956
0.7181763620130739, 0.3333333432674408, -0.34636168181112176
0.05976443983972146, 0.3333333432674408, -0.015540491328271788
0.6262201635236835, 0.3333333432674408, -0.16417664153947945
-0.08528074358439292, 0.3333333432674408, -0.3077636248105875
0.7227953570303327, 0.3333333432674408, -0.1962589514176009
-0.261573703720786, 0.3333333432674408, -0.1622852855591558
0.13402673775752666, 0.3333333432674408, -0.04640772410562463
0.8452196572361861, 0.33333334326744085, -0.38761332519761577
0.21613861961383046, 0.3333333432674408, -0.1317422603501234
0.4626882360499494, 0.3333333432674408, -0.05797579007148618
-0.9301869811663499, 0.3333333432674408, -0.468011792224911
0.8642430414951943, 0.33333334326744085, 0.3627144417552013
-0.1473462052848754, 0.3333333432674408, -0.20522715987538387
0.8926743627631852, 0.3333333432674408, 0.3721749428053828
0.757409821408084, 0.3333333432674408, -0.2719121115347121
0.882953551029492, 0.3333333432674408, -0.22591313354180137
0.7823224662457141, 0.3333333432674408, 0.3416707511438629
-0.21043596096815154, 0.3333333432674408, -0.25283859660675867
0.5656593006357782, 0.3333333432674408, -0.19736146011461408
0.47856788891307134, 0.3333333432674408, -0.10719999920059808
0.46482393917136644, 0.3333333432674408, -0.3190353602158639
-0.6361819826947306, 0.3333333432674408, -0.42698410790227703
0.06571216110234918, 0.3333333432674408, -0.17337370215401227
0.06043799655278925, 0.3333333432674408, -0.2837635739950833
0.5598037137033036, 0.3333333432674408, -0.15027108636630493
-0.537399082579356, 0.3333333432674408, -0.4468518585758784
0.5049364818458763, 0.3333333432674408, -0.016448719092963207
0.8730346516669383, 0.33333334326744074, 0.2746044544562429
-0.21736005216652027, 0.3333333432674408, -0.44278223763623503
0.29222856147637916, 0.33333334326744074, -0.260648315000391
0.22203709139749261, 0.3333333432674408, -0.3944900254169595
0.9139602532467055, 0.3333333432674408, -0.09587503587467255
-0.2739511715991112, 0.3333333432674408, -0.40404868602607236
0.804730402036559, 0.33333334326744074, -0.22140573675098424
0.6907821702613122, 0.3333333432674408, -0.11748784260118415
0.7511394147122091, 0.3333333432674408, -0.3007303690596114
0.5674641153289758, 0.3333333432674408, 0.027193287560922735
0.13559891209659775, 0.3333333432674408, -0.37924668120853555
0.1739493585047311, 0.3333333432674408, 0.010816353967771669
0.7070060652552368, 0.3333333432674408, -0.35306525417203977
-0.2027933711208303, 0.3333333432674408, -0.27504903400428554
-0.27577482592338526, 0.3333333432674408, -0.14719709311347476
-0.051355588861030865, 0.3333333432674408, -0.2107151408376014
0.8944387920248793, 0.33333334326744074, 0.06673606685461717
0.7416352229716417, 0.3333333432674408, 0.121077994302121
0.20350513335664822, 0.3333333432674408, -0.18036438456816778
0.5114529815445987, 0.33333334326744074, -0.05067354338496277
0.2921135269250035, 0.3333333432674408, -0.1386483780631166
-0.10176627619427958, 0.3333333432674408, -0.449233366448471
0.9476388065458445, 0.3333333432674408, -0.45269039678552825
0.2609158867992281, 0.3333333432674408, -0.24705174368009492
-0.5548400127296966, 0.3333333432674408, -0.42542474153258614
0.5849810518323675, 0.3333333432674408, 0.09492425236933552
-0.3520841489938455, 0.3333333432674408, -0.45100895783939987
0.976939488441507, 0.3333333432674408, 0.1567895157542762
-0.33754252713523614, 0.3333333432674408, -0.28969152863319925
-0.6590375851058388, 0.3333333432674408, -0.49257481982815876
0.7681586216784444, 0.3333333432674408, 0.07383091517152615
0.9129455347743483, 0.3333333432674408, -0.2522783855156039
-0.07071025279006804, 0.3333333432674408, -0.2611988255516703
0.7888987460425099, 0.33333334326744085, -0.07721344978603054
0.4436345568508336, 0.3333333432674408, 0.03446867546879795
0.781246895825447, 0.3333333432674408, 0.1380402693535625
0.36369553363147517, 0.3333333432674408, -0.15727888242986868
0.9186720575043968, 0.3333333432674408, -0.35834505414137807
0.47320328212526674, 0.3333333432674408, 0.08696312659406041
0.07016741066733795, 0.3333333432674408, -0.12491389238117384
0.8382729287162038, 0.3333333432674408, 0.3911329667156864
0.8379093063057428, 0.3333333432674408, 0.09717284089486716
0.03250550750046299, 0.3333333432674408, -0.2304501884943461
0.8448515139581314, 0.3333333432674408, -0.09228376541121776
0.45404512295989163, 0.3333333432674408, -0.2941369894431852
-0.8722457228806294, 0.3333333432674408, -0.4749956537263381
0.3031085844894837, 0.3333333432674408, 0.11405186436816209
0.6235115254921684, 0.3333333432674408, 0.26706960253881756
0.7369542569960043, 0.33333334326744085, -0.3376847061687079
-0.08590691013593665, 0.3333333432674408, -0.08949071216603871
0.8273893974450955, 0.33333334326744074, 0.03529494962308643
-0.8680868797863078, 0.33333334326744074, -0.4787282999810362
0.8066939065112858, 0.33333334326744074, -0.256133169363386
0.3047674322050857, 0.3333333432674408, -0.25257768257932667
-0.1903741107062657, 0.3333333432674408, -0.48884664724931437
0.6209315424406496, 0.33333334326744085, -0.32767971717940775
0.9882241100425584, 0.3333333432674408, 0.42564782207308055
0.8534371574064139, 0.3333333432674408, -0.3434951334726367
0.5283679023630228, 0.3333333432674408, -0.062122826456596766
0.10334992855420966, 0.3333333432674408, -0.37023844274744594
0.14457367132504406, 0.3333333432674408, -0.2255323100718717
-0.6405747988643973, 0.3333333432674408, -0.4307823705924354
0.18708360058328555, 0.3333333432674408, -0.416231238370824
0.9170278397377744, 0.3333333432674408, 0.1499599593729991
-0.41570268727890247, 0.3333333432674408, -0.2544752328074605
0.6761416833150786, 0.3333333432674408, -0.4297278100763992
-0.46011524568569584, 0.3333333432674408, -0.2929345645992214
0.6361274310494593, 0.3333333432674408, 0.08034989166330034
0.9749099462576618, 0.3333333432674408, 0.4785007727293423
0.8533995153888075, 0.3333333432674408, 0.08401340206371793
0.4311996854470866, 0.3333333432674408, -0.20897742774244618
0.8422348163545962, 0.3333333432674408, -0.059479071267885195
0.3676750348868518, 0.3333333432674408, -0.02345541294031253
0.47266915858263336, 0.3333333432674408, 0.052535835292435495
0.9619419342838494, 0.33333334326744085, -0.3579078770714566
0.7857080089763162, 0.33333334326744085, -0.06004131882122051
0.11586736878288528, 0.3333333432674408, -0.3112817398354512
-0.5866673086181478, 0.3333333432674408, -0.46240878488620185
-0.39507828045252175, 0.3333333432674408, -0.4293734668063829
0.13928575895838785, 0.3333333432674408, -0.38645942355514695
-0.11856586994951107, 0.3333333432674408, -0.41599311064559163
-0.40082087771597924, 0.3333333432674408, -0.23812722339438613
0.6102966745482492, 0.3333333432674408, -0.22958789951500247
0.7856781044501178, 0.33333334326744085, -0.058192486741776094
-0.4132043701286543, 0.3333333432674408, -0.21192484887785046
-0.062013688027351854, 0.3333333432674408, -0.3608574405581064
0.5931255933792078, 0.3333333432674408, -0.3976756868672267
-0.1913992455101966, 0.3333333432674408, -0.31790267912005815
0.2499007414695294, 0.3333333432674408, -0.3391184886745061
-0.3703336368963652, 0.3333333432674408, -0.18625192055898696
0.22704816326146982, 0.3333333432674408, 0.04454308109699728
-0.19145927705285026, 0.3333333432674408, -0.3542059121659247
0.10828968051192334, 0.3333333432674408, 0.05241026219534581
0.11445766547577163, 0.3333333432674408, -0.008763322668033369
0.9281306528724861, 0.3333333432674408, 0.06723653121176627
0.4470724842869809, 0.3333333432674408, -0.05355505748419401
0.5763001753938408, 0.3333333432674408, -0.35498276482111374
0.727250730707391, 0.3333333432674408, -0.32171174850340056
-0.4777190085439079, 0.3333333432674408, -0.48628905569490866
0.37982308685429894, 0.3333333432674408, -0.24648137023778482
0.8237329258870161, 0.3333333432674408, 0.2176669807252234
0.7319771376984038, 0.3333333432674408, -0.24523607695623623
0.10077802022655541, 0.3333333432674408, 0.04392963240241066
0.89241486803762, 0.3333333432674408, 0.1762010617198052
0.11626968951760891, 0.33333334326744074, -0.4709511961557558
0.07469352072779689, 0.3333333432674408, -0.08832678136749039
0.5548691276894435, 0.3333333432674408, -0.013517516470126667
0.558483663644848, 0.3333333432674408, 0.23595848080303256
0.8878250035240749, 0.3333333432674408, 0.014599675589998789
-0.19065415690189813, 0.3333333432674408, -0.4475446669434302
-0.15502750924802916, 0.3333333432674408, -0.36462948583106675
0.7663212995895166, 0.3333333432674408, 0.29541728511679655
0.10467493897918151, 0.3333333432674408, -0.39177088451627096
0.5695444086495152, 0.3333333432674408, 0.19623540378463566
0.7332523021380848, 0.3333333432674408, -0.09270613084824764
0.2188351025759867, 0.3333333432674408, -0.3999797828354106
0.43357730657224547, 0.3333333432674408, -0.4842643353272451
0.6572876422708214, 0.3333333432674408, 0.19470843047724584
0.7185468492782359, 0.33333334326744085, -0.16693629225310208
0.6208767783600406, 0.3333333432674408, -0.3595642425581703
0.031137196689187963, 0.3333333432674408, -0.038489362184243675
0.6914088256898473, 0.33333334326744074, -0.39724903768105396
-0.34345412280936616, 0.3333333432674408, -0.2822558657464186
0.3540801387478711, 0.3333333432674408, -0.1367784497918077
0.7673256319846029, 0.3333333432674408, 0.3595264955552268
-0.0005348027462913629, 0.3333333432674408, -0.3712014480884195
-0.1850678798346892, 0.3333333432674408, -0.11945968770246698
0.19841682969043045, 0.3333333432674408, -0.3194946353001273
0.6900741994180393, 0.3333333432674408, -0.007100524332534733
0.7274546114683624, 0.3333333432674408, -0.11491998149767653
0.5669873205466467, 0.3333333432674408, -0.04959816542243553
0.301584618208077, 0.3333333432674408, -0.3375664305500724
0.008792970767920683, 0.3333333432674408, -0.0020398622981334935
0.5009083008550577, 0.33333334326744085, -0.41827685641658596
0.9067467479941856, 0.33333334326744085, -0.3381643924181761
0.07153390404483512, 0.3333333432674408, -0.2212578539924449
0.00375592631909466, 0.3333333432674408, -0.030713030535186397
0.5919283117705441, 0.3333333432674408, 0.10724977611659686
-0.838625535202578, 0.3333333432674408, -0.48643164494980123
0.21761216454225835, 0.3333333432674408, -0.2853606104923332
0.483544091142958, 0.3333333432674408, 0.1553168027345755
0.6315447584202261, 0.3333333432674408, -0.19453747799228427
0.32305176413049924, 0.3333333432674408, -0.029937182012437225
-0.3029959849603865, 0.3333333432674408, -0.43110827821891856
0.3980947112525846, 0.3333333432674408, 0.17886094407279984
0.4460770678008106, 0.3333333432674408, 0.1339551417017269
-0.23221801708154488, 0.3333333432674408, -0.32465879999925334
0.4807612499626253, 0.3333333432674408, -0.34516834467894364
0.5166819160969187, 0.3333333432674408, 0.13710880490769112
-0.4032313956660005, 0.3333333432674408, -0.39348095395417754
0.25031894921244735, 0.3333333432674408, -0.34779585267266444
0.8529229592571954, 0.3333333432674408, -0.09964807506105694
-0.30570548195684905, 0.3333333432674408, -0.16316283314488897
-0.06631938445561075, 0.3333333432674408, -0.15157861397444578
0.27152882109069054, 0.3333333432674408, -0.10261168012754235
-0.11190463699190745, 0.3333333432674408, -0.10359982954910443
0.7381605724385344, 0.33333334326744085, -0.2590843766536286
-0.06269718676116148, 0.3333333432674408, -0.1993020431288759
0.3866917114877857, 0.3333333432674408, -0.43415196222876873
0.2645476611156875, 0.3333333432674408, -0.23748230415967955
0.7249811621993234, 0.3333333432674408, -0.4820547831715747
0.5122681211313248, 0.3333333432674408, -0.4474546962682557
-0.4842330340887249, 0.3333333432674408, -0.3665790716146461
0.39775317200476484, 0.3333333432674408, -0.3219807998459
0.09980886788029225, 0.3333333432674408, -0.4496582498826754
0.7577576529608935, 0.33333334326744074, -0.3885956006094249
0.21599396492714973, 0.3333333432674408, -0.30345526418226954
0.9685632234114019, 0.33333334326744085, 0.21112601173863507
0.37685966118552655, 0.33333334326744085, -0.49323297004296013
0.6522396520664742, 0.3333333432674408, 0.20749073522779163
-0.8220275300728321, 0.3333333432674408, -0.47013178699842667
0.00965303839507281, 0.3333333432674408, -0.06934637674470684
0.7134803047631624, 0.3333333432674408, -0.48195814729958464
-0.336952913918418, 0.3333333432674408, -0.33072382872369593
-0.1273178825868802, 0.3333333432674408, -0.12009808814781114
-0.08451733432004033, 0.3333333432674408, -0.06586408131893773
-0.7095903145420506, 0.3333333432674408, -0.42036498255386434
-0.43640081862410446, 0.3333333432674408, -0.4602341773239129
-0.3254017878683353, 0.3333333432674408, -0.45079090034677
0.37647221278764265, 0.3333333432674408, -0.32859810603134787
0.35308674776999954, 0.3333333432674408, -0.20517661547395338
0.08484348005652753, 0.3333333432674408, -0.10744475484685902
-0.1890866119245586, 0.3333333432674408, -0.13217752409335504
0.67672895722519, 0.3333333432674408, -0.002970233991592963
0.8949079508854826, 0.3333333432674408, -0.3263261994316377
0.5398633424293682, 0.3333333432674408, -0.11581871487801536
0.36791190603322543, 0.3333333432674408, -0.29721068981794996
0.865640736151164, 0.3333333432674408, 0.25457813588362205
0.49159507696011406, 0.33333334326744085, 0.03322504725033425
-0.6700319045389382, 0.3333333432674408, -0.3420998007471928
0.04252587915534045, 0.3333333432674408, -0.2844809380810687
0.9684280910867147, 0.3333333432674408, 0.2612880096418029
-0.3521683540182831, 0.3333333432674408, -0.39212752710535465
0.011984647399472692, 0.3333333432674408, -0.26148090092967724
0.613076452150012, 0.3333333432674408, 0.18245745440300976
-0.21230484383987824, 0.3333333432674408, -0.3650074213990083
0.554444996375183, 0.3333333432674408, 0.23147435835202212
0.24570763626845088, 0.3333333432674408, -0.024284762012086764
-0.13985688913451866, 0.3333333432674408, -0.41473252819059736
0.696492356132348, 0.33333334326744085, -0.25919282126203347
0.886421061012518, 0.3333333432674408, -0.16686154862756106
-0.27568458138742835, 0.3333333432674408, -0.4197460341997029
0.30985854885327907, 0.3333333432674408, -0.486395824825806
0.4636158333927727, 0.3333333432674408, -0.3323762143868683
-0.13245212261141326, 0.3333333432674408, -0.25730691219200547
-0.08145054406063224, 0.3333333432674408, -0.44170372091896537
0.3481267229028301, 0.3333333432674408, -0.36805706770124696
0.2008965127607636, 0.3333333432674408, 0.01929763122144515
-0.33384199254483105, 0.3333333432674408, -0.21755775853802667
0.7205748222220851, 0.3333333432674408, 0.09742929824353676
0.7004603171183452, 0.3333333432674408, 0.3268557413603299
0.10890649594409624, 0.3333333432674408, -0.20227163580660185
0.42740943039923623, 0.3333333432674408, -0.393923923787747
0.7809089543851432, 0.3333333432674408, 0.38275103330844495
0.9725592677730065, 0.3333333432674408, 0.3615305531179693
0.3910408227194898, 0.33333334326744074, 0.03908967034312777
0.541975352905343, 0.33333334326744085, -0.1382598703312865
0.945647034213335, 0.3333333432674408, 0.25002362935542144
0.48425977969219797, 0.33333334326744085, -0.3254599648607521
-0.6647437833752077, 0.3333333432674408, -0.3368329324604482
0.31394921694820455, 0.3333333432674408, -0.4104414768277781
0.18202734471836313, 0.3333333432674408, -0.28202036895300353
0.6694709825413622, 0.3333333432674408, 0.10456994391049157
0.8446611341203073, 0.3333333432674408, -0.4920590762236541
-0.04221881342754613, 0.3333333432674408, -0.13358012718180773
0.8121346943281804, 0.3333333432674408, 0.30256067828039584
-0.22150996164865777, 0.3333333432674408, -0.4249257799999694
0.5744561181862257, 0.3333333432674408, 0.08274093241078787
-0.13732633212639456, 0.3333333432674408, -0.09700982017363877
-0.6703978328362492, 0.33333334326744074, -0.42251770980653214
0.21822820774838503, 0.3333333432674408, -0.369727661426182
0.5997917214001467, 0.3333333432674408, 0.23668788680781006
0.15124892495067194, 0.3333333432674408, -0.15524618717359584
0.6145790807443516, 0.3333333432674408, 0.009806314757455276
0.34728477984919537, 0.33333334326744074, 0.07440192779177549
0.07984024278968171, 0.3333333432674408, -0.4550630293522592
0.7334728874805183, 0.3333333432674408, 0.06508985707469622
-0.2630175564879056, 0.3333333432674408, -0.31908020269849025
0.7333681020678835, 0.33333334326744074, -0.29154998608424887
0.512233813126636, 0.3333333432674408, -0.0004674066539989835
-0.013705567862612511, 0.3333333432674408, -0.1342905940607969
0.6858899844908406, 0.33333334326744074, 0.2982768080376295
0.7978186126761045, 0.3333333432674408, -0.23922614412363855
0.4403652592515362, 0.3333333432674408, -0.37919826007806556
0.7897342444213203, 0.3333333432674408, -0.481415298139028
0.26275617694000614, 0.3333333432674408, -0.19916704927679843
0.3566305350446642, 0.3333333432674408, 0.030428358170308784
0.6916426127487747, 0.33333334326744085, -0.0374044125449762
0.8887082448543615, 0.3333333432674408, -0.4436628531093192
0.23398685058503338, 0.3333333432674408, 0.10183532500411632
-0.28817348488022726, 0.3333333432674408, -0.41647010909662785
0.860321314955445, 0.33333334326744085, -0.2847757184740638
0.841704680692756, 0.3333333432674408, -0.06388741066043357
-0.4060143372255516, 0.3333333432674408, -0.26243676810728916
0.3635796932564379, 0.3333333432674408, 0.023468116487316976
0.5960778111988634, 0.3333333432674408, 0.07180335027622611
0.80576721899338, 0.33333334326744074, 0.18113106945226198
-0.30558630086100264, 0.3333333432674408, -0.34033025506973075
0.9603692782038017, 0.3333333432674408, 0.3565318370731533
0.7091649683404897, 0.3333333432674408, 0.10149941464649642
-0.486771947017437, 0.3333333432674408, -0.4863361459132382
0.7700464707162534, 0.33333334326744074, -0.07294316696731917
0.500102956255537, 0.3333333432674408, 0.1383077162647906
-0.903815610781701, 0.3333333432674408, -0.49446373023548174
0.6662156286667192, 0.33333334326744085, 0.28926004626062995
0.25235570197060486, 0.3333333432674408, 0.013039785865235937
0.18427512083667702, 0.3333333432674408, -0.2517835624097926
0.38111944191915287, 0.3333333432674408, -0.07308402202382155
-0.030041303362867255, 0.3333333432674408, -0.35206308980701173
0.14034311833848928, 0.3333333432674408, -0.053479487166265105
0.6588134895138585, 0.33333334326744085, -0.4433670897846906
0.7525279435292822, 0.3333333432674408, -0.3106241276017047
0.04151169735252602, 0.3333333432674408, 0.020434913414616618
0.8103589675204478, 0.33333334326744074, 0.3049969995022778
0.7081784807763907, 0.33333334326744074, 0.3451470520548956
0.40895556370322, 0.3333333432674408, 0.08952088683162288
0.5680993500554403, 0.3333333432674408, 0.17576088208097465
-0.8254873282672668, 0.3333333432674408, -0.44916711453876573
0.5794707443340901, 0.3333333432674408, -0.32335052499832345
-0.09409259206138287, 0.3333333432674408, -0.4423346733161242
0.3557262107042124, 0.3333333432674408, -0.2202348439626227
0.6153698500556244, 0.3333333432674408, -0.16339398179725093
0.4259105139093981, 0.3333333432674408, -0.023971445909814815
0.8217353810168067, 0.3333333432674408, -0.19523446443994177
0.7309662986881187, 0.3333333432674408, -0.11424201423653098
0.49887557796434134, 0.3333333432674408, -0.20095615142550285
0.06921546626454911, 0.3333333432674408, -0.48568311240054923
0.6365095650677665, 0.3333333432674408, -0.3821573718012652
0.24785624188253857, 0.3333333432674408, -0.47200025130152934
0.7860746402703644, 0.3333333432674408, -0.08730647892651541
0.9353294210517359, 0.33333334326744085, 0.10133238482741479
0.6429235163952683, 0.3333333432674408, 0.08396711988348966
0.9420637570031509, 0.3333333432674408, -0.23653911458866897
-0.42338026127596823, 0.3333333432674408, -0.2338500391580061
0.5975577280287993, 0.33333334326744085, 0.2853975194107278
0.8456382473803391, 0.33333334326744085, -0.37723760949245977
0.9281575378541526, 0.33333334326744074, -0.11522386312189412
-0.357700727639435, 0.3333333432674408, -0.4209259388383999
0.6058281889126262, 0.33333334326744074, -0.4002319342017337
0.7158883208594506, 0.3333333432674408, -0.41217850437676173
0.1190511420225861, 0.3333333432674408, -0.4868125428739955
0.8281187860823745, 0.33333334326744074, -0.04044540301209376
0.41446137305330333, 0.3333333432674408, -0.3183324517310445
0.102609134105557, 0.3333333432674408, -0.4446280912646049
0.43892325108783425, 0.3333333432674408, 0.14291283317777886
0.6252788342767301, 0.3333333432674408, 0.05332474324661683
0.03243462897092647, 0.3333333432674408, -0.33675756664120954
0.9272774250761253, 0.3333333432674408, 0.3224567731795135
-0.3635521231263319, 0.3333333432674408, -0.3336225347125836
0.5810692843594518, 0.3333333432674408, -0.22226291851183283
0.8529096101795226, 0.3333333432674408, -0.394793492461322
-0.2473153224022837, 0.3333333432674408, -0.38624213387156503
0.07574723009887979, 0.3333333432674408, -0.44392040869313887
-0.027002938721302494, 0.3333333432674408, -0.4700043375981482
-0.11638597857505673, 0.3333333432674408, -0.10738729991403312
0.9090187289129157, 0.33333334326744074, 0.006298476787307997
0.3668538446821304, 0.3333333432674408, -0.22841909270327912
0.6547009680825452, 0.3333333432674408, 0.0952616559599523
-0.11279247769907519, 0.3333333432674408, -0.18393512616955443
-0.5820687603243149, 0.3333333432674408, -0.31969148794954283
0.44836557807013444, 0.3333333432674408, 0.13963104256884173
-0.2480967879868501, 0.3333333432674408, -0.17496059405618195
-0.4144140964872086, 0.3333333432674408, -0.3584654344279618
0.3122356040734076, 0.3333333432674408, -0.09911196182589418
0.44082233081815736, 0.3333333432674408, -0.04874075712987916
-0.2968846876261919, 0.3333333432674408, -0.2778146554377404
-0.4512945609185696, 0.3333333432674408, -0.4772045687101394
0.07481118896897526, 0.3333333432674408, -0.4637940242563028
0.34463877518193975, 0.3333333432674408, -0.2962904962457379
0.551230386508074, 0.3333333432674408, -0.3402110504084385
0.16221636017103452, 0.3333333432674408, -0.33986680952938497
-0.7282724883672282, 0.3333333432674408, -0.3856472054442478
-0.03543441484025195, 0.3333333432674408, -0.40557385431622217
0.8616754456938702, 0.3333333432674408, -0.20192692681094193
0.21854745216194527, 0.3333333432674408, 0.10399424402672355
0.715635388352294, 0.3333333432674408, 0.09717508327908862
-0.6636613231144448, 0.3333333432674408, -0.33947905759420033
0.5258912963982962, 0.3333333432674408, -0.062042652308605034
0.4312299818485256, 0.3333333432674408, -0.3163770943112183
-0.8021163103347368, 0.3333333432674408, -0.4656019012818645
0.879762865508604, 0.3333333432674408, -0.07667653293875679
0.39256664749704795, 0.3333333432674408, -0.4935958921598218
0.5953032521785073, 0.3333333432674408, -0.05877101377231572
0.42941625566203717, 0.3333333432674408, -0.1471617266569982
0.19674100919720522, 0.3333333432674408, -0.38659517970429313
0.19462761714445054, 0.3333333432674408, -0.04119716429626952
0.0550160340525801, 0.3333333432674408, -0.1751561816780376
-0.5664628284340383, 0.3333333432674408, -0.45351698124071527
-0.4062169192637482, 0.3333333432674408, -0.25913689767432085
0.5412710549655269, 0.3333333432674408, -0.009267612557717242
-0.5497221234342686, 0.3333333432674408, -0.44564373529159124
0.1824342234391112, 0.3333333432674408, -0.05746936922606896
0.9095482810683093, 0.33333334326744074, -0.2671071369308128
0.3913191838805734, 0.3333333432674408, -0.1882687809672214
-0.2699188117302203, 0.29985889358502416, 0.49999999847382604
-0.6144015026101002, 0.32508161072029207, 0.49999995314289897
-0.22066217804864946, 0.3102492945581497, 0.4999999797999256
-0.936930613877959, 0.303894027218161, 0.4999999912217783
-0.296688209889361, 0.30058226984955777, 0.49999999717375526
-0.3588014225875344, 0.316505275089457, 0.49999996855651363
0.04217565441129145, 0.3053892472950229, 0.49999998853452965
-0.6913746461509129, 0.308380738963467, 0.4999999831581426
-0.056564177526484516, 0.30988354812338637, 0.49999998045725463
-0.2724740624744726, 0.2998187772357086, 0.4999999985459242
0.6419582924041347, 0.29908096590080646, 0.499999999871938
-0.64046412291097, 0.3037337995886806, 0.4999999915097436
-0.09032642778820787, 0.30266472749392404, 0.4999999934311079
0.3023930980599547, 0.30148098215154506, 0.49999999555856606
-0.8007851963277075, 0.30825615300029396, 0.49999998338205176
-0.29095568345901673, 0.31291796148893714, 0.4999999750037276
-0.9390604786036496, 0.31617894551473086, 0.49999996914300177
0.7390370751742259, 0.30243016528205635, 0.4999999938526693
-0.166903407225043, 0.3101577096788254, 0.49999997996452433
-0.3081894650000986, 0.3026431062796747, 0.49999999346996615
-0.5173858185995936, 0.30660697031083883, 0.499999986346006
-0.666575628198362, 0.300358968243751, 0.4999999975750788
-0.44663629744826105, 0.30334357065564216, 0.49999999221107316
-0.5135343127689127, 0.29995415342308385, 0.49999999830262254
-0.3364194181711077, 0.30955580699940943, 0.4999999810462796
-0.7006744027570686, 0.31435053598765994, 0.49999997242906713
-0.24511193073145177, 0.3145339231736697, 0.4999999720994789
-0.4144910479181454, 0.3089066120959665, 0.49999998221302966
0.8524969030078231, 0.29937251062961723, 0.49999999934796624
-0.19163357648884782, 0.3165247942693208, 0.4999999685214333
-0.034548654491927566, 0.31311821447061294, 0.49999997464382767
0.3289264028880772, 0.30326261030202734, 0.4999999923565773
-0.6328289511373307, 0.3160192430300823, 0.49999996943002323
0.9662408144130117, 0.32045302340412085, 0.4999999614615172
-0.3610288257488629, 0.3317182949802952, 0.49999994121527636
0.8724546721045576, 0.32353392033745165, 0.49999995592444857
0.8014285235814287, 0.31403982295880484, 0.4999999729874888
0.7800407319343636, 0.3246931842417956, 0.49999995384098916
-0.3347041945375979, 0.3214360407371911, 0.4999999596948127
0.9577612983628628, 0.3051602524058572, 0.49999998894608527
0.2234445659858475, 0.3254634192844398, 0.4999999524567026
0.03769707504938641, 0.3188033228308308, 0.49999996442640215
0.3304034259543964, 0.31244343787050105, 0.49999997585655376
0.7931492528559723, 0.3237222347896756, 0.4999999555860049
0.7393192699431053, 0.3052727443438026, 0.49999998874391177
0.723093073431272, 0.32846869044001226, 0.4999999470555506
0.22541395345349358, 0.3229282742542654, 0.4999999570129316
-0.4435265376067159, 0.3232415791539236, 0.49999995644985185
0.7089208768734858, 0.3084667554183855, 0.4999999830035516
-0.21386368635831993, 0.3212320822357321, 0.49999996006137226
0.8839182693522761, 0.3048295441008481, 0.4999999895404429
0.15861995908426024, 0.3271439407002039, 0.49999994943642556
0.0700417596781091, 0.32269295431185563, 0.4999999574358547
0.5736588443643282, 0.3268418535587884, 0.4999999499793445
0.8797929305258075, 0.3068084380907378, 0.4999999859839228
0.38188631993888267, 0.32594657174408975, 0.4999999515883684
0.4303674530742186, 0.32980022373964474, 0.49999994466248415
0.544117989304566, 0.32334735739608633, 0.49999995625974436
0.8051183112491429, 0.3030016386408533, 0.4999999928256024
-0.14578242403638864, 0.31942592122835894, 0.49999996330745206
0.16328206794473887, 0.32587654732479054, 0.49999995171421807
0.6641350847966386, 0.3196765020117892, 0.4999999628571017
0.3059776275245393, 0.32863340788070966, 0.49999994675951615
-0.21773811457216113, 0.3271719976718813, 0.4999999493860008
-0.2145443834027987, 0.32376900803856207, 0.4999999555019428
-0.7422711289246331, 0.32952356544574846, 0.4999999451597017
0.9018813793069298, 0.31211847187340486, 0.4999999764405912
1.0, 0.30352859767757573, 0.21307103382061762
1.0, 0.3027480822972112, -0.269056763580527
1.0, 0.30890245051550697, 0.07110280925982088
1.0, 0.3040537518905317, 0.1045491365434463
1.0, 0.3258271280978158, 0.3254427051049656
1.0, 0.3032202210958152, 0.06993697945644156
0.9999999999999999, 0.31293498563137967, 0.25325827472165985
1.0, 0.30145421541382644, -0.24346737920369974
1.0, 0.32468480614088235, 0.3899298679864615
1.0, 0.30257299919560415, 0.4315967391332176
1.0, 0.3047462456518231, 0.1796055268103449
1.0, 0.3037557496550368, -0.20244139862768934
1.0, 0.3010051143825516, -0.03869632343959695
1.0, 0.32363863439181595, 0.39525276850446556
1.0, 0.30595295620675456, -0.24087822217441
1.0, 0.3144801855875353, 0.2598533110222044
1.0, 0.31970443197238374, -0.011391002337582362
1.0, 0.30906737855751093, -0.29942633503025284
1.0, 0.32451606774482905, -0.15494829547222932
1.0, 0.3206233721246674, -0.14006192323278988
1.0, 0.31099230858138577, -0.4284623740300938
0.9999999999999999, 0.31271663083742307, -0.3143757272052677
1.0, 0.3250377642087538, -0.48318196926610973
1.0, 0.32779680217022006, -0.4940615883822387
1.0, 0.3308200647778164, 0.02677237134336949
0.9999999999999999, 0.32630271517419646, -0.48934748054565474
1.0, 0.32510004657000524, 0.0941857275280569
1.0, 0.3252893538651185, 0.06267825100571045
1.0, 0.3227919509788073, -0.20256424794140448
1.0, 0.3291044251590481, 0.19452545935671067
1.0, 0.33039288473944056, -0.15731924142091563
1.0, 0.30790658744904603, -0.25401032792877853
1.0, 0.31975061586366804, -0.1410952144308813
-0.1473826265517828, 0.3100582629061467, -0.5000000596046448
0.8375937163449323, 0.3184403053366903, -0.5000000596046448
0.5730206829253155, 0.3196612112724639, -0.5000000596046448
-0.006526826380199191, 0.3034694730730946, -0.5000000596046448
0.05544109321631979, 0.3055618363740348, -0.5000000596046448
0.40783233973544775, 0.3058351574903891, -0.5000000596046448
0.6824029624999207, 0.3217697068966863, -0.5000000596046449
0.8591253735881996, 0.32110776607074837, -0.5000000596046449
0.5201085622067337, 0.3040235366066602, -0.5000000596046448
-0.6254028360783308, 0.29940795592571806, -0.5000000596046448
-0.002990857988268869, 0.3108678312363402, -0.5000000596046448
0.782437280879275, 0.3255450938855072, -0.5000000596046448
-0.13221624972691898, 0.3101371217661527, -0.5000000596046448
-0.28651693080053897, 0.3097497277537294, -0.5000000596046448
0.9625386535943677, 0.3044933029932561, -0.5000000596046448
-0.7198403597884115, 0.30325857146203167, -0.5000000596046448
0.7851239772393053, 0.327495831513663, -0.5000000596046448
0.6131927605742031, 0.32065969842048186, -0.5000000596046448
0.8640307697702284, 0.3261081876095902, -0.5000000596046448
0.5273442039342839, 0.31514970648706997, -0.5000000596046448
0.561903392062066, 0.3112955982922259, -0.5000000596046448
0.6621470695356676, 0.31413736171908124, -0.5000000596046448
0.33499921337400657, 0.31276705206975336, -0.5000000596046448
0.8541592474355169, 0.32386708744622317, -0.5000000596046448
0.004392870900494117, 0.3063980147519009, -0.5000000596046448
0.5365191950355148, 0.30268944842328127, -0.5000000596046448
0.21509048509403966, 0.3091335870573414, -0.5000000596046448
0.07294756469195945, 0.3150634443623199, -0.5000000596046448
0.5928324906690209, 0.30185284197389173, -0.5000000596046448
-0.4036254950989462, 0.30403344185638725, -0.5000000596046448
-0.585685785847008, 0.3046906191964915, -0.5000000596046448
-0.20986005771407462, 0.30303786967444823, -0.5000000596046448
-0.2740068574115053, 0.3092466982787001, -0.5000000596046448
-0.15978856575506306, 0.30133928515905833, -0.5000000596046448
-0.29212472864197775, 0.3161115331753672, -0.5000000596046448
-0.6537417888840025, 0.31326879415339626, -0.5000000596046449
-0.2030493563502826, 0.31635563369867964, -0.5000000596046448
-0.8374383661659733, 0.30886940394218576, -0.5000000596046448
0.34688886049253637, 0.3283971673028538, -0.5000000596046448
0.3041340045711065, 0.32752860991950145, -0.5000000596046448
-0.05600960747452338, 0.3290145433641483, -0.5000000596046448
-0.5431367512438516, 0.30741076099484166, -0.5000000596046448
-0.8076835213237696, 0.3203341196471728, -0.5000000596046448
0.2336071535137536, 0.3253094322845278, -0.5000000596046448
-0.579238868223434, 0.30884948477926605, -0.5000000596046448
-0.8498121626501378, 0.3097604429077404, -0.5000000596046448
0.5049797142983024, 0.3300916102724172, -0.5000000596046448
-0.21772868655199634, 0.33058315097468083, -0.5000000596046448
-0.8012190275448288, 0.31457692958072087, -0.5000000596046448
-0.7007505715826016, 0.3059865851890434, -0.5000000596046448
-0.6260651167875775, 0.32290982028500453, -0.5000000596046448
-0.146152476744853, 0.32026805653730106, -0.5000000596046448
0.07111960047296667, 0.3313548205157011, -0.5000000596046448
-0.6215304835252722, 0.31435901051570575, -0.5000000596046448
-0.6477419091700385, 0.312148967040769, -0.5000000596046448
-0.08127367505239841, 0.3221357270999735, -0.5000000596046448
0.5650549414799264, 0.3283809500415565, -0.5000000596046448
0.5426761803295421, 0.33074094713245245, -0.5000000596046448
-0.7664856007770484, 0.3252951099702782, -0.5000000596046448
-0.16048911171600316, 0.3236588240401253, -0.5000000596046448
-0.45094886939290335, 0.3214573175803982, -0.5000000596046448
-0.6131032580647655, 0.3310619511040547, -0.5000000596046448
-0.6981896755934011, 0.3241752467494185, -0.5000000596046448
-0.3250769316263948, 0.3226621776693006, -0.5000000596046448
-0.7516102077959277, 0.32068528801244217, -0.5000000596046448
-0.7264021040610967, 0.31618679835408325, -0.5000000596046448
-0.626863580358378, 0.3243565835590531, -0.5000000596046448
-1.0, 0.3044626801178738, 0.32852987418626456
