0.0306572210862959, 0.4226665770186483, -0.10584962625799546
0.031556564273054845, 0.4206910103948989, -0.1055512058101533
0.020316990273902436, 0.4320547526186608, -0.10854338914006764
0.03265388229309251, 0.4363381774322556, -0.1058327465915477
0.04090632175444214, 0.42215144679450783, -0.10235256527210199
0.04077592444838263, 0.4234822272045584, -0.10243187712831942
0.029438170771809477, 0.4320334238959932, -0.10642727216899116
0.006504552514361696, 0.42741585133362875, -0.11013316432353559
0.005366122645584655, 0.42565901141466006, -0.1101412634033934
-0.006782570185318099, 0.41698862084613825, -0.10990415408109726
-0.0026345415769301554, 0.4323081174099658, -0.11043871185882208
0.005866508116273766, 0.4346656676644514, -0.11046528839594004
0.025316139480185122, 0.43701477896934515, -0.10790200701730379
0.015158871678062676, 0.4373149992569578, -0.10976650480398095
0.025754979422652213, 0.4275796980575155, -0.10734141794530844
0.020091379205040345, 0.4277228276020623, -0.10847005903965115
0.01086484702148946, 0.4356434129205476, -0.11015839145297612
0.004367244439355469, 0.43481805962234293, -0.11053779795202309
0.014328825734801614, 0.42907782653935944, -0.10940945397247687
0.014981483252515517, 0.430682173023734, -0.10936756288678207
-0.046444525362948616, 0.43344116383057274, -0.10028556938324117
-0.03478556464702162, 0.43455055647257657, -0.10506596174608074
-0.042214217284411576, 0.43858595729364436, -0.10260876056471474
-0.04696319771340647, 0.41877279400382866, -0.09959595544759008
-0.04572726414048295, 0.4170864772498128, -0.1001252247394579
-0.035074695344229086, 0.4227456186719893, -0.10453159589549943
-0.03314338774021175, 0.43279908208233103, -0.1054552054973238
-0.05957636213929318, 0.43290757760992615, -0.0930685408785735
-0.050217847998077686, 0.4391810846979837, -0.09901058841362224
-0.061319967632379194, 0.41924609110895206, -0.09146965444839532
-0.06114261800419444, 0.4170489992650566, -0.09153004785772555
-0.05200343071448344, 0.4382576953642149, -0.09792934103433468
-0.05416678733651965, 0.4223791357005338, -0.09595619080531329
-0.05217812578151021, 0.41776560094172166, -0.09695327723870178
-0.04694827294276434, 0.4376373039643784, -0.10037488045194068
-0.0741575540484316, 0.4326524840355289, -0.08187853257228256
-0.06722820475800867, 0.4336824093237729, -0.08775696273797194
-0.07332065463122268, 0.42552762783134535, -0.08237226505668055
-0.07329790335470635, 0.42420996108177156, -0.08235388549927017
-0.07037636745111722, 0.4357745644509377, -0.085459064734528
-0.06793339872359114, 0.4230602272827407, -0.08677830843457465
-0.0681532523971966, 0.4173263604586481, -0.08644446970760339
-0.07886115298200828, 0.4292240396247678, -0.07723707840360083
-0.07899076774204059, 0.4262942740079542, -0.0770021420206786
-0.07635246662382636, 0.43651253507977084, -0.08021478141225238
-0.08881802136399564, 0.4359050384274123, -0.06613301018258108
-0.08300755082924231, 0.4351266010740027, -0.07319033648573739
-0.0786784570266867, 0.4370976143118134, -0.07807381864839427
-0.08895019074633279, 0.44135157419833787, -0.06740033992397929
-0.08808082050931726, 0.4376422290790859, -0.06726280247052827
-0.09240571525695701, 0.43988266090037753, -0.061768191349612096
-0.09326843690716462, 0.435104039759531, -0.05955239901622535
-0.09600288800156084, 0.42301286432531976, -0.05411193801188459
-0.09675207468896083, 0.4200318881518236, -0.052639539502430686
-0.08423063473854422, 0.4182424893004586, -0.07099220683025159
-0.08822270831435627, 0.43024507058997985, -0.06635721754074309
-0.09235390939762042, 0.4210375407102374, -0.06006661382284123
-0.09026705750117889, 0.4227837969158621, -0.06326097535265515
-0.10257318303616272, 0.4332034247381563, -0.04122755438690683
-0.09703540943193686, 0.440555206348052, -0.05460561121835588
-0.0996921479329544, 0.43355309027373146, -0.047749783448876926
-0.10146917043864753, 0.43881625626295717, -0.04477177501303601
-0.09858235247915988, 0.4282883266783644, -0.04965985101113617
-0.0986141719068915, 0.42965117664581487, -0.04966233039142233
-0.10195200453614225, 0.4252135269443496, -0.04218521226563361
-0.10434744726465467, 0.43050989186432775, -0.036034093357782994
-0.10657122146717185, 0.4164400178043561, -0.027591150789876503
-0.1055922172076849, 0.41674917193165995, -0.03109162852085062
-0.10865540972440652, 0.4357353233250581, -0.021067829487078336
-0.10749534537871926, 0.42599538481529853, -0.024801871913664057
-0.10781355248227292, 0.4227039534491015, -0.022829648034429106
-0.10757455221656617, 0.4345100597319318, -0.02600121664746901
-0.10535986049643152, 0.4354108812009553, -0.03409454034312498
-0.1103139219292218, 0.4328601007222121, -0.006378455969753509
-0.10795938361224418, 0.4342971320417761, -0.024056829734001778
-0.10979625437325605, 0.4346790124389003, -0.013349521138850157
-0.11016924552721072, 0.43692764164939446, -0.011532868696156124
-0.11011857196205521, 0.41926654918456907, -0.002271740616358876
-0.11007250121238556, 0.4261018385998103, -0.007229355862186571
-0.1091576105737706, 0.41955512160560426, -0.01467673266190847
-0.10947589275391847, 0.41939721069702846, -0.01196247248057702
-0.11060102217503016, 0.4345428373844286, 0.0020889705206478867
-0.10987721517034642, 0.43533479200333863, 0.013054418683665135
-0.11054078727688177, 0.4367806281146644, 0.007546765110371171
-0.10933397734363416, 0.4219749796565848, 0.013640612312542027
-0.10921987169575961, 0.4202413467456457, 0.014279687172599885
-0.11039063136181654, 0.4277004721647739, 8.327311685430974e-05
-0.11071273365968294, 0.4383001662726308, -0.00587789813701245
-0.10748857745019108, 0.4173329841559116, 0.02385975019331123
-0.10893677171410279, 0.42737501259661, 0.017703637920307994
-0.10602527808690453, 0.43500300127903674, 0.03162769433334509
-0.10791249191238043, 0.4335111890483419, 0.024012175881882175
-0.10814637647987145, 0.433606434405839, 0.02286920025189782
-0.10970709277220766, 0.4385019457447392, 0.016362106404745433
-0.10701283486535665, 0.43396766281998544, 0.02785610996745218
-0.10481661970181497, 0.43256486438517494, 0.03502398835768464
-0.10040791945278658, 0.42361385772009363, 0.045456836746102666
-0.10075830918640502, 0.4169080060807014, 0.04434547333200632
-0.09896379361442659, 0.4329923260213015, 0.04923581731261846
-0.10296234295975235, 0.43550286029988206, 0.04063585141783149
-0.1030806365736316, 0.41634570587167863, 0.03856663024064542
-0.10477173789093175, 0.42082555241050446, 0.034271113831096114
-0.1071024940672278, 0.4244965027444292, 0.02635788561564913
-0.10720843494113486, 0.42846075853058807, 0.0263029540469912
-0.0968644580011717, 0.4198788130922947, 0.05243201110533972
-0.09555567550037115, 0.43766890258789315, 0.05616008427351879
-0.09167187885875505, 0.4323936349947922, 0.06160376289474502
-0.09855588295259265, 0.4360065258473188, 0.05056352064114152
-0.10079654105366787, 0.43502341621868273, 0.045599807869405797
-0.09332610863162488, 0.4263739893967418, 0.05882182276456457
-0.09133214051269438, 0.42539435266545195, 0.061769281449283585
-0.0888514766288446, 0.4292088488343044, 0.06552349928781044
-0.08651533002520218, 0.4177633830724101, 0.06807904506393417
-0.08669276547132417, 0.43629894411463166, 0.06887149868223519
-0.07909797684217595, 0.4344297608130565, 0.07734669585858138
-0.08057350666943013, 0.4197913466306925, 0.0750803165989525
-0.08095091010895535, 0.41636708749434814, 0.07456142072251679
-0.0864380500326457, 0.43985002937548295, 0.06987288482568912
-0.09326192992993353, 0.43842473419322525, 0.05997851814586836
-0.06674099708711542, 0.43346732432703694, 0.08812230557091039
-0.07793667604783458, 0.4240454598071567, 0.07805935977648981
-0.07459936056852345, 0.4259490001827052, 0.08120246002266082
-0.08078845552020558, 0.4407568118290539, 0.07672152646475566
-0.07536127502993611, 0.43285958206342257, 0.0807851036325642
-0.07591955122084638, 0.4372285805404664, 0.08068307987841515
-0.06310987372450363, 0.4243922772057881, 0.09041047362377966
-0.06105698157743075, 0.43080252849597295, 0.09195056215742209
-0.05437996607016782, 0.43484601191403693, 0.09632692174165573
-0.06843688137180451, 0.437541051170536, 0.08714571051527223
-0.05980912462119058, 0.43381047271104745, 0.09298876956030011
-0.07149015855608139, 0.4302913931426484, 0.0841749627658452
-0.0711145477497475, 0.42197696453979094, 0.08423866736299318
-0.06302591150095127, 0.4347966908796912, 0.09092337934186265
-0.0455574579088127, 0.430654847630411, 0.10053181232309785
-0.04605747289029939, 0.426037050289903, 0.1001894962458096
-0.04269791765201854, 0.439993266780796, 0.10274185258986693
-0.05582803056723119, 0.4347826932643337, 0.09551127538644363
-0.05758872649017971, 0.42717169285881973, 0.09416137138650442
-0.05695150562262545, 0.4266059923447624, 0.09450383481346808
-0.04741780122102761, 0.4383343537624208, 0.10021182277323115
-0.03237970901609481, 0.42855209203580186, 0.10549879956423233
-0.031811905301062426, 0.4256257523681308, 0.10559196710632202
-0.018514567408659914, 0.4325668581171094, 0.10893796403887501
-0.0376644565511518, 0.438252364862149, 0.10426366127627901
-0.026208587236105103, 0.4324797499742747, 0.10736937084109063
-0.04221520521158139, 0.42967242890009527, 0.10204539633067085
-0.03749028086666991, 0.42615926847241903, 0.10370793744659632
-0.034029993570104736, 0.4353957447759814, 0.1053770304850553
-0.01700831739435673, 0.4202107456634374, 0.10889574883168895
-0.014277833832307966, 0.4294398611622492, 0.10942357371163466
-0.004252574119517228, 0.4340352801099598, 0.11048003064336293
-0.024521644192578698, 0.4388138333358059, 0.10818760742456261
-0.021103044527856926, 0.42951165466211727, 0.10830915731034052
-0.021952101190375717, 0.42883451543299045, 0.1081252761968376
-0.012729873740770446, 0.43478970858357757, 0.1098775204144157
-0.0028204132316486967, 0.4401726096694189, 0.1112097952794925
0.002102325018193433, 0.4219257090460906, 0.11018378582713892
0.013406168346898483, 0.41811406775504495, 0.10927641508814571
0.01266056445682132, 0.42129693175498795, 0.10943520521244204
0.0056460936450296725, 0.4394206569689951, 0.11087684848338814
0.007740195071661094, 0.4328771937435772, 0.11026123738605687
-0.005774101892981335, 0.4209586695092264, 0.11001713064368751
-0.0060597461519085365, 0.42737410283788435, 0.11014684111218853
0.009797786508364097, 0.4317093992302338, 0.11000921172504703
0.0031078374683222065, 0.43433412085071255, 0.11054618408878776
0.03156165688298926, 0.43174095743696683, 0.10580801562565616
0.01435819296576708, 0.43424245882101475, 0.10964612172683282
0.01948708380122062, 0.4209399509981159, 0.1084383279086727
0.019460029344106382, 0.42547401364456194, 0.1085452339847233
0.019203262143955492, 0.43761706092796715, 0.10915951463367582
0.031889574644482416, 0.4188388399069066, 0.1054152009564853
0.014958185756148922, 0.4411042661441048, 0.11051328761038548
0.04106596303521953, 0.4413859883965466, 0.10379148474607268
0.04406070468247153, 0.43222035018310756, 0.10129157057223823
0.03981658848337329, 0.4185878273524379, 0.10267160892078422
0.03690941177672572, 0.4225881937546508, 0.10383881205083598
0.044267287898089785, 0.4236163629065137, 0.10095665057832591
0.04239631926738025, 0.4294380497081612, 0.10196042011945644
0.0411652303264428, 0.43415377451592696, 0.10266677816928245
0.034745229311028414, 0.436753749800611, 0.10523045253574798
0.061023467397490594, 0.432481069242786, 0.0920666460714736
0.05264141800230332, 0.4243094386432416, 0.09685872225522678
0.05219694353824855, 0.4206871783555808, 0.09701636290768134
0.04862579570086599, 0.4383969819252631, 0.0996594542971188
0.06039730682462578, 0.4235795542463544, 0.09220026525252314
0.06185738081724118, 0.41695609401653455, 0.09105039046157905
0.056139975987228884, 0.43894461148703345, 0.09566866886235875
0.050253884221002514, 0.4345674908064425, 0.0986143962271582
0.07353905105737976, 0.4348422704126373, 0.08265817258665029
0.06617274380371156, 0.4232126572296906, 0.08817151887628015
0.0666716969712402, 0.42005906608668, 0.08768969317236047
0.06452900540502032, 0.4384556450796373, 0.09022600590306437
0.07497182701194094, 0.4161900211581918, 0.08056605868965488
0.06898670562052026, 0.4351438680559012, 0.08649944177038102
0.06468805474888023, 0.44017855262967054, 0.09056057788128179
0.07616096729750235, 0.43814819174254316, 0.08054702509513248
0.08203055628631684, 0.4180362888873159, 0.07344787609387525
0.07978850529169233, 0.4238398410344874, 0.07606013842896756
0.08903575125204008, 0.4353743954109738, 0.06579738233937647
0.07966752367460816, 0.43838712342339115, 0.07713653814879823
0.08167962860010232, 0.43349471716830085, 0.07445907197412908
0.08475445061361878, 0.42894320274135583, 0.07070773283309907
0.08820873743967776, 0.4308807947033798, 0.06639750602775003
0.09207106655191602, 0.4177421847816394, 0.060359894668394115
0.09004834600939521, 0.4266909046537475, 0.06374309987050303
0.0950578270955018, 0.4164283080166249, 0.05550416258827616
0.09606898797862976, 0.42176769412000253, 0.053937886873810334
0.09827183384772485, 0.43696752419649065, 0.05120782234344215
0.09170904093474454, 0.43959069299222425, 0.0626571320693693
0.08575954235073818, 0.4372651471285851, 0.07016309306764365
0.09037654054221701, 0.4352476791872557, 0.06390138599226779
0.10030957900241086, 0.41957449343036435, 0.04545811656710334
0.10057252351779443, 0.41661376099734604, 0.044732761813321774
0.10166854183309246, 0.4382490767372139, 0.04424524915128962
0.10248041866932407, 0.43917387898384397, 0.042690002156185465
0.09525684394783632, 0.4370417325917597, 0.0566044495477301
0.09994441888721449, 0.4343959439265372, 0.04734292088049718
0.10907556198430521, 0.4256174173455777, 0.01649965560179271
0.10830007061693464, 0.4390421863954216, 0.02403696536099223
0.10932641562529331, 0.4337443066386433, 0.016759918469845963
0.11071768861631828, 0.43990123976862905, 0.010231867956306356
0.10322955382565205, 0.4273252097429481, 0.03885947027647257
0.10313891719833732, 0.4280160278999782, 0.03914871733696208
0.1065126928751462, 0.41809393586321175, 0.02793290535891636
0.10832977507769857, 0.4329448735391971, 0.021709895858389838
0.10763010205068604, 0.4173853786225272, 0.023153384644047564
0.10760777042829149, 0.4288874668602568, 0.024561993613547505
0.10635179936894656, 0.43783429944560337, 0.031195329837464262
0.10434970415145209, 0.4379569089225067, 0.03737187094417841
0.10632736028983655, 0.4349238437258933, 0.03053489707448522
-0.10252549187363111, 0.41102380356235757, 0.039916861839000714
-0.10211462980449965, 0.4076981994565259, 0.04095350283574833
-0.10191719542848748, 0.40459779569848653, 0.041417318886097815
-0.09964923688249183, 0.39738545276221826, 0.046336186402643635
-0.1014025697190665, 0.40787293630989885, 0.04273295314922998
-0.10017069116227578, 0.3921737443243267, 0.0451071169564989
-0.10084332845912705, 0.38739942688599893, 0.04355853094175081
-0.10377755768269124, 0.42545421545825035, 0.037256881618439486
-0.1015376990426063, 0.28611215181288735, 0.04282190654175422
-0.10178352369950648, 0.2838080278212521, 0.0424122166195511
-0.10062133168401782, 0.29720915375161794, 0.044451570708465435
-0.10102346766258395, 0.29884798414448416, 0.04354814604635654
-0.10160783155049632, 0.3069924182259893, 0.042124389223513935
-0.10379955696012547, 0.3063275424534594, 0.03621238310714134
-0.10316528603121419, 0.3079919499491579, 0.03789127632293877
-0.10340675935405699, 0.3112528833768341, 0.037161452895472694
-0.10299794744600227, 0.30710759789514885, 0.03836502133367701
-0.10358431256224432, 0.34573272476590583, 0.03632720446813381
-0.10234513323589259, 0.35091187571144256, 0.0396483363326457
-0.10189181391118976, 0.33466697788943806, 0.040984525732675935
-0.10196733924861767, 0.3438397703175806, 0.04071868857334002
-0.10248791301881753, 0.3704184051679681, 0.039364186384637005
-0.10232704037860854, 0.38319622437129536, 0.03988523968316815
-0.10152794859609421, 0.38368763817603596, 0.04205249811961446
-0.09885442774320963, 0.35708509299411045, 0.047702159718674864
-0.10006288481681301, 0.35829317045822084, 0.04508878156759505
-0.09911625303387879, 0.36254332723746774, 0.0471646779417261
-0.09822932388948515, 0.3830925246125176, 0.04920126112777359
-0.10127392278076491, 0.34555765493078183, 0.0424749702060674
-0.10078744608355132, 0.33664961816107464, 0.0435789540563459
-0.10023621990038385, 0.32860497688933277, 0.04481854917139649
-0.09957558381334228, 0.32664932356044885, 0.04626169591749139
-0.10548528241471372, 0.2630578989237988, 0.03871205222707787
-0.11043651498257831, 0.2631593439347668, 0.02224250965795927
-0.11032439127264718, 0.26998785524810187, 0.024265842644938595
-0.11158340338725839, 0.2804539327124619, 0.019504144555871735
-0.11190937097080741, 0.27992390607179346, 0.017802672089697817
-0.10987605017993127, 0.2874419610873723, 0.028192549486618507
-0.10785290986374879, 0.2697672104165248, 0.033629855611744246
-0.10510023331291352, 0.26254235504782586, 0.04023190151657209
-0.10622041110234946, 0.4418198407196886, 0.03608633343501116
-0.10755540902230801, 0.43531930790021267, 0.03482533849625703
-0.11132443445624828, 0.43196779161139226, 0.020096270842149086
-0.11132256493131176, 0.44096186583169783, 0.018183960822117595
-0.11112466770956514, 0.4198819948930929, 0.022489905259897112
-0.11032869315291388, 0.4240175373312167, 0.026029082151143267
-0.11108728548490596, 0.3634879546456725, 0.024597094445860144
-0.11104886688484988, 0.3714551789675824, 0.024695860732251933
-0.11089512115923882, 0.38166853833305364, 0.025348321415132685
-0.11135962291951323, 0.37212149372097614, 0.023124151115899143
-0.1095057330501961, 0.4143016451883266, 0.029801471192665484
-0.110340900400179, 0.39184934146376516, 0.02749348729714549
-0.1092529482119378, 0.4077305711476428, 0.030891046329385354
-0.11186467923726384, 0.38982257530304804, 0.020300133897779044
-0.11077128326618581, 0.3945729439566576, 0.025609015591735333
-0.1112153190700066, 0.3937684546016459, 0.02340727564814951
-0.1088579430105114, 0.42480585328836806, 0.03131519057025579
-0.11020271344909142, 0.4215047242131901, 0.026809002081565593
-0.10937853057007992, 0.307277899461689, 0.0307019389259459
-0.10940209484218465, 0.30405005661426093, 0.03052188448348862
-0.10982586001455846, 0.3022793082274771, 0.02896467391894213
-0.11103517844981264, 0.2909045298067665, 0.023422441874790378
-0.11102619027350183, 0.2963420526954819, 0.023693581107575162
-0.1121191878576477, 0.30339689777409007, 0.018486518419070338
-0.11172320527853227, 0.3009232966909704, 0.020376406807733356
-0.11001390126110916, 0.3753474554572781, 0.028889146186552576
-0.1090087344062408, 0.37812163919754915, 0.0324337199174795
-0.10985353237449122, 0.3868765430962653, 0.02936007113280857
-0.11065024419287864, 0.3722045137567506, 0.0266570075249411
-0.10987932735703682, 0.3429496655045881, 0.02947186144655214
-0.10944082533867483, 0.35223494865388644, 0.03110773427628563
-0.10985739957670265, 0.3450409293046304, 0.02956754666213171
-0.10996012102821137, 0.34046401229197754, 0.029163841862007874
-0.11117596732419083, 0.32501468910510173, 0.02394322570519978
-0.11153774701023701, 0.33173508607690394, 0.022202428038992306
-0.11222172387171939, 0.31991317877882064, 0.01862023170128807
-0.11188238673959286, 0.3244431258164587, 0.020381599841986706
-0.10897585529819749, 0.26884506691332294, 0.029501901866565296
-0.10866677257212998, 0.26241364645677795, 0.029611200929654857
-0.10657245611562255, 0.27370317621148266, 0.037877778066717424
-0.10645371297980348, 0.275838879063414, 0.038338790363952116
-0.106266408085134, 0.26800246004397343, 0.03802116620435696
-0.10107702645717152, 0.26669406739676726, 0.050179089467268005
-0.1032452703338649, 0.28921701577360714, 0.04700836081756632
-0.10425622382126722, 0.27570021687999385, 0.044091087047587525
-0.09520971701815621, 0.26301496506704175, 0.059781950759147245
-0.10848817644923828, 0.43980057897171004, 0.030825778658738888
-0.10563229605306426, 0.4326329959621272, 0.040382651639775405
-0.10120081862652908, 0.4335109629798443, 0.050486345191066935
-0.10912689084724997, 0.4323327429863329, 0.029705503482847992
-0.10893521493600272, 0.41712107536628873, 0.03166383009917258
-0.10862855173623781, 0.42031608320220215, 0.03249345664463614
-0.10733677192386297, 0.43314026137780187, 0.03570582771927687
-0.10647617792557292, 0.4159170951402219, 0.0392101209405883
-0.10556255526511368, 0.41935369985715876, 0.04146621561880881
-0.10358385976289876, 0.2968139421200331, 0.03701794420299248
-0.10186518700313053, 0.3052334118420326, 0.04147621596296608
-0.10363413064840085, 0.2965284638774538, 0.036888453196988254
-0.10299360262988899, 0.2748438174820623, 0.03976799507565012
-0.1035433547682579, 0.27615174408317184, 0.03819463810678658
-0.10494160234729824, 0.29494946837466474, 0.033186565862704485
-0.10537631549458903, 0.31006319284089423, 0.031193918207222594
-0.10594359495336828, 0.3114914819351391, 0.029137637572270888
-0.10488961997929608, 0.3390981130734526, 0.032491407872778266
-0.10477610051446623, 0.3350959418182649, 0.03292856798433763
-0.10459101731500114, 0.3436474458603821, 0.033512577864720186
-0.10480914331427116, 0.33009311797391444, 0.03285398775456229
-0.10667441640357228, 0.31340148359606235, 0.026486461055051654
-0.10637101090866334, 0.3033339312253708, 0.02786289910621088
-0.10667786708324795, 0.3006449614228728, 0.02685352407646209
-0.10745771468960691, 0.33457055236551214, 0.022480613715594497
-0.10809151193140441, 0.34968417969943777, 0.019111658577376563
-0.10723063593899773, 0.34600925155179296, 0.0234874738637025
-0.10700263088724088, 0.33614400912463843, 0.024752032711106695
-0.10557117370800159, 0.2744806237359677, 0.03239752569091175
-0.1066168025417173, 0.2835545963192396, 0.02793552262186135
-0.10707930215031769, 0.30018319195916177, 0.025338265452227123
-0.1073363139582498, 0.3075327605108289, 0.02374090603643867
-0.10743862421049222, 0.31160401291533246, 0.023057650289585358
-0.10442880901649179, 0.3419128156538295, 0.034065801777601795
-0.1043558774834735, 0.3355215080895647, 0.03430602152092359
-0.10403935007929926, 0.3263331480995939, 0.03522460474737877
-0.10436742312220645, 0.33882676474252577, 0.03425266393351868
-0.10508282794661691, 0.377971643702585, 0.03190010333110492
-0.1062042647756157, 0.3821285072828814, 0.027954567561281757
-0.10496988656085873, 0.37935976064495747, 0.032312891482774025
-0.10459712924059407, 0.38273559924279554, 0.033664983419404076
-0.10435385882495538, 0.3908765796468705, 0.03450520299343
-0.10290057086157026, 0.3960558677769763, 0.038559115168694376
-0.10329454672594761, 0.3941571940756349, 0.03744882704169616
-0.10398434318042737, 0.36644108956937993, 0.03528520750853264
-0.10274246207233007, 0.3616294604711169, 0.03861611394109664
-0.10374345241342599, 0.36865267996766365, 0.03595233148978569
-0.10355169349818816, 0.369618499948901, 0.03647807795595327
-0.10471786980119116, 0.4071966702803724, 0.033855560596089865
-0.1046358347374475, 0.38953305145926326, 0.03363112780911856
-0.10661396394420804, 0.4135945658584249, 0.027311257771482012
-0.10560741236437672, 0.415726613072835, 0.03095491478520454
-0.10522227401970635, 0.41887789581401574, 0.0325774249207644
-0.10750460951468976, 0.4269973997502666, 0.024868215739500422
-0.10760390677114376, 0.42195854783232, 0.023800639079951245
-0.10659714925054387, 0.40327545734991943, 0.027069723072735828
-0.10533474244782634, 0.39308261279833145, 0.03125365819345025
-0.10594358173296223, 0.38760302087751297, 0.0289323660291075
-0.10715338505533448, 0.39701239695744284, 0.02459420356033783
-0.10736021880046381, 0.40248216693762, 0.02377547632444861
-0.10774538378714105, 0.40922604381802163, 0.02211108178108461
-0.10601754267360225, 0.353381177106163, 0.02837196666971046
-0.10574097953657353, 0.3625202598822845, 0.0294317745873231
-0.10662021215230139, 0.38021051997954913, 0.026461605977202304
-0.10587971039226961, 0.3690390954641737, 0.0289949487071839
-0.1054085722433923, 0.3222591025481624, 0.030792946220780396
-0.10548864821441303, 0.3318742430695363, 0.03042658648272499
-0.10681461699537674, 0.3208285675004272, 0.025813788257206278
-0.10670321216185952, 0.3407829236296112, 0.026038896336160793
-0.10721473870826378, 0.36415141786859706, 0.023616969599604767
-0.10694815393242132, 0.3844302554847524, 0.025199355500453498
-0.10733560756337028, 0.3754088615259006, 0.023142434923241702
-0.10701858947061633, 0.3811367215091813, 0.02480578643949223
-0.11278372672790625, 0.2970280321797121, 0.012920404943907164
-0.11272688411564795, 0.29831364640109487, 0.013488333767759972
-0.11260810771139661, 0.31048934410989865, 0.015327801267708356
-0.11070291787429005, 0.3150902670687966, 0.02609928705725277
-0.11101906443190986, 0.31084313816116577, 0.02433191802026521
-0.11186164131193667, 0.31756268202016674, 0.020371082650555608
-0.11061198195882008, 0.3149622614634306, 0.02655157636528859
-0.11344156277515804, 0.3239883092140286, 0.008964943299643709
-0.11347866993109307, 0.3389895309655996, 0.008946725494935921
-0.11334712107557986, 0.32493002052999903, 0.009780111789165602
-0.11316641721741745, 0.3403025362834982, 0.011606533768428944
-0.11364091674160659, 0.32712993866131396, 0.004187673892421518
-0.11375199720617422, 0.33033413094946174, 0.0015698263509208081
-0.11360255901601263, 0.3274766863531351, 0.0051766063865027745
-0.11348149968227483, 0.3198580588226908, 0.007788395876489719
-0.09517765045868767, 0.4416867477034227, 0.05897202604286919
-0.09816453695958811, 0.41604488244769167, 0.04992383032500044
-0.0986120373391337, 0.4199808847981654, 0.04915999308902798
-0.09678484218126893, 0.3978744682203099, 0.052093710475021066
-0.09750569063393288, 0.3902028540765466, 0.05068165676092749
-0.09462899852409323, 0.3900437028185439, 0.05581803301661797
-0.09840667246076179, 0.41311119689754244, 0.04932743121730564
-0.09917739564781423, 0.4017999254782425, 0.04744262704300967
-0.09983426762406647, 0.4132958693113245, 0.04623571587545606
-0.10119602337138128, 0.38507153484192264, 0.04278004688546253
-0.10146544276520938, 0.3589925044996058, 0.04205174950517451
-0.10141794434955978, 0.3591574800006122, 0.04215564368285173
-0.0990663967603844, 0.3805831207045359, 0.04737251807520299
-0.095467820736573, 0.36739935713048905, 0.05418107815649758
-0.09767803572295623, 0.37911136317610916, 0.05028825155690605
-0.09659769819459577, 0.3731088209371677, 0.052189720641203044
-0.09555925347161802, 0.3538824312616472, 0.05395365158955036
-0.09437976065130503, 0.4005389629498553, 0.056433348669373815
-0.0941655543345746, 0.40613035538465014, 0.05690661553201482
-0.0946539054648654, 0.403276367522656, 0.05598797344742237
-0.09183052552006399, 0.3962425353184128, 0.060358752756568795
-0.09243047296864473, 0.40147985201754, 0.05953492004211876
-0.0932571714412323, 0.41045440552042234, 0.05842477420927941
-0.08991122020804986, 0.42657097879663275, 0.06394380474654122
-0.09005936017138019, 0.42722013689450805, 0.06374762876140268
-0.09631544721687346, 0.42450495829534846, 0.05362076618490959
-0.09558593962675951, 0.42393274987625035, 0.0548982451778436
-0.09602677193795243, 0.32909209230820585, 0.05322761052574057
-0.09685739421271376, 0.32774469646618887, 0.05175016610879392
-0.09449303198089289, 0.3241986171436513, 0.055990703176902974
-0.0940800715670752, 0.3200739447596234, 0.056747977308218366
-0.09816143113692112, 0.34128327650030876, 0.04924681331005326
-0.09877373144187916, 0.3502909358292329, 0.047869474332455864
-0.09959621402007471, 0.3404808556172294, 0.04614049480626392
-0.09798339981567046, 0.3350793263344567, 0.04966710922556337
-0.0947651291248462, 0.2982041469155837, 0.055868598800253126
-0.09447151505362672, 0.29848706357881755, 0.056388445600087676
-0.09654133273398906, 0.2921052428287154, 0.05279623564268213
-0.09914633496501757, 0.30755652354937624, 0.04745032990210221
-0.09813286308512208, 0.2935346435347035, 0.04991758502769029
-0.09979655568127926, 0.30468449579472107, 0.04609586484962183
-0.0975940274554398, 0.2779805422669373, 0.05151070321176439
-0.09744817571602435, 0.2794009170881596, 0.05170609335603926
-0.09077314671245836, 0.2903078536036596, 0.062226975286919846
-0.09258856541015392, 0.2921767021306898, 0.059481060159687314
-0.09197872499851675, 0.2968346812235889, 0.06032672810660411
-0.0916005080197134, 0.2766614706335106, 0.061538488862734296
-0.09234823764873275, 0.28298902630246836, 0.06016331877425932
-0.09506543014970338, 0.31460037730307455, 0.055061483595936406
-0.09773223789294615, 0.30466541612146625, 0.050461458900568704
-0.09625436860810863, 0.31526934480529445, 0.05292650819210868
-0.0945904354465017, 0.3424500617520642, 0.05573016717677678
-0.0939664919591765, 0.3401380083185884, 0.05685575029447881
-0.09460703320713945, 0.3339712681038049, 0.05574071591409951
-0.09420381194546998, 0.3512801152562658, 0.05637897219891156
-0.0960262318719979, 0.3794330476840429, 0.05324057974531244
-0.09439350484213156, 0.37740819477346244, 0.056147701683211815
-0.09468469947583402, 0.37947250726002424, 0.055637295498060485
-0.09591484074543567, 0.37423362160983864, 0.05341491887697244
-0.09112566495309049, 0.32245376200766884, 0.06127150949642679
-0.09252680210952521, 0.33058194877483993, 0.059139257338063037
-0.09318037398338438, 0.3258241631918627, 0.058180305003459554
-0.0918450649323891, 0.3247571003340707, 0.060184524484426
-0.09063608743564132, 0.35372613565889277, 0.06188039389120377
-0.09100193690619748, 0.35709011188983053, 0.06134651648820818
-0.08908088615549338, 0.36367331176320583, 0.06425096143166711
-0.0912025767745279, 0.3680610960537667, 0.06109177477135525
-0.10942068472523293, 0.2743735428816131, 0.028725709246103688
-0.10792816781344566, 0.2786303346360458, 0.03437682753533252
-0.10693263308638531, 0.3071051745079361, 0.03837248909189202
-0.10636157021263112, 0.3170306119394637, 0.04015103036319674
-0.10784945978965145, 0.31555749377686126, 0.036087264170064685
-0.10528937961680249, 0.28063291175599986, 0.041802966966625596
-0.10492027544087547, 0.28566964450774185, 0.043129363551151
-0.10886720826746153, 0.3085036774392629, 0.032553687279159436
-0.1102606625441433, 0.2904647113060849, 0.02706830430724975
-0.10868887698456033, 0.3047684373136623, 0.033075170639145515
-0.10562101194307599, 0.2919141452492827, 0.04156930898247281
-0.10589336210656589, 0.2918733436568017, 0.04083080754156827
-0.10504708367325157, 0.2905153530612777, 0.043090852690352024
-0.10517546809065934, 0.3148935694055164, 0.043313127842006624
-0.10811086445513232, 0.3230547901364219, 0.03548164231214218
-0.10783045183566793, 0.32179076054800715, 0.03623257898929501
-0.10626177542587714, 0.3224182327105505, 0.04048487242342586
-0.10700143029021794, 0.32661220163809346, 0.03850984175066066
-0.10326666638959243, 0.3487863158335195, 0.04773467565555177
-0.10512210276106329, 0.33217177525123676, 0.04362011515701612
-0.10336706363442782, 0.34382546805386305, 0.047489606337898796
-0.10391311295973019, 0.3505909840032008, 0.046343068654186026
-0.104923965228804, 0.3121532457322476, 0.04384893975789653
-0.10292276975546297, 0.317742164381509, 0.04829578978516333
-0.10386318455227901, 0.30815616183831684, 0.046071525803691386
-0.10879894892406192, 0.3454504428996459, 0.033328457728821335
-0.10923437648192655, 0.3287555004975306, 0.031640263410940984
-0.10864220218600909, 0.3406565748650223, 0.03384398398876258
-0.1097496173100343, 0.321154142549135, 0.029746341473471268
-0.10530017453287424, 0.33944965861503806, 0.04320267943659714
-0.10650386257658889, 0.35118699650545027, 0.04002140011007804
-0.10521184740381703, 0.32212570510274, 0.04332620155523134
-0.1078451681188277, 0.34852624935197735, 0.036371309190740254
-0.10633093201113003, 0.4315207796627458, 0.03861339435971539
-0.10725744267375087, 0.4281574931343867, 0.0363177449438301
-0.1095892894667874, 0.3961721498548937, 0.030035177734432657
-0.10957062690804277, 0.3987571798235044, 0.030025809034532905
-0.1088196265446397, 0.3986815048176331, 0.03269400033493591
-0.10960247214337357, 0.35877546695441015, 0.030491089179467246
-0.10958692285713453, 0.3557348072517543, 0.030572235990325613
-0.1097890260799458, 0.3605596951778233, 0.029813611211315802
-0.10867226637782693, 0.3740924939139614, 0.03366253621121906
-0.10733382802915306, 0.3808758261077253, 0.03759968477101543
-0.10523919586142981, 0.37733849686711673, 0.04329573663837867
-0.10597121809637172, 0.3793471870515643, 0.041299949206489245
-0.10613587528576471, 0.37059302758323526, 0.04091249646806126
-0.1075702125523619, 0.41150131303398646, 0.03636265754660319
-0.1074456816844542, 0.395119956609725, 0.03707498186879062
-0.10678028725751348, 0.40269194190948815, 0.03870353409853383
-0.10773706916498799, 0.4088306853859931, 0.035971949348553064
-0.10584495121232668, 0.3900943316399431, 0.04152497007804859
-0.1059288253889716, 0.39984085791204493, 0.04107464282430529
-0.10570392034868852, 0.40858026792562757, 0.04148357691134226
-0.10462341809246088, 0.4284037521818523, 0.04341808784594377
-0.10365930988264055, 0.4253932806925216, 0.04566637320987771
-0.10382460121250539, 0.39757184039391225, 0.0461644179546433
-0.10213610822284715, 0.410913278892824, 0.04957259047179977
-0.10479684475969517, 0.3970356064535251, 0.04406663788896346
-0.10818667026161916, 0.38033508559107626, 0.03529374637854462
-0.10677605722369225, 0.3573181657139439, 0.03926750356698068
-0.10677060420986903, 0.3592461547809609, 0.03926939244695617
-0.1079985969051798, 0.3658324700231056, 0.03589993029049937
-0.10503685420687292, 0.3578720606826841, 0.04389302427041647
-0.1027619766798411, 0.3863877214622572, 0.048667700016596635
-0.10406462182180733, 0.3808325684762829, 0.04587411917186085
-0.10143142209714179, 0.3870723730384661, 0.05154868812493072
-0.1036014750918003, 0.4328544834513277, 0.04534670766565572
-0.10054291281910718, 0.4359425279178555, 0.051608000421602
-0.10400027776133794, 0.4185699692906526, 0.04528518229131789
-0.10200052688755509, 0.42393091366474095, 0.04933955209886554
-0.09744248395715595, 0.4163332892287811, 0.05819913103127536
-0.09766479456207014, 0.41638859625413227, 0.05779950803030324
-0.09946456649023654, 0.43389568081543267, 0.053708873914166635
-0.0935372699899416, 0.43642363699868547, 0.06326792712332552
-0.09612172033260286, 0.44238508868764725, 0.05895034208237125
-0.11180689298839523, 0.28887820210695514, 0.019351022301457688
-0.11231333857837078, 0.28235589501121494, 0.014910464895254499
-0.1123741086602061, 0.2753731224470205, 0.013064540250557552
-0.11190010643585965, 0.26279061847229407, 0.012881013780194973
-0.11061520133088616, 0.2721557343051373, 0.023265639228824707
-0.1126846844038591, 0.27040884388449216, 0.008957784613267286
-0.11303164593331039, 0.31619612597701185, 0.012147517884270974
-0.11326797436918742, 0.3004712965082594, 0.009072339243762873
-0.11307043913457582, 0.3122869071960341, 0.011551385471074416
-0.1134379469514288, 0.30067883830417047, 0.005134985592311835
-0.11361285625011627, 0.30780388975169787, 0.0021759443156447004
-0.11346313933496377, 0.29960556002769895, 0.004279001237853296
-0.1136697676604724, 0.3047099560255846, 0.00010519726844139857
-0.11257138992844327, 0.26734333836365276, 0.008769167198044475
-0.11329145244801432, 0.28252859841381256, 0.002300084980281842
-0.11327336220738944, 0.2822098142605538, 0.0025758509715237995
-0.11269021391475002, 0.27365745749582626, 0.010060435024618767
-0.11275333628141998, 0.27927673471260483, 0.010610922154137763
-0.1128754123332609, 0.2898648349763708, 0.011602864539839929
-0.10952901462550702, 0.34208228243734157, 0.008087885059060686
-0.10960853297131702, 0.32966877098375025, 0.006805986804864635
-0.10955181404085795, 0.3409320718273193, 0.007579407728755795
-0.10966063537089721, 0.3398145117741693, 0.004896653562736834
-0.10860930942912843, 0.2853019333743244, 0.018622412815128817
-0.10819106187730448, 0.2742030085770262, 0.022003280772408325
-0.10944813007174628, 0.30974415899762775, 0.010194723375392584
-0.10955102453939855, 0.2983926635076272, 0.010104225671910334
-0.10931623496259145, 0.31499422720321346, 0.010947739305931094
-0.10815186138130815, 0.2974187914979731, 0.020055205351643866
-0.10827715470961025, 0.31090176027814653, 0.018866989346397085
-0.10793863076569081, 0.2957577931836409, 0.021196944731132664
-0.1083793453805199, 0.3139025366285612, 0.01822861484990185
-0.10908448493625232, 0.3466443623392542, 0.012101111377139635
-0.10890231429966706, 0.3499481057612091, 0.013572810780443888
-0.10858851354414711, 0.34732901453155535, 0.01627132898638716
-0.10925321168306779, 0.2950661326619415, 0.01284417717510112
-0.10907256663835718, 0.29446789595782086, 0.014408930220264802
-0.1087292854378609, 0.308617571261084, 0.016335598322711413
-0.1089077718159191, 0.2964788620249743, 0.015661300439961424
-0.10981497442943092, 0.28049252460005547, 0.010299056803529178
-0.1099887020389279, 0.28017597343354256, 0.00889389128599731
-0.1098325406919167, 0.3065798528640004, 0.004255865787781389
-0.1097759487143049, 0.31463901297858965, 0.004042749759565682
-0.10967479543050383, 0.3064526949974288, 0.008264909866463757
-0.10912421887775947, 0.42051989261496503, 0.015138500606559925
-0.10921829138373018, 0.42800160898122075, 0.015740711990767577
-0.10963303623592213, 0.4083374101426958, 0.00943654709268415
-0.10942077463166552, 0.4054480949466762, 0.01103276198040199
-0.10924757615059472, 0.3998601706443385, 0.012118020811820646
-0.10773006841794384, 0.39230445499043565, 0.02150100801313568
-0.10854784555741809, 0.40537444141900597, 0.01791649170084335
-0.10820722294489217, 0.399648707659895, 0.0193980804210415
-0.11035720748843902, 0.43113856022088326, 0.0028357485374520103
-0.1099846713621403, 0.42417923623170634, 0.008380153887118009
-0.10831152696536417, 0.38020335065239114, 0.018288293994466243
-0.10840791140667219, 0.3815265463186977, 0.017818977725636793
-0.10719304334212719, 0.3546323018476997, 0.023613080169769093
-0.10753215175178862, 0.36467351566635564, 0.0220258623727763
-0.10953851643347651, 0.36440229510297, 0.007876735772193218
-0.10958769973268685, 0.37428824289558504, 0.007213120356633827
-0.10961392768817184, 0.36905574468478175, 0.006244775745936482
-0.10954167508227858, 0.3709842590888496, 0.008181993937503695
-0.1094686908403417, 0.34736628927179874, 0.008845997206962351
-0.10890922290196367, 0.31984701010094235, 0.014106454133240666
-0.1094998856996556, 0.3316970333470352, 0.008890955740886788
-0.10763180343015959, 0.3316523811578483, 0.02163921332261821
-0.10743097425318905, 0.3202099621209029, 0.022785752296067885
-0.10819676697620345, 0.32208620259107146, 0.01890979388083954
-0.10794684628909341, 0.32597263419693123, 0.02012129807991001
-0.1087165926131045, 0.3822826275081503, 0.015655377206722207
-0.10868453699970693, 0.361237164955091, 0.01551190673739549
-0.10870119722572893, 0.3820326250978894, 0.015780327453469904
-0.1088632469363508, 0.3858187860193414, 0.014487825876409084
-0.10988444808010905, 0.4046627811531899, 0.003949683702125763
-0.10972936095251848, 0.40561516702387934, 0.008056590750924079
-0.10990265336344372, 0.40525081107705796, 0.0036075854368043747
-0.1088650355440935, 0.40492216053607577, 0.015685243574146163
-0.1091318886206368, 0.3953567547773626, 0.012791110216066756
-0.10893944250686444, 0.40133075904648075, 0.014816127445628631
-0.1089379446122166, 0.4028875222247038, 0.014933428949233545
-0.10891356430382901, 0.3642103243865102, 0.013638441110444799
-0.10862909307431705, 0.35361718409681214, 0.015829762376402417
-0.10891987331349084, 0.3652848584185509, 0.013606350505050257
-0.10917976876304575, 0.3542315065288648, 0.011196711104815252
-0.11210678186888424, 0.4431390183400443, 0.010199302003827293
-0.11342439433878987, 0.4170447696390971, 0.002676512434342201
-0.11329627301354842, 0.41772437254333705, 0.00553499284850208
-0.11309205177861807, 0.4319631620549611, 0.0026592718098812536
-0.11177417998461553, 0.43299000184059144, 0.017556507745690016
-0.11022206707257895, 0.4384564287325997, 0.0242571389089403
-0.1124059290567147, 0.43403523440137315, 0.011857536173923496
-0.11239574948172534, 0.41846039127911905, 0.015238956257003632
-0.11213458169820445, 0.4276818540531937, 0.01572038923367181
-0.11268953075908267, 0.39176294197381456, 0.014904561943516362
-0.11238053593834746, 0.3948034233052339, 0.01730626881393669
-0.11246033985534676, 0.39616249223284594, 0.016541501688459123
-0.11027987142712799, 0.43151706671565515, 0.02542907412813145
-0.11115729175322328, 0.4256476218250521, 0.021675571083722468
-0.11275949466190718, 0.33802622606108, 0.014994410311148097
-0.11266716966522818, 0.33154264399824207, 0.01564584258553356
-0.11253818039390731, 0.33450925040301993, 0.01679223576713192
-0.11281919222295647, 0.3333761607853925, 0.014399460466925085
-0.11082998443675292, 0.33268547210900723, 0.025775334870637344
-0.11099348057982733, 0.35205787698321106, 0.025182520071667127
-0.11124737636942084, 0.3398654447558099, 0.023760137252393787
-0.11131710775022509, 0.33173079930736993, 0.02331267861353191
-0.11206002555578795, 0.3697098819560057, 0.019628199533439427
-0.11115053121609252, 0.38031260588976123, 0.02407913561604092
-0.11226686512295801, 0.3646133453482695, 0.018647821354616498
-0.11211245761312413, 0.38396694333858017, 0.019195164743101616
-0.11255438206640908, 0.3590379338496982, 0.016900128683230417
-0.1130986441071425, 0.36528774716241974, 0.012186217580798596
-0.11271490215319852, 0.3676235780731366, 0.015377377037593253
-0.11249867498681403, 0.3705264041397047, 0.01714432673607412
-0.11130348959549599, 0.4033944135792753, 0.022571877567559354
-0.11210573092200495, 0.4107281435878855, 0.01823637203706419
-0.11213231116879549, 0.40305658520076515, 0.01841480551169348
-0.1134117304082249, 0.3859232435278001, 0.00913960885820907
-0.11341919992388366, 0.37264810187856146, 0.009337482003493883
-0.11327303427104525, 0.38698955244934624, 0.010288643391703989
-0.11331548292856308, 0.38590227834992225, 0.009951929237855874
-0.11376303428506704, 0.3771589980239762, 0.0012035115676613498
-0.11363624531488958, 0.36468844089367153, 0.005134539201013306
-0.11367010533825404, 0.36631186447650843, 0.004184514601874067
-0.11376392883809593, 0.37183695458344523, 0.0014920483500499525
-0.11244513591724396, 0.4101471079421275, 0.015727516697924993
-0.11330069830282938, 0.39112905596139, 0.00979169446590607
-0.1131183171954477, 0.41371193836158227, 0.009808782273423758
-0.11326663662421481, 0.40277633117230116, 0.009294359431199623
-0.11221459803854014, 0.42844573738006697, 0.014902782308353414
-0.11305834365960545, 0.4177145347664123, 0.009788930937193721
-0.11345203891780486, 0.4006961103753858, 0.0057806778421144525
-0.11362952662496868, 0.3925757413346239, 0.002926169488159467
-0.11360807406766729, 0.38894946124321106, 0.004194775758198914
-0.0895011040658835, 0.33317812533944696, 0.06365975220279858
-0.09001184086103702, 0.33060802719540633, 0.06290557932974428
-0.09287423110805615, 0.35083837566144405, 0.05853447097880331
-0.09228390817703547, 0.3480520539948761, 0.059430165320471684
-0.09088494936435468, 0.3167569621043918, 0.06167550323425704
-0.09317786529360075, 0.3122637107217357, 0.0583068568574865
-0.09336211009699624, 0.30535933228226264, 0.05813118285762031
-0.08824980931778201, 0.30211735570960746, 0.0656569549525694
-0.08603895587985173, 0.29347394334785065, 0.06857214912753617
-0.08863306754016281, 0.3019611999395771, 0.06517313688335424
-0.08748285143334844, 0.28999430321992004, 0.06679415246939131
-0.08780266284707991, 0.2830415165797808, 0.06664033708311531
-0.08569571852189098, 0.3145115496598984, 0.06873338283385433
-0.08586276317765426, 0.3116075174554428, 0.0685594295369466
-0.0840219441869309, 0.2921513758374898, 0.07114630450765733
-0.08298775554656647, 0.2767183715655462, 0.07278893274965957
-0.08258630292394642, 0.27542974101402296, 0.07326558915839104
-0.08511391970709535, 0.3353943875164819, 0.06935431208049875
-0.08486190216607745, 0.3360289046207097, 0.06967141696091558
-0.08368906840552454, 0.3521922232277937, 0.07109775622108556
-0.08549089389131977, 0.3371117700297455, 0.06887000797210696
-0.08148891053750365, 0.290477890750222, 0.07395933069723142
-0.07934367325729849, 0.2925861475297046, 0.0762541097340656
-0.08199160799572941, 0.29733574838082466, 0.07333428309756257
-0.096359132804169, 0.26505737202125856, 0.05865610493066094
-0.10318905787322655, 0.2676609255098725, 0.0456961053359143
-0.09718759463514358, 0.2732650830348371, 0.057875933730940535
-0.09174688332805589, 0.27084211924198975, 0.06604459000217497
-0.09828227135400537, 0.2687460688522174, 0.05553510220164466
-0.09794473561691097, 0.278571026611434, 0.05678534546661976
-0.09919025547659323, 0.28109254213939566, 0.0546763773831346
-0.0947833999403063, 0.28569038308729255, 0.06219738362181474
-0.09580525356250026, 0.28113432507888786, 0.06048265743816295
-0.10356993649190468, 0.39499734522729674, 0.046765309394937574
-0.10243165361379654, 0.39805069460388626, 0.04917539588970253
-0.10175134908809003, 0.40623351442743455, 0.05049540844606755
-0.10406391825502723, 0.38867749755076625, 0.04581398450681567
-0.10084866290973613, 0.4232895814296267, 0.051801353623833826
-0.10018891568617203, 0.42994108587044366, 0.05268064270034259
-0.10053559762482314, 0.4119786747987145, 0.05276631036920307
-0.10016042831490975, 0.41513503461266177, 0.05338526101121817
-0.0980810700710565, 0.4084812644585326, 0.05720785362320833
-0.10285644909259734, 0.35644986528676514, 0.048628250709349397
-0.10181217395828017, 0.35890190234929026, 0.05087881583930967
-0.10183028052502448, 0.37918212883081165, 0.050727509111016644
-0.10180880190279015, 0.3531633139305058, 0.05091783292162909
-0.09519735796169619, 0.4223588255572003, 0.06150520962491402
-0.0965528070790303, 0.4257400681286437, 0.05934147119456325
-0.09974596158927553, 0.38896875399552144, 0.05455053879690458
-0.09851163644828233, 0.39083239112468937, 0.056725280420853355
-0.09814604943472097, 0.40136551890744604, 0.05720732312441818
-0.09811527402114895, 0.3718773818105764, 0.05756364097679685
-0.09744180275424473, 0.3715977832051176, 0.05876805192577753
-0.10026064236315815, 0.3553296944202691, 0.053809537904001226
-0.09810746910515392, 0.37479593470182354, 0.05756376042127105
-0.09630555501843086, 0.40820299833085694, 0.060219527142412715
-0.09626327256842318, 0.39767076998705086, 0.060433290002392344
-0.09636253740832534, 0.4063669346617117, 0.060160416986054774
-0.09441308632001456, 0.40953759468137, 0.0630346064854746
-0.09297564106987598, 0.42657197715002043, 0.06466569975783606
-0.09417686137990644, 0.4224659275594314, 0.06302926103264606
-0.0917826246883081, 0.43176601993285624, 0.06624498655740076
-0.08967397306595448, 0.43622562297208983, 0.06866361359157246
-0.08889704495560216, 0.4331228487145923, 0.06985715512763926
-0.08364119135830435, 0.4385257285647655, 0.07574215537171936
-0.08704268381141303, 0.4211075522755252, 0.0726790303465057
-0.10926300534781835, 0.3094160344777101, -0.011778673907179488
-0.10949013162686844, 0.3163189576385863, -0.00939002404596978
-0.10902558358903014, 0.30263630877899733, -0.014245735530318266
-0.10905376222700584, 0.3175701513371809, -0.012985368917817918
-0.10900674645928693, 0.3419557308584488, -0.01284896012051102
-0.10946022739250916, 0.3410305087102198, -0.009041886164857724
-0.10909093961065294, 0.34592877864166166, -0.012060641996955817
-0.10948681478113037, 0.32987474427605123, -0.009036963137538429
-0.11038402838560508, 0.27676025110605945, 0.001315766158492649
-0.10963232801662799, 0.3128975122679366, -0.0080239962418631
-0.10977356395027721, 0.31556113290855353, -0.00391500864051615
-0.10980761160824062, 0.30915416142203367, -0.0043607398085715055
-0.10965412396344854, 0.3117755068690097, -0.007702253364181051
-0.10979291605471181, 0.3411290049909629, -0.0014794921455478958
-0.10985822898950048, 0.3249548724765228, -0.0007768586262855667
-0.10966734899049607, 0.3433750351315098, -0.004519042652915745
-0.10995745504328833, 0.2924702819866677, 0.003976308836423133
-0.10991912961436105, 0.3131522643467274, 0.0007302310129360295
-0.10994048411095271, 0.3014095358222142, 0.002583521575364733
-0.10990383506462897, 0.2951469159235451, 0.004784982675263061
