0.09267616562748825, 0.3639914568991673, 0.11350658481910299
0.08190934651055287, 0.3704598861393518, 0.12177146768526664
0.026184578909902254, 0.36429491184545565, 0.14420727323906532
0.018423490740158466, 0.3650792694677808, 0.1449286256621042
0.026983493586056548, 0.363349889231911, 0.1449538432391457
0.04163689858353263, 0.3705070324820625, 0.14106027898663698
-0.012526255206732208, 0.3642747969377671, 0.1458167795445904
0.00510002845372252, 0.3640376187206706, 0.14652863964043836
0.019757755667283782, 0.37050442754867874, 0.14644192852086307
-0.02836702689648007, 0.3638199609729047, 0.14393977606602712
-0.07127414479776162, 0.3650867177986652, 0.1274669634300718
-0.04419797048551409, 0.3705042682850557, 0.14117332921430542
-0.08502536347695977, 0.3645838217146382, 0.11935646473700537
-0.10384107808420791, 0.36424383938062754, 0.10377887043796902
-0.08569270194889685, 0.3705072320552324, 0.11969570229475077
-0.09813678594708487, 0.37036793987192895, 0.10869891969680937
-0.12906422815825602, 0.3648963818571576, 0.06885466786150621
-0.12197543444979335, 0.3642310129294476, 0.08109936363014508
-0.1330465390161856, 0.3705155385517315, 0.06692674698020903
-0.14483102933014386, 0.36518184504927287, 0.01897839866503545
-0.14549988259449798, 0.36339991504141334, 0.02437844278626835
-0.13997710695158253, 0.37018413174713327, 0.04209781351005329
-0.14618012982578643, 0.3641579455056899, -0.00870230301003853
-0.14613341708702887, 0.36526459705266057, -0.001985189559493229
-0.14599699956291878, 0.3703656327446149, -0.010702808385576135
-0.14148811670683734, 0.3705075640581922, -0.039262319101942236
-0.13516257444250573, 0.36436689548262396, -0.05599437606336445
-0.13226739453663128, 0.3705062510612295, -0.06500264323182973
-0.10565856367224549, 0.3645411754481034, -0.10141521098475212
-0.126421818875684, 0.36428373590027546, -0.07378325473270113
-0.12380465220508241, 0.3705039729707195, -0.08080827726642056
-0.09816302812774633, 0.3659478502706863, -0.10759969969006877
-0.08871222058996125, 0.3634349749491671, -0.11771756348003953
-0.07597737221466669, 0.3705048458566319, -0.1263747403037565
-0.028827776755123744, 0.36362384986781504, -0.14347289179761555
-0.05019844045280965, 0.3633418015539851, -0.1378758551639171
-0.06363421488771451, 0.37041324984045654, -0.1326448940265013
-0.04401581265795022, 0.3698680109070617, -0.14176897110315095
0.0010503830348065227, 0.36289570432024104, -0.1468583407287048
0.007682345058661816, 0.3624592604861897, -0.146873513840488
0.0176415666484265, 0.36958500369675007, -0.14659247644160064
0.049062271231670423, 0.3656705526698609, -0.1373096767368542
0.07361852270700014, 0.36441948491752263, -0.1264240805712748
0.03547686442915429, 0.36986544004459204, -0.141918142033807
0.0733782850427588, 0.36412712807945274, -0.1267494139035334
0.11842723811402242, 0.3636169394499882, -0.087456344448023
0.09174739792431166, 0.3705142697701541, -0.11687260328451088
0.09771843969866753, 0.3703279165873518, -0.10892479996609442
0.14194172140194067, 0.36631512969683655, -0.031768394069863086
0.1400830966571216, 0.36328895801017214, -0.04685218358007508
0.12036617018904604, 0.36522281816834845, -0.08273844767830224
0.12907576946056618, 0.37050453708592984, -0.07169310358436273
0.14653129952448335, 0.37988191445844954, -0.029263735381678955
0.1465657060379365, 0.37760994887836635, -0.029119948633496144
0.14585591594144937, 0.3760863645329944, -0.032082714334590416
0.14829539119685378, 0.42159253488582027, -0.018805182174829408
0.1483428975474403, 0.4075135169310774, -0.018204651423042367
0.14853559668703928, 0.42875190811065933, -0.015772313347735514
0.14836473327299002, 0.4236186784753332, -0.01792965735989456
0.14964372099554102, 0.43061958799979344, -0.0017795522004400964
0.14842271318582678, 0.4129564240417093, -0.017197027928466557
0.148401525560347, 0.409110830440518, -0.01746439889207875
0.14842745266403629, 0.38710055120626774, -0.017135858580729028
0.14843413383165685, 0.38202047114446813, -0.017050404578403316
0.14900273186359378, 0.3845465101876069, -0.009870917905119011
0.14932812413778837, 0.4179622821843777, 0.005763950899079873
0.1496785643973449, 0.4122063622451033, 0.0013385490170900924
0.1494808550114361, 0.404656866178588, 0.0038347130350221206
0.14945662245018018, 0.4200038246505544, 0.004141464049944153
0.14901783452596473, 0.4159730768855579, 0.00968197513213618
0.14975958876284864, 0.42669608329719544, 0.0003161459654143424
0.1491071636186797, 0.43207480252086006, 0.008554785451592042
0.14877253816982758, 0.4138090518458952, 0.012779300838353186
0.14932612507099252, 0.3764016804451723, -0.005785424420781075
0.1491257478448385, 0.37364218928407544, -0.008315106860095695
0.14974533127867493, 0.373641345921316, 0.0004911089834974478
0.1495260638161401, 0.37924347666367525, 0.0032610958420878264
0.14918684288145656, 0.3819061269902519, 0.007545101129091443
0.14789910790408453, 0.4005771530208423, 0.023554572383993562
0.1475970069005327, 0.407712858037563, 0.02481574736031293
0.14679644340618989, 0.4039913472785624, 0.028157433607284663
0.14623153859287485, 0.4074726037220243, 0.030515551667412686
0.14710511084393235, 0.3947743206504295, 0.026868810969112557
0.1458398132172426, 0.4144034041538617, 0.0321508376353627
0.14688350038102682, 0.427371611690194, 0.02779445949360528
0.14963477373389222, 0.37275285658451923, 0.0018869440212875449
0.14840036962274544, 0.37630368220078153, 0.01747486748905875
0.14812150889018283, 0.3828257412868531, 0.02099751818185887
0.14779803092298, 0.3762326606462332, 0.023975430033673556
0.14710437041140695, 0.3857024325802543, 0.02687163520877508
0.1361702068932949, 0.37165163606572327, 0.061419541417817955
0.13814423264405082, 0.41223492519329147, 0.05667523173039142
0.13606329561632688, 0.43227620226179236, 0.06169235534159035
0.14185060064147276, 0.41158145076350616, 0.04773957711811416
0.1344113154286118, 0.4326493656402104, 0.06567510276630478
0.14082904804662746, 0.40469705251708954, 0.05020235577790738
0.14219959000556998, 0.39938864298025023, 0.046898072890009336
0.14004588579397317, 0.41449271073825944, 0.052090577960527504
0.14430160148421953, 0.37326106855030816, 0.03857027136295844
0.14466753216933714, 0.37208162833017333, 0.03704269768874913
0.13554596797548366, 0.3857477689102468, 0.0629390499336033
0.14127713755718718, 0.38079394109386855, 0.04912161351509593
0.14085165504089436, 0.3755747372163664, 0.0501472006450047
0.13671100018531207, 0.3763718972005141, 0.06012991648589888
0.1339272660322207, 0.37566053944713895, 0.06684118130907561
0.13565575543876443, 0.3829791161558402, 0.06267425550337424
0.12367394185244902, 0.4287687556902933, 0.08396419087981696
0.13340187888902796, 0.42600046273331277, 0.06807221012421748
0.13142032589514294, 0.40458092613050567, 0.07130920358701248
0.1261696518932033, 0.4288710505346822, 0.07988709631042579
0.13051437209504088, 0.43170378729518133, 0.07278940172877554
0.13072980455822625, 0.40105795529941046, 0.0724372425848995
0.1227466249112538, 0.4281670740513531, 0.08547908993299938
0.1277346585044552, 0.38431121634355625, 0.07733005742115634
0.12606250027107177, 0.38689468819033374, 0.08006184076697244
0.1315842420218799, 0.37744310677524456, 0.07104101639090935
0.12341998755603321, 0.38328948585116496, 0.08437866325335411
0.13038982201495616, 0.3744129072567342, 0.07299218796811434
0.11957188927000707, 0.3989137520961912, 0.08992003451707545
0.1135917471791096, 0.4161343390529201, 0.09691507211934264
0.11444369930486517, 0.414832620667303, 0.0959185405808883
0.11261571423761171, 0.429957103988899, 0.09805680762116592
0.1188348758154286, 0.3963790945868036, 0.0907821022233183
0.11457042394889638, 0.4200292705400901, 0.09577033922486562
0.11371007617436649, 0.4277664371390918, 0.09677672565135537
0.11405071097596473, 0.42789125387929544, 0.09637828733255643
0.11417556034046031, 0.38736004044780625, 0.09623204515153586
0.11858159496060881, 0.37552958068173825, 0.09107805569384025
0.09449469426016295, 0.42420378457614416, 0.11566102366547831
0.09209797087988567, 0.42446542952260985, 0.11771003866195834
0.09139576852892041, 0.43259171309735045, 0.11831039958779417
0.0919416003512529, 0.4265989188163061, 0.11784373182061322
0.1058153713022865, 0.3985302832607715, 0.10598261534200053
0.10062963985910134, 0.4142422881263515, 0.11041607830663272
0.10193628352370225, 0.42332667087218656, 0.10929903432009505
0.10553517653187601, 0.39414052013225803, 0.10622214302416269
0.11293477445293526, 0.37367423722709625, 0.09768307631479974
0.11201499166412324, 0.37329247591895054, 0.09875893337695693
0.10125924865451189, 0.387282256333879, 0.10987769353618713
0.09426203227716262, 0.38594360641715114, 0.11585973932899887
0.10285315660161147, 0.3794173554506953, 0.10851486725852515
0.07541209564120727, 0.42618929802317895, 0.12890890602652155
0.07882226637377829, 0.40997746383903944, 0.12682138130753293
0.08011071567062777, 0.42813469146098393, 0.12603275473679273
0.08202611774451551, 0.422724327947933, 0.12486026191509655
0.08793580246496208, 0.4025819057699177, 0.12124269857337303
0.07609973043513464, 0.4246394864835351, 0.12848797927752467
0.08357911119752134, 0.4074726506420489, 0.12390957185043382
0.08051917280057522, 0.4251569887405944, 0.1257827150730864
0.0906695812984056, 0.38323002829879294, 0.11893095159781987
0.08916017155263593, 0.380914819920221, 0.12022133654836342
0.07179224196917902, 0.38575741879344433, 0.1311245042837291
0.07113020244148258, 0.3875535405788679, 0.13152978716110042
0.08179876795214779, 0.3873395053345792, 0.12499927503904851
0.054768679938445336, 0.42910420457951404, 0.13893508563885662
0.054631216401062374, 0.42610722447568716, 0.13899208979780914
0.06269287129545925, 0.41382138984521244, 0.13564818599631662
0.05734861279408507, 0.4134991625354531, 0.1378648992694485
0.06529810562992235, 0.40967174423623476, 0.13456755681396831
0.05626758170583421, 0.42292048275034866, 0.13831333667365356
0.062364179997440525, 0.4242158757616267, 0.13578456904201636
0.08158661720450824, 0.37446430049621804, 0.12512891264571724
0.07633414399986176, 0.3759861315074178, 0.1283441129819382
0.07572910873392438, 0.3800766757483257, 0.12871454520217868
0.0527482816286788, 0.38346036028696723, 0.13977285894962144
0.04893932085053432, 0.3860450970260997, 0.14135280042744408
0.04011923403339061, 0.37124644996181944, 0.14383609552169851
0.05616264797042571, 0.3754111964019211, 0.13835648675796122
0.050763222231280644, 0.3762611437535166, 0.14059609279635535
0.045349980089595336, 0.4030187928419025, 0.1426777000241596
0.027533373821927713, 0.4310055273054303, 0.14694604333605704
0.044596854596524155, 0.40538480091848506, 0.14285813210269083
0.033756381382180484, 0.41848101026109885, 0.14545517916901962
0.03755628525695975, 0.41390959101264047, 0.14454483806715507
0.026007522451137837, 0.4326271352796236, 0.14731158989302945
0.03628085658940374, 0.4104485363430005, 0.14485037075832533
0.06443477926147369, 0.3709379175505516, 0.1347547121909156
0.043295745607246874, 0.3851632567548471, 0.14316971453010507
0.040778380953044945, 0.37775777466036525, 0.14377265454941138
0.026119575263180327, 0.3838187060167991, 0.14728450891045425
0.037022831794994854, 0.37730120335068756, 0.14467234709953872
0.03878382727640453, 0.37539331961200767, 0.14425044012168342
0.02104568254182742, 0.4068092078711565, 0.14811786055064807
0.013363937176494138, 0.4178141535821921, 0.1487262493576775
0.017083949680327108, 0.41253277708947744, 0.14843162716958896
0.01930931164486919, 0.4033599183924508, 0.14825535827807299
0.010268214789080719, 0.42442405979232556, 0.14897143630498882
0.021972425784364785, 0.4133804607286407, 0.14804449190722635
0.022957832926820895, 0.41569393495904317, 0.147966461924177
0.00022485368931339625, 0.3875040719188025, 0.14976672049709727
0.02115705150354709, 0.3792642111155104, 0.14810884039935007
0.021042548833589376, 0.3873752560550356, 0.14811803917209534
0.00577463422882348, 0.37577319641477636, 0.14932704912292177
0.015262572739707514, 0.37308843644467315, 0.14857558040458269
0.017334159918306325, 0.3758096306271274, 0.14841154280318306
-0.014268637239022525, 0.38372757516569145, 0.14865457831027695
-0.013172838310646223, 0.3844921879412809, 0.1487413615888949
-0.0018912031996210594, 0.37469934175500474, 0.1496346343992045
-0.006936723020063002, 0.3734641363711775, 0.1492350729219881
-0.010259236491077675, 0.37958580038839584, 0.14897203554965713
-0.015054685651569652, 0.3989171983951052, 0.1485924017248844
-0.011734623146114972, 0.38949588608832003, 0.14885529013052207
-0.004653743393367416, 0.4050336416115847, 0.1494160590957545
-0.007015425538165586, 0.4049097245206449, 0.1492290392340223
-0.017167730288085138, 0.39009628466254764, 0.1484250486923302
-0.0003371478448400536, 0.4203702438309064, 0.14975792629450185
-0.012510321017805933, 0.4087343360870061, 0.14879391319410123
-0.035244744999971885, 0.3861805937083861, 0.14509869422377464
-0.03839397314232894, 0.381038410596596, 0.1443442153706041
-0.0403880464533055, 0.37721624299948453, 0.14386647955380052
-0.023721112835346746, 0.38451272888987237, 0.1478593192978903
-0.0335315257328639, 0.37535367262529407, 0.14550902391781595
-0.030971287893784106, 0.3815282247430084, 0.1461224239328
-0.02747538183753298, 0.3990991487661164, 0.14695999110905072
-0.027862927959271082, 0.41476599907546424, 0.14686718573921792
-0.03505368919739527, 0.392070767284757, 0.14514448535145064
-0.03787793198660003, 0.3895882981525446, 0.14446789276008162
-0.031084639148938862, 0.39363456474519976, 0.1460953303455462
-0.027293915564851255, 0.4231117240021526, 0.14700352015572876
-0.027107029395216878, 0.4219837282937319, 0.1470482887025483
-0.05056701148564728, 0.38463353438135817, 0.1406778552886019
-0.055258760470743906, 0.38171479085039084, 0.13873172986511909
-0.06418425772074987, 0.3846771742512395, 0.1350295702401243
-0.04893292209733317, 0.38173763518200204, 0.14135564122510533
-0.04927769379010866, 0.37420340185110124, 0.14121257360797537
-0.07332272140723083, 0.3834554253940716, 0.13018767684413088
-0.07644607431713882, 0.3849262760195693, 0.1282757828525622
-0.0848763757739372, 0.3828720198116221, 0.12311524070160934
-0.06052442589631102, 0.3969683774079108, 0.13654769476083045
-0.06057565505666114, 0.4013577141367946, 0.13652645786731646
-0.050875437378577165, 0.41856070153933744, 0.14055005127493392
-0.047942237794484394, 0.39442948080067997, 0.14176664236074124
-0.051851164927555225, 0.39072084986319233, 0.14014525141992418
-0.050961446318329495, 0.3913342481579776, 0.1405142987556301
-0.05293516092354755, 0.41617348949731614, 0.13969569360426815
-0.0914822810783561, 0.3715239024067435, 0.1181928865195394
-0.0757752393249311, 0.3754279465367115, 0.12868627188486548
-0.07653863139783317, 0.3734426137582669, 0.12821893917654653
-0.10454712651036757, 0.38267357992693457, 0.10706656142709904
-0.10354843372810332, 0.37683706682757595, 0.10792023418036162
-0.09276671856182167, 0.3835317992005565, 0.11713793343290198
-0.07305598190540386, 0.4071537496887836, 0.1303511000912725
-0.07447075631990394, 0.4010170496156372, 0.1294850436143758
-0.07438635082434777, 0.3921583406227498, 0.12953668253246553
-0.0719117668697141, 0.3975832451480066, 0.13105148586629295
-0.0755232520175496, 0.41111475848786755, 0.12884080440380968
-0.06948334695452443, 0.3972154857040977, 0.13253801159371592
-0.07259050047643693, 0.41761799876812294, 0.13063607281617823
-0.11466880985226345, 0.4184890556186145, 0.09565517716513486
-0.10728349865304827, 0.41347666114438364, 0.10429367653190304
-0.11710580755052159, 0.43318596729289055, 0.09280472932982173
-0.11099142824015565, 0.41326057825530516, 0.09995654521930095
-0.11633697091698059, 0.423929276257487, 0.09370397655108567
-0.10803688455277428, 0.4300150122423929, 0.1034125441256399
-0.11388910165466165, 0.41761572313365075, 0.09656718938053266
-0.089695882333764, 0.4144817498250201, 0.11976350654299417
-0.09876977080694979, 0.39099072908351074, 0.11200589327023863
-0.08888831815310706, 0.42332384306453014, 0.12045396106211319
-0.09762854494751061, 0.40608620719821487, 0.11298163750345316
-0.09363842599341582, 0.3916514458270811, 0.11639280624654463
-0.09784925315338601, 0.4010494006360562, 0.11279292109982758
-0.08848694397736884, 0.3947728105943225, 0.12079694852244667
-0.0966352101570438, 0.39320241316664245, 0.11383079235161972
-0.10633040112414585, 0.3865851480253459, 0.10540832698222263
-0.11051685128421052, 0.3780129867210238, 0.10051124405517044
-0.09508538429071992, 0.37813884976194323, 0.11515553237339148
-0.09249865387760951, 0.38319936108653463, 0.11736710147846369
-0.0900159586560343, 0.3789141588462581, 0.11948952927055151
-0.11392931067086631, 0.3749718769106264, 0.09651964397289566
-0.1185163639613723, 0.37853494531111165, 0.09115430608234942
-0.11774870702999889, 0.3746947453793854, 0.0920521269130431
-0.13309834535297999, 0.4330886883038867, 0.06856818889171593
-0.12692463041176225, 0.41041992228005364, 0.07865361178530171
-0.12521458718606165, 0.4069675772979353, 0.08144717114587091
-0.12468256756967126, 0.4054312514867275, 0.08231628513400456
-0.129409767828002, 0.42834380535396016, 0.07459393990996452
-0.12221844698286902, 0.4329983227866973, 0.08634196225619045
-0.13058558649267102, 0.4273346195068925, 0.07267307480804105
-0.12843233917208632, 0.3861604600549296, 0.07619037281223695
-0.12555863551544932, 0.3816058055620693, 0.0808847981940151
-0.12130851824802172, 0.3836043212019914, 0.08782798557037057
-0.13527182629884105, 0.4208018031499393, 0.06360050300816024
-0.1403136807614273, 0.4262595821892833, 0.05144519619214144
-0.13471110172647735, 0.4240646547305871, 0.06495237709827177
-0.13358816864266093, 0.4168734481778767, 0.06765958112886811
-0.13453961367161058, 0.41575871453916147, 0.06536574216192947
-0.13445445555505653, 0.42089287004725107, 0.0655710945677937
-0.13946854783881915, 0.4243001893775801, 0.05348270110258749
-0.12601125688260822, 0.3725687481852591, 0.08014509591880478
-0.12354646142065712, 0.37366340991367264, 0.0841716943377938
-0.14182381970805494, 0.38764923897934683, 0.047804102456112184
-0.13469062606444684, 0.37885504894902344, 0.06500104444703685
-0.13547453970363899, 0.3810016056350433, 0.06311120991401742
-0.14627427337984722, 0.4233036954780986, 0.030337693035483428
-0.1453670989661876, 0.42155225576925087, 0.034124442524820046
-0.14320861028488144, 0.4261828300182572, 0.043134576372552066
-0.1461366431088486, 0.42740898872608357, 0.030912251246493848
-0.14306858257787416, 0.41947479749577676, 0.04371899714132736
-0.14439430843281315, 0.4302501735455018, 0.03818523017548169
-0.14351025386231603, 0.41001423867790054, 0.04187522389222367
-0.1427766770396766, 0.3915737096568077, 0.04493710990722753
-0.14058052512514457, 0.3784674645315312, 0.05080118778614044
-0.14137137753254486, 0.385019819822545, 0.04889478079254641
-0.145749811999021, 0.3832098976529652, 0.03252608406449087
-0.14453508039987362, 0.3874857097998825, 0.037596973267740155
-0.14263556238751396, 0.3845883086602584, 0.0455259124951179
-0.14543629811135037, 0.37564030156338524, 0.033834300457514496
-0.1478337945374707, 0.3818773444889345, 0.023826862841301408
-0.14928018420756997, 0.4241111698128111, 0.0063697740841122995
-0.148016033076203, 0.4045194541296226, 0.022332000618676087
-0.14895846622921247, 0.43007634467023464, 0.010432599678289453
-0.14851274739201858, 0.41469545012100506, 0.016060194951043476
-0.14798179891344346, 0.3991103922076845, 0.022764026445421408
-0.14889726084782892, 0.42252766610669407, 0.011205100758489257
-0.14911256358180158, 0.42876173905734155, 0.008486653342945094
-0.1482429799505251, 0.4067459346014976, 0.01946631573967851
-0.14918949053864936, 0.38761642116624023, 0.007513077660636045
-0.14877325975154115, 0.38673986106066427, 0.012768947526503009
-0.14605895697487745, 0.37112306649486704, -0.030727911002022528
-0.14973535725891307, 0.37934597311861173, 0.0006183854762264036
-0.1495489316124512, 0.3723837924893463, 0.002971134178614751
-0.1493785548667359, 0.4289801909044315, -0.00512777137217579
-0.14965235592755627, 0.3976552014510314, -0.0016686946614154036
-0.14950644966949794, 0.40108765392855317, -0.003511296785383633
-0.14904348366979156, 0.4066775293002108, -0.009357658025550346
-0.14904144359319182, 0.4129433998571646, -0.009383754618302532
-0.14824984594825522, 0.4296145208471622, -0.01938047626574927
-0.14879094508649784, 0.43236342908799896, -0.012547942576431402
-0.14862488449476544, 0.41757703790960565, -0.01464406563099339
-0.14958308215665583, 0.37597932706677306, -0.0025405857642968664
-0.14977110300274854, 0.3830222709357601, -0.00016776439438788838
-0.14376619283331019, 0.4283370139754587, -0.040807068394842015
-0.14461205065269223, 0.4199535860273345, -0.037276092043084706
-0.14677700176028244, 0.4189027833880993, -0.028239001762754012
-0.14701754965447913, 0.41998711729021726, -0.027234910638673983
-0.14487974572636925, 0.4142447782190128, -0.03615856433537244
-0.14598344605604677, 0.43280818647373864, -0.031551750639846894
-0.1440487179061334, 0.4240773976231202, -0.039627661385084806
-0.1493170925291752, 0.37393371821490046, -0.005898973840220459
-0.148467030135135, 0.37223690286958133, -0.016632871484495108
-0.14844684937712302, 0.3760457184155196, -0.016888432827484198
-0.14649099270378543, 0.38679803689248254, -0.029432327995177456
-0.14429711650491217, 0.38748530411742116, -0.038590252922908276
-0.14590406113972243, 0.38393444165100243, -0.03188216615366925
-0.14273719014917932, 0.38672134763483335, -0.04510179078962828
-0.14592555827910567, 0.37669794130883955, -0.03179195336920319
-0.12773408571275738, 0.3713622575596736, -0.07720232432581219
-0.13619598086040416, 0.4207277307925193, -0.06137252933809978
-0.139283920034607, 0.4284061651437804, -0.053927891562248975
-0.14203235436112732, 0.3927623804821363, -0.047301401525482914
-0.1418502566693727, 0.4242503869961662, -0.04774068433845797
-0.13783216627850098, 0.4259140366322691, -0.05742789891160156
-0.13465535444757756, 0.43147788793038866, -0.06508691054411571
-0.1423813391184771, 0.4114081371756124, -0.046460191734717174
-0.1376706255093984, 0.38654886522648924, -0.05781697431637785
-0.1415640248163634, 0.37387431586782677, -0.04842982863169513
-0.13649113690923748, 0.3870583979407703, -0.06066061948771556
-0.1253894077600785, 0.41979897707214087, -0.08116186134625032
-0.12710724978983431, 0.42684773199598786, -0.07835556074495137
-0.13047576299764663, 0.4125671246378386, -0.07285250586799072
-0.13000475985895324, 0.4232961046281065, -0.0736220293676291
-0.1330415966847133, 0.4295664691142327, -0.06866095204874646
-0.1294446403002304, 0.4031740013520078, -0.07453693419347251
-0.13077365031431648, 0.42694902065538654, -0.07236595804707621
-0.13643355372353805, 0.3743903523593999, -0.06079889195570036
-0.13505071618300993, 0.37210404933011737, -0.06413267397719993
-0.13719933778720628, 0.3708315960169669, -0.058482202378830644
-0.1323038334074214, 0.38317541965508284, -0.06986577634916048
-0.12820202237531586, 0.38175280503317344, -0.07656662984894241
-0.11215740520293033, 0.4311824548399244, -0.09859304766879223
-0.11928186900609788, 0.4137983824784698, -0.09025950296270928
-0.11286747922920012, 0.43078767891854153, -0.09776247592480405
-0.11776693770342431, 0.43070558415084614, -0.092031607406836
-0.11499577059520559, 0.4181642743295046, -0.09527295264845032
-0.11249899816287381, 0.432398459360806, -0.09819349543028943
-0.11375322021472298, 0.42587065594020235, -0.0967264013163632
-0.11788304611976992, 0.4105537758529468, -0.09189567911529935
-0.12159130159375015, 0.3803422561095821, -0.08736615857234274
-0.1221638449205798, 0.3862899047959884, -0.08643100341362293
-0.1196802552821847, 0.37858328929287105, -0.08979314599333015
-0.12033901873565439, 0.38398974649984996, -0.08902272290954696
-0.1187233950851457, 0.37726074229616824, -0.09091234993759026
-0.10818572889919247, 0.3829054662267235, -0.10323836743256842
-0.10792755791264677, 0.38294466083081585, -0.1035403513142967
-0.09744316994507204, 0.42122586230326275, -0.11314041810630843
-0.0942649405033294, 0.4284359731479869, -0.11585759358622726
-0.10267314843573419, 0.4287614947593334, -0.10866921858695403
-0.09165511525940033, 0.4309014203330495, -0.11808880595150456
-0.1028959603614211, 0.40334343043580645, -0.10847861951966875
-0.10401433094505366, 0.3990591862143814, -0.10752247912109834
-0.10514474904497989, 0.4073884125842086, -0.10655609452756015
-0.09792039826125729, 0.42711033173771706, -0.11273245019521387
-0.09537118771568535, 0.3820588576281284, -0.11491157075140492
-0.10421797649311897, 0.3787544252040795, -0.10734819015147629
-0.0614720385738484, 0.37125596554943696, -0.13609944102351104
-0.09494647783312585, 0.3729281589019519, -0.11527449017644742
-0.09551013406591828, 0.37620729318538115, -0.11479267283634371
-0.08083242263057264, 0.425321293121121, -0.12559107849934337
-0.08214989792532866, 0.42881458325633104, -0.12478462938701168
-0.0796944698022043, 0.42792984534285, -0.12628766048512624
-0.08031614270442869, 0.43284139943362143, -0.1259071364433642
-0.07268010200822128, 0.42373780765303076, -0.1305813301337097
-0.08428379786993484, 0.4118697919588984, -0.1234783458748899
-0.08087115578288988, 0.41004252523744095, -0.12556731011335526
-0.08289025592723687, 0.4322850506710255, -0.12433144941688268
-0.08584912402251324, 0.37732514669853545, -0.1225198859049497
-0.08659241336696707, 0.3798966546536661, -0.12206494557345679
-0.07410987780255503, 0.3813983876685719, -0.1297058375024031
-0.07847191491421868, 0.3723669992519909, -0.1270355647808583
-0.07005822426481252, 0.3807724903405299, -0.132185940541178
-0.06630966587785671, 0.39711637026181057, -0.13414799528014462
-0.062139348796626095, 0.417179097729635, -0.1358778587492024
-0.052563242030134585, 0.428723832021746, -0.13984989926724478
-0.06656255441081588, 0.43254832297213547, -0.13404327149245526
-0.06603990450235862, 0.4016765149465594, -0.13425990893861506
-0.0641492383789647, 0.42774724854228385, -0.13504424569087403
-0.06343164033924079, 0.4098246297738633, -0.13534180583459257
-0.05294985658692168, 0.3848776359830826, -0.13968925974956317
-0.060714100097542884, 0.37734601466791734, -0.13646869184389177
-0.06408177191652215, 0.377216374278296, -0.13507185203992483
-0.033517611362837985, 0.4142495152147228, -0.14551229948226962
-0.03941600581811072, 0.4277757023391557, -0.14409935149363004
-0.03953531337624249, 0.4223236502082841, -0.1440707382600267
-0.03966190923328493, 0.40168087576582967, -0.1440402905277523
-0.02562592929964537, 0.4323013929853101, -0.1474029459386334
-0.033245757606236784, 0.4188645598174496, -0.1455774519984692
-0.03517148693367235, 0.42486379132332897, -0.14511615681130674
-0.04722154013952096, 0.3724065915919193, -0.142064993930978
-0.0485701587749099, 0.3771512337326181, -0.14150571135056744
-0.04964006641584344, 0.38136773829919035, -0.14106202122306513
-0.0369946075110889, 0.38656016494898876, -0.14467920219113783
-0.04605673412314664, 0.3825614887980486, -0.14250816938788569
-0.029743553658491656, 0.3851431707249315, -0.14641626577024458
-0.029184698834105925, 0.3738727789341959, -0.14654989568748722
-0.03258528973903792, 0.3719490664638275, -0.14573520281520455
-0.012356406190210022, 0.4200806466475643, -0.14880595851547507
-0.021559297303803723, 0.3971205473130119, -0.14807704550806502
-0.011497967948499607, 0.42467844023879914, -0.14887396209940498
-0.020571181796137747, 0.4240110389394486, -0.14815542004687907
-0.013251099882960832, 0.4102192993331201, -0.14873505980399426
-0.009261206628320426, 0.41726504331379166, -0.14905106521403566
-0.01572759571990168, 0.4275898680975174, -0.1485390165640484
-0.011577037629586734, 0.42293501205086614, -0.14886769237188735
-0.01948313528558365, 0.3744431009994994, -0.14824113379149198
-0.021236307423755825, 0.38660796797416047, -0.1481025716699712
-0.007578959190664631, 0.3731779431062773, -0.14918383580744493
-0.01341783466203244, 0.374844160036826, -0.14872147168102526
-0.01023055129535965, 0.37875934429464375, -0.14897396608518793
0.0013966505279574808, 0.37750011389038324, -0.1496735328388583
0.013790763283909487, 0.38412753531644894, -0.1486921930852282
0.014928609334838961, 0.38536075300513706, -0.14860211402965606
0.015402014748342747, 0.37425148326580565, -0.14856440591571812
0.02005282840316165, 0.37942912905569914, -0.14819621682512127
0.02066757188598082, 0.3759234741611902, -0.14814747033074355
0.041252212751620554, 0.3775567234894318, -0.1436591613469251
0.03922285806639713, 0.379642044119378, -0.14414536043040327
0.0018933550585022796, 0.39293626498951484, -0.14963442603475058
0.016613620579911614, 0.390479239101342, -0.14846872748960138
0.01423261371789328, 0.39627871600430914, -0.1486573072976618
0.00281944817500232, 0.42259972773994536, -0.14956124189561398
0.00691444556515006, 0.41290346812310835, -0.14923691254042962
0.0022025873327436323, 0.39630126867193655, -0.1496099554721516
0.004586990202705393, 0.42058690072133564, -0.14942126132925915
0.02952657960793957, 0.3705876886770599, -0.1463744752233638
0.02365303565424909, 0.3801487192641069, -0.14787530870712373
0.02402696102960273, 0.3738786021424976, -0.1477856090042983
0.06294363946851428, 0.3807940387549819, -0.1355439971508092
0.05087415812018151, 0.3854996946876468, -0.14055032238385534
0.054031595201675275, 0.3854783682860373, -0.13924066505837215
0.024224791406317635, 0.38803079045376954, -0.14773847135783977
0.02346410744625586, 0.4211818426274272, -0.14792084517691062
0.030122327677985124, 0.40116468003964856, -0.146325707741651
0.03353552069611509, 0.4051752349684642, -0.14550805671616654
0.034958541942944225, 0.40567571132832003, -0.1451671583004161
0.024410716553468773, 0.41604083039492434, -0.14769405217167408
0.03224286032441941, 0.40884560932418673, -0.14581774378817175
0.048866207034995106, 0.38031191478022175, -0.14138307468104905
0.05297676538637175, 0.3811890938133753, -0.13967810888821403
0.053186104385265304, 0.37674402019587677, -0.1395911780901269
0.04881045869764236, 0.4102074339852878, -0.14140644807470662
0.06097483132691567, 0.39849865666414086, -0.13636080131745465
0.04633071032625731, 0.4011561245265377, -0.14243496632753558
0.05917389273355593, 0.39397928476476124, -0.137107781220143
0.057999641266399914, 0.3914263829709809, -0.13759483035608028
0.05735317771604505, 0.3954510870291707, -0.13786299228014082
0.04797089232110344, 0.40876400823172937, -0.14175468028955607
0.08054705727704126, 0.3800743659256371, -0.1257653424142099
0.08094478146506132, 0.3837021389587555, -0.1255219639990829
0.08181385351041456, 0.3854637838733612, -0.12499001835016083
0.07897434275420676, 0.37776451482320245, -0.1267279981053119
0.0689202966218601, 0.37427992429076373, -0.1328823198017804
0.07617715719956744, 0.37365004213655173, -0.12844015824401778
0.09364847779866835, 0.3857513734862992, -0.11638427721237932
0.09943350318376157, 0.3872575890355705, -0.1114385756048919
0.0796489886993668, 0.40590842636118646, -0.12631533556387997
0.08029307411477006, 0.39243233719583753, -0.12592100345425053
0.07827355457808706, 0.39878178919981144, -0.12715724282217836
0.07787929961243531, 0.40288635800435885, -0.12739859871744733
0.07035557636105413, 0.4255063339172188, -0.13200420518703984
0.07819653543509332, 0.403076701405816, -0.12720441034619698
0.07975500045130093, 0.3969645212928261, -0.1262503971627483
0.07853029801965107, 0.3970945652319958, -0.12700007405716734
0.09054544277585111, 0.397167188977276, -0.11903722293069677
0.09041246463060926, 0.40361238971035185, -0.11915094410515137
0.09423417682862402, 0.4145784200273122, -0.11588374401037582
0.09068047117407156, 0.3899872236305025, -0.1189217449145197
0.09447946445886271, 0.38766794790973175, -0.11567389466964581
0.09506966331805634, 0.4023286960032893, -0.11516940210128013
0.09026039589526848, 0.4202079482186212, -0.11928104200430885
0.10739097063812134, 0.407808611181533, -0.10416812349088928
0.11770188022419276, 0.42747865466507695, -0.092107671135277
0.11214507754222158, 0.42250223649340946, -0.09860737852180906
0.10996736104352968, 0.40242025155005795, -0.10115451363041875
0.10825465932723162, 0.4212552067417483, -0.10315795456263172
0.10659364806072699, 0.4185701116596739, -0.1051008070736599
0.1094442626020169, 0.42263182861561666, -0.10176649557840697
0.10907311917244554, 0.38216210946342666, -0.10220027094859269
0.11347627697485793, 0.38070723431234815, -0.09704991122999172
0.1074573715307513, 0.38312576560268996, -0.10409021744542823
0.08894318217444451, 0.38528547428688864, -0.12040691865208501
0.09247962888249422, 0.37521806103929345, -0.11738329288645014
0.14583310723736606, 0.3713639530554214, -0.03189125597967777
0.11267103970500048, 0.3760169350708672, -0.09799166404859605
0.1108394702647327, 0.374226115477775, -0.10013398017929483
0.12512154335723252, 0.40485966543672386, -0.08159936693389953
0.12490595010575103, 0.4031679089854221, -0.08195155921620334
0.12418746676517028, 0.42327372543722386, -0.08312543518217133
0.12302981732930211, 0.41081569195552725, -0.0850165451691329
0.1230683404551911, 0.41441328126868454, -0.08495363499013536
0.12149633200042632, 0.4178401383913256, -0.08752176245371066
0.12931339912197182, 0.43197374117954757, -0.0747515310354566
0.1308220771168678, 0.43155893642720566, -0.07228688237237837
0.12523996967878906, 0.38764035812338193, -0.08140579479092083
0.12215345165248427, 0.3786236489659248, -0.08644777389378468
0.1253057532496022, 0.3756104075850262, -0.08129794133133594
0.13253195885623334, 0.37513237915929043, -0.06949292457960811
0.12939605264104545, 0.38219711891513325, -0.07461605346520547
0.13566222855192486, 0.42975519320821587, -0.06265944070279489
0.13480703409414235, 0.42791019677291525, -0.06472120909815947
0.13581792915905427, 0.41942089247426123, -0.06228397941418794
0.13775406590209865, 0.4209391906621305, -0.05761617093618317
0.13877994851702835, 0.4152862310548862, -0.05514283080151118
0.1353077385692919, 0.42335270963472543, -0.06351402673448114
0.13373548941668545, 0.4109662615320789, -0.06730445282339947
0.14620326202300563, 0.387422407926672, -0.030633553976506474
0.14518826611275948, 0.3843731866637491, -0.034870230740699545
0.14295555255365827, 0.38739921802303207, -0.0441903594155019
0.13988595902277223, 0.3835437157279564, -0.05247596096848765
0.13392821547556485, 0.3801892454203708, -0.06683934052747971
0.1371338755043759, 0.38204951562996364, -0.059110894516214776
0.14121428228340982, 0.3852988361487157, -0.04927357653821508
0.13808202878020037, 0.374000835517653, -0.05682469719493232
0.14393683440165897, 0.41189063358572864, -0.04009459688795517
0.147019826992029, 0.43061205922452067, -0.027225661533360684
0.14446631946113964, 0.43294125723851096, -0.03788468254566553
0.14353077747042203, 0.41430500180274665, -0.04178961497509921
0.1428738696429494, 0.40239653578117957, -0.04453155057699694
0.14391597043868343, 0.43021880420049785, -0.04018194151260353
0.14276024508370833, 0.4303319604423417, -0.04500623417858321
0.15113438705118368, 0.37188362475526676, -0.018623711393641433
0.1509493375009895, 0.3732148058779611, -0.020960457583879738
0.15114245156122283, 0.3747984033849123, -0.01852193984232302
0.14754890924117797, 0.418230142490708, -0.03710367257040362
0.14987751908450744, 0.4034266112491762, -0.027383366491811854
0.14714273024329083, 0.4189934182184415, -0.038799188651365536
0.14941846730107178, 0.4081051103144135, -0.029299579705207038
0.1480567860844026, 0.42600087721053503, -0.034983615217869274
0.15051540618488746, 0.42727807191437744, -0.024720562959148096
0.15029488317952874, 0.405533213682569, -0.02564115269385652
0.14680834114040744, 0.42869675402332186, -0.04019500751583989
0.15064230660841899, 0.37032761026008176, -0.02419084045855855
0.1475542833873563, 0.3836700726185906, -0.037081172654880756
0.14690525395291357, 0.3846201137097068, -0.03979040226769473
0.15148598924474285, 0.4226588879589539, 0.01418336617978688
0.1509792150491776, 0.3988274438038895, 0.02058251440673724
0.15167374163375377, 0.41641249026902055, 0.011812575840107512
0.1515407209007431, 0.4230058509876682, 0.013492257629830938
0.15077798333996706, 0.3988747357379949, 0.023123511060610495
0.1512605006300073, 0.39899089825609635, 0.017030660066905644
0.15128180873810051, 0.40369515714817444, 0.01676159794156957
0.1497854955283061, 0.37868114629378746, 0.02776712972569613
0.14853973761218, 0.3704938692424329, 0.032967257132564674
0.1490107203830137, 0.37791096809544433, 0.031001248823027915
0.1525625291548175, 0.3807999825459536, 0.000589800093613073
0.15190432422255973, 0.3687306801195521, 0.008900966336317422
0.15244734216264047, 0.3681372304012686, 0.0020441540109319397
0.15259085695987823, 0.4054658470240187, -0.00023213022464963466
0.1520337227713018, 0.4075072255401684, -0.007267346387164718
0.15100140102586082, 0.42627330642607014, -0.020302936788657362
0.15223476299983782, 0.415214387410752, -0.004728675454145341
0.1513766818012733, 0.42779605217283045, -0.015564064325202262
0.1518810574165745, 0.4229637952569033, -0.009195069436626433
0.15170563776433235, 0.4184979088322808, -0.011410202946583323
0.1522063371372982, 0.40739204398155254, -0.005087655101608257
0.15228436139392304, 0.37693973575312234, -0.004102430660661511
0.15164632822620322, 0.3852934980810816, -0.012159362801223051
0.15173074376296822, 0.36773647753418676, -0.010071377408889318
0.15075259693375265, 0.38039108183582626, 0.023444074114167147
0.15155235713732845, 0.3834536591957123, 0.013345407302872724
0.15079474571600315, 0.37732493431290814, 0.022911856448738725
0.13617948182593823, 0.40427106484180514, 0.06876151112224355
0.14229894780249305, 0.42143516160771516, 0.05400818719803302
0.13799093902930198, 0.4213711480809692, 0.06439429754536283
0.13915499990141975, 0.43120736160027473, 0.06158788156402566
0.13878415955851414, 0.4285870041872297, 0.06248193469284651
0.1370767103729294, 0.41863599910233906, 0.06659839698147962
0.13789999011755416, 0.4183014439895552, 0.06461356484102405
0.13740214832550202, 0.40859604561426277, 0.06581380375881433
0.13146754331488797, 0.3692867608493485, 0.07662557319520362
0.12629451078198595, 0.3685674494378792, 0.08507645116050436
0.1449001578163521, 0.36939624483654965, 0.047736968302310584
0.14232219251920855, 0.37696520516343757, 0.0539521284690372
0.14258327162883172, 0.3768272017715458, 0.05332269725068056
0.14765488452224323, 0.41092299625582396, 0.03666084274461412
0.14880009111813433, 0.4250990327719176, 0.03188046232853203
0.1475577920823455, 0.4155869688929298, 0.03706613880554102
0.14634794585884503, 0.39761977892747896, 0.042116337314404055
0.1455250270327198, 0.39232621486702035, 0.045551414005849014
0.14676770815888568, 0.43026031686171584, 0.040364180338598225
0.14610703336598374, 0.40363123961244973, 0.043121978610464205
0.1480723373663277, 0.42588122942140894, 0.03491830256676435
0.14453756855917532, 0.36642749429849525, 0.04758802711029397
0.14541868570133892, 0.3714483448117117, 0.04599535527013526
0.1498846200514523, 0.38505368919351407, 0.02735334942835647
0.14608171592197283, 0.3735289322448003, 0.04322768936888629
0.13838059767661665, 0.37366065168976326, 0.06345486620606117
0.13677618561776078, 0.38064586706845915, 0.06732292419473809
0.10205330023822984, 0.390402534866363, 0.11290351416903761
0.09432969278058795, 0.4190117256491858, 0.11950659154858398
0.09220066426469177, 0.4236597487898691, 0.12132674360975762
0.09157681396003611, 0.3986157165579341, 0.12186008659196981
0.09709500964710609, 0.4087810397704525, 0.11714246295340043
0.10243089749318876, 0.3878686391668279, 0.1125806981913391
0.0919846181926821, 0.42492365456819625, 0.1215114460223091
0.09091306599199746, 0.4281622952442947, 0.12242753894082518
0.11338932351166742, 0.427000522354972, 0.10148504987567303
0.10963507696450447, 0.42042775338163557, 0.10587637471403799
0.10964772388332639, 0.4306027435815455, 0.10586157600238055
0.11513584071375615, 0.42758489794558285, 0.0994421581558729
0.11535306032234166, 0.41223502946161034, 0.09918808616686813
0.1105075113654874, 0.4236402895678016, 0.1048558912856704
0.11089788009723722, 0.41732240166627, 0.10439928269338636
0.11983690564781971, 0.43144823244085795, 0.09394334666395943
0.11265278031440376, 0.37128748812813017, 0.10234657740077541
0.1232566911898115, 0.3728925550089297, 0.08994324221526168
0.1257191182334763, 0.40539335194004594, 0.08601643601052629
0.12461763747474909, 0.4041475403977949, 0.08781586012277107
0.12703847388940726, 0.40125905276607676, 0.08386108253648833
0.13046237939345814, 0.4308193615628835, 0.07826765017444147
0.1275830691455303, 0.40378708162407384, 0.08297140940555292
0.12428816122799104, 0.400397677256407, 0.08835410602323818
0.12571494264526, 0.41065577323487246, 0.08602325742257519
0.13385211219445942, 0.42841781916367594, 0.07273004374068325
0.12495647074800119, 0.37232920255656404, 0.08726232820032045
0.12515903569965312, 0.37084346382366784, 0.08693140979306714
0.1250838129754864, 0.37280131641426956, 0.08705429671831015
0.1327287395933466, 0.3673698012661162, 0.07424370763233629
0.09189381719423756, 0.36871773200507935, 0.12158907143821673
0.09258206697628282, 0.3730771839170022, 0.12100067124140546
0.11222970714375281, 0.37667950046454857, 0.10284144941612908
0.11966267111510864, 0.38240485064069474, 0.09414714921154985
0.11638016526078754, 0.37856619749582715, 0.09798667766259059
0.07816019609278418, 0.38578950054057437, 0.13052812822477872
0.0729535739966661, 0.3992749503615788, 0.13371526546230833
0.07559277347970798, 0.404620209473619, 0.1320997361562123
0.07942123409159876, 0.3969605182116115, 0.12975621637003726
0.07945421639552558, 0.38993781579110065, 0.12973602244829346
0.07805336351014676, 0.39022766834258543, 0.1305935264593952
0.08134397004020393, 0.39496368101328366, 0.1285792510861317
0.07586946813395365, 0.40470231470548895, 0.13193036315917112
0.10144888738088248, 0.3798143390320281, 0.11342023348235292
0.09406995872214212, 0.3824585231700538, 0.11972864048959977
0.09206973629182084, 0.384701835771971, 0.12143867594142232
0.04858225916468216, 0.4032708552224715, 0.14454954711084933
0.05406536424010589, 0.38695383553430995, 0.14227522643760912
0.05896697377440416, 0.39079299190840083, 0.14024210255202604
0.051531977189336435, 0.4116257079044048, 0.14332604243759955
0.06547698346877345, 0.38754960815100803, 0.13754183519854035
0.04929078152222465, 0.4195928405199765, 0.14425566125182496
0.047689761559963934, 0.39979225321970513, 0.14491974350966103
0.07760933018996807, 0.38332018167854853, 0.1308653294389244
0.07449267689355049, 0.38233510308376206, 0.1327731258647971
0.07913518212326207, 0.38197447949170027, 0.12993130996743066
0.08183505705434677, 0.3728901207428145, 0.12827863921598023
0.0705442468846717, 0.37678752537401594, 0.13519009060963946
0.07431218091002945, 0.36996388067175834, 0.13288363205137915
0.04893004390034083, 0.37056898583562903, 0.14440529291216583
0.047574547261398134, 0.3803605080075615, 0.14496753346236257
0.06349427223617331, 0.36863238293205675, 0.13836426004090993
0.08518382868643182, 0.366228546581843, 0.12571374071569838
0.02574754502715501, 0.39583293220279125, 0.15026932084851746
0.030764451131384922, 0.4176365505844853, 0.14906746252450673
0.03144424054271373, 0.39171756653651413, 0.1489046018598872
0.026631318316702762, 0.4165255974759475, 0.1500576080206107
0.04153148081912596, 0.38637012913330876, 0.14648807024188804
0.028758181219690787, 0.398089145574946, 0.1495480844167834
0.028126230621625694, 0.4123857321503184, 0.14969948097119679
0.06058989656308251, 0.3769260634720327, 0.13956894988514423
0.06889621339148647, 0.38539618501449585, 0.13612358314425888
0.06487550706229699, 0.37273422316402266, 0.1377913415888069
0.04516218033100586, 0.38030887183218076, 0.14561828853908534
0.04115023087207881, 0.3831947728131099, 0.14657940333600256
0.04396149105565332, 0.38522807306737883, 0.14590592930845578
0.0002211104748528506, 0.4054782433856754, 0.1525917029447522
0.008440848057222857, 0.4154315994392365, 0.15194075411269523
0.01455374484256199, 0.4025787217831293, 0.15145665313221676
0.006883375229073155, 0.3884401895765003, 0.1520640956559361
0.0047569485363507125, 0.38548910655478447, 0.15223249458086666
0.00011753435859101844, 0.42403542591531485, 0.15259990548786673
0.010298466484358601, 0.39144598349873877, 0.1517936430238759
0.06342198477000455, 0.36728983469854193, 0.13819191543704784
0.04182866043515738, 0.3684788053947992, 0.14641687975386009
0.04585433544254952, 0.36829112759213856, 0.1454524744081115
0.03727664291673402, 0.3743769742942818, 0.14750737274194062
0.010161225377042492, 0.376693068452007, 0.15180451795442668
0.014165590826478523, 0.3715277551518279, 0.15148740120463988
0.042395101640938564, 0.36634154640355543, 0.1458570739025772
0.016888549446372716, 0.38535414000388346, 0.15127175211549604
0.0201950206890707, 0.37946151354689106, 0.15100990653115243
0.022300960423441412, 0.37530819445668145, 0.1508431336052074
-0.008765688415338726, 0.399376939391152, 0.15191503587482072
-0.003306387228442365, 0.38824620906735235, 0.15234737300857557
-0.02027255396243728, 0.4044506323776647, 0.15100377542246166
-0.01529051542185792, 0.3890174523339259, 0.15139831680956456
-0.013937884190518366, 0.3928695388242369, 0.15150543541129846
-0.016398836498068232, 0.4014676035100585, 0.15131054580353925
-0.017853017320712462, 0.40661371366806837, 0.15119538520929832
-0.003998068784999399, 0.37692102666613536, 0.15229259683642543
-0.005838107217239072, 0.3723931211243873, 0.15214687911275362
-0.018334885371676837, 0.3848693656447286, 0.15115722474793705
0.018604594448058284, 0.3676544632960463, 0.15103538033707917
-0.016468133252173854, 0.3736041162373268, 0.15130505800225796
-0.021728753248231647, 0.37001175611560344, 0.150888454980551
-0.0051120219883459585, 0.36573946739797036, 0.1516471131815188
-0.042497720473736504, 0.3815239304677305, 0.1462566025128145
-0.03810829319137043, 0.3725545177893521, 0.1473081556272558
-0.0364829801385582, 0.3727950095677395, 0.147697520127821
-0.06708482654699825, 0.40691509950402444, 0.1368749749742613
-0.05712447009628628, 0.40302451019934843, 0.14100637907004038
-0.06274521639018832, 0.4060701419391609, 0.13867497914726934
-0.06082718053054382, 0.39227739561614694, 0.13947055119788804
-0.060653002746285725, 0.41059310933265813, 0.1395427974889559
-0.05616950265310169, 0.4010758928019012, 0.14140248501520727
-0.054505439304275316, 0.39178568437024225, 0.14209271313796543
-0.06255364687672425, 0.3931727992542423, 0.13875443926262446
-0.03539419095881882, 0.41642988421934113, 0.147958352489184
-0.037534524610246665, 0.4107457785984353, 0.14744560577141755
-0.035594748344147935, 0.41817817091401843, 0.14791030703226482
-0.035036515783146135, 0.4208092572677321, 0.14804403984357153
-0.03490058862479106, 0.43176758435704277, 0.14807660706489234
-0.04393234339135726, 0.3958788542782512, 0.14591292002772366
-0.037890410978672746, 0.4131770884258358, 0.14736034950584875
-0.029338748030378572, 0.38275559426152417, 0.14940901390274458
-0.03210068300410667, 0.38229895433541317, 0.14874735460495858
-0.02802943559080685, 0.3829605486307218, 0.14972267760503666
-0.08169969176639746, 0.3891387072630909, 0.12836154473163525
-0.08580452935769316, 0.40335540075112564, 0.1258488461565962
-0.0846465766619287, 0.3901542543788238, 0.126557664964624
-0.08125935533480391, 0.3950307876851571, 0.12863108833709946
-0.08182151999698992, 0.39361010006501557, 0.12828696988802674
-0.07423371337463187, 0.3928435808729445, 0.13293170197879206
-0.0896799549656344, 0.3903751091321044, 0.12347657778149829
-0.08431694723255316, 0.4136145315961244, 0.12675944137576367
-0.06094211847260632, 0.37903991404308185, 0.13942288388022475
-0.058071964529463865, 0.3813475971243871, 0.14061337740625143
-0.049014309254207716, 0.36614627387770937, 0.1438736837833332
-0.06830056946436343, 0.3759356293234068, 0.13637070419886335
-0.059209685829679684, 0.3771409733277711, 0.1401414722477802
-0.05508195722287934, 0.36874149367851927, 0.14185359482800333
-0.07864910152250262, 0.36816669638911304, 0.13022890576319385
-0.0785922997201382, 0.3727351413712332, 0.130263675910535
