-0.08133522053373268, 0.15176169360705616, 0.04471766911599942
-0.08071259507459196, 0.17463465850779214, 0.047746763642157755
-0.07924719189117763, 0.16369638367150155, 0.04917540180233268
-0.08139972572340248, 0.1811134907719788, 0.04719567338706082
-0.07988631284609299, 0.1793220058015359, 0.04950767009527077
-0.08217172330775496, 0.16473005391016454, 0.04449397241755086
-0.08189067398965211, 0.16393401177549702, 0.044882543297293784
-0.0802664094644662, 0.17558244970904424, 0.04855828825131028
-0.07950136719302962, 0.16569558721804362, 0.04893657622017849
-0.07811317469598573, 0.17074505545690016, 0.05164630768035029
-0.08051193385935886, 0.1632261577707596, 0.047070144911827844
-0.07877885336411095, 0.16709785647834405, 0.050239026516876825
-0.09127728843580499, 0.14312341977415985, 0.01525867812541262
-0.09091260895595997, 0.1824833358568953, 0.024531006816839132
-0.09111654617126647, 0.15052422991626874, 0.017386068414959294
-0.09099641772722529, 0.1530667372709461, 0.01838727513349662
-0.08994704986903455, 0.18282661290721858, 0.02862045923065213
-0.09104509815443626, 0.15550695327828323, 0.01866519434972862
-0.09083476534385063, 0.14454549672016587, 0.01738204287663244
-0.09104033212852253, 0.18184261058069992, 0.023872789399581987
-0.09151232619433403, 0.1789625652845117, 0.021339470895439194
-0.09076619370090999, 0.1805564341619475, 0.024761296806393822
-0.09223752487159292, 0.16539494301945312, 0.015646184309262824
-0.09021161792291368, 0.18095823869596284, 0.027150414388104855
-0.09172889157673735, 0.17612733978603928, 0.019878915305984544
-0.09161366811605426, 0.17476986670808636, 0.02009145167753813
-0.09315007490610035, 0.17327126864998413, 0.01071636290647196
-0.09360113104784842, 0.16752970980085946, 0.0016199334611835382
-0.09304212552765888, 0.153169605107012, 0.00030616176197184543
-0.09376916806301283, 0.17178478358343374, 0.0019787646981921023
-0.09298558127619991, 0.16045842461851273, 0.005296693951276864
-0.09374307655808806, 0.17733230751766924, 0.005561761953994561
-0.09260014021522706, 0.14401289399418998, 0.000555275409628554
-0.09368677321850069, 0.171887870126544, 0.003086114294059064
-0.09339958926507466, 0.1792487353043921, 0.01104943851651742
-0.09336407178947864, 0.17659935148516356, 0.00994789585796602
-0.09306532994716504, 0.16727516581973484, 0.008278763595472336
-0.09244642269735003, 0.14487392793134413, 0.0030131108658907188
-0.09349207307755532, 0.16842834319424804, 0.003532351148690222
-0.09438407634339467, 0.18268358679624006, 0.0005535106334022016
-0.09255663084423024, 0.15068902769218265, 0.0050210804746699
-0.08948334208531405, 0.14483238404706286, -0.023067655155671052
-0.0901203026403643, 0.157747880443056, -0.022958696852063937
-0.08947156478151443, 0.15130742114112206, -0.024392199006284705
-0.08989960315599668, 0.1639579265371574, -0.02510126200772094
-0.08995578633977419, 0.15605917285323068, -0.0233113035243837
-0.08990110067131844, 0.1735683243706022, -0.02698813284214651
-0.09008222074332527, 0.15214939374027056, -0.022014498503638704
-0.08986200885717305, 0.14017194925481002, -0.020572361898459846
-0.08948814199863275, 0.1441068166861707, -0.022904735939567527
-0.08979203638228644, 0.15319148982255737, -0.023428477166262396
-0.08999465326077488, 0.15553579439512671, -0.023046313741063036
-0.08925441880614304, 0.13865053620940776, -0.022803452132246473
-0.09007252354061443, 0.15891865703321448, -0.02338833641420227
-0.08932105668169518, 0.13609082783087217, -0.022021661036840418
-0.09317535893420986, 0.17167963095809335, -0.00946228783611804
-0.09407357318448284, 0.1817143594154858, -0.003930806408849618
-0.09365135564910629, 0.18278295432764224, -0.009921921115447273
-0.09365669750691816, 0.18176846902066673, -0.009259446446236864
-0.09311612751418608, 0.17879220395918563, -0.014383645124144598
-0.0941652932142849, 0.17928251305153325, -0.0013400601483405156
-0.09263888806401034, 0.1641442124089091, -0.011862237879169882
-0.09255975063988575, 0.16286543107383145, -0.012118271472406537
-0.09199976743038679, 0.15249235039527181, -0.013153793785729086
-0.09200788197387641, 0.15153589231780606, -0.012490099006960801
-0.09285370229145662, 0.1728387259248086, -0.01422869383263245
-0.09337763705048467, 0.18145122780077982, -0.012619319736110255
-0.09230243102331795, 0.1545731049212476, -0.010527625469667658
-0.09312367680683395, 0.164748462426068, -0.006056548544123932
-0.08379653422771197, 0.16119229004100794, -0.0411054305913235
-0.08668633309068663, 0.1749241839135202, -0.03577893799316075
-0.08560197459921134, 0.16984173492658106, -0.037786076351260765
-0.08863650468535558, 0.18109749350220283, -0.03181262227577956
-0.08453765722933917, 0.15908525761100495, -0.03906300265939991
-0.08494430800951068, 0.16219639592922028, -0.03845511343313366
-0.08301551378883426, 0.14688879864495363, -0.04127218367217425
-0.08380552392327259, 0.15856813559646452, -0.04076839191833124
-0.08429200949974325, 0.16645584460196636, -0.04054174803206535
-0.0855413078656858, 0.1619222191296757, -0.03698087824904664
-0.08566732891667336, 0.1673708457896577, -0.03733137850867185
-0.08639758525980124, 0.17360360065510133, -0.036317348517323364
-0.08464459143052684, 0.16275099589115696, -0.03924533920980035
-0.08345522395648723, 0.16289121042894214, -0.042133581678913845
-0.0857912093034163, 0.1645090674906087, -0.0366884141253768
-0.07674934034289024, 0.15371201797328, -0.05237280740642884
-0.07788830320734093, 0.17489499379661458, -0.052378518991657595
-0.07800858511716717, 0.18322729693759293, -0.05291556845325947
-0.08088436689780518, 0.16958908385768462, -0.047022417518005045
-0.07931964385723037, 0.16745192987268, -0.04938771763424877
-0.07652519981063424, 0.14520713087446266, -0.0519900503539862
-0.08122062313808474, 0.1741801749222363, -0.04687776287438944
-0.07495702072255478, 0.14410128601688854, -0.05445175640788631
-0.07507918300426356, 0.1376452423616587, -0.053684205346115746
-0.08128091799604216, 0.18133118185366764, -0.04740873552423042
-0.07880096612273084, 0.15831111891595712, -0.04942963287975789
-0.0783298594123768, 0.16776056820752205, -0.05103006029602879
-0.08213463103470554, 0.18160814030120825, -0.046039979666110425
-0.07724505503233323, 0.18256426186856184, -0.054103180452804926
-0.07818950786364706, 0.18260737084638637, -0.052565769669825985
-0.06884751198841334, 0.16470950067329287, -0.06306578339496248
-0.06604981711699268, 0.15429070785179386, -0.06560373510624476
-0.06690525199867706, 0.1593242158183979, -0.06495855938526578
-0.06870543574993468, 0.1700795473079087, -0.06361237256493314
-0.06996693667718065, 0.17919652559745994, -0.06278089468749232
-0.07104558239821923, 0.1685258074976566, -0.06076239656673828
-0.06836378961648712, 0.17036868525050008, -0.06403286190565387
-0.07027766460382073, 0.1709274057825016, -0.06183156380563704
-0.0729796724856181, 0.18050958858048635, -0.05934640894695699
-0.0681127064612786, 0.15485118063500508, -0.06322808768552873
-0.06688034254228258, 0.1492211317224637, -0.06427235106221003
-0.07040709505096614, 0.17025147168077243, -0.061632159059316106
-0.06985740231049496, 0.18180008019433064, -0.06309349399480621
-0.07005421279023735, 0.1674856165213985, -0.06184948796540357
-0.06162732962115297, 0.1336403564343181, -0.06819715847480312
-0.05744488971911232, 0.1335585283179851, -0.07176435439671364
-0.06366931823057723, 0.13914331641471522, -0.06678592403062591
-0.06033112290396934, 0.1583971762042924, -0.07080138746542773
-0.06312406380997786, 0.13427166865219875, -0.066957003982503
-0.06260704286199986, 0.14127918152075808, -0.06782235968753554
-0.05977059284301439, 0.1523037034876107, -0.07091162448269892
-0.05959815071236468, 0.14169325308563974, -0.07041723962556401
-0.055384282367519085, 0.1672852843825878, -0.07556389859501098
-0.057425507709422126, 0.14026952034932255, -0.07218675387351434
-0.05506730402489799, 0.15963454386685727, -0.07537194719734477
-0.056399814638121853, 0.14145243026382442, -0.07313431552726082
-0.058890289577172336, 0.14944768417699042, -0.07149075810344499
-0.05675046437188244, 0.16978970230250934, -0.07454852193135574
-0.046140545919508544, 0.14751161101388402, -0.08023406774493558
-0.0444418270007615, 0.14985322557290023, -0.08140133386984777
-0.04625039724744083, 0.16521522625268373, -0.08112155481865908
-0.041892599444409415, 0.1358962004198721, -0.08221076253758436
-0.048880743388608594, 0.1541776453166838, -0.07891438959726446
-0.04776847715861132, 0.13967534937075604, -0.0788138391290897
-0.048168489633516345, 0.13878071960742472, -0.07852046130895858
-0.045665010325564755, 0.16825289811171681, -0.0816441103500023
-0.04777274818887965, 0.1466942594477004, -0.07918977072723934
-0.04639907882333924, 0.15565701059477866, -0.08051494207634588
-0.04483010410588207, 0.15411444975698896, -0.08139321670569856
-0.04547092840784954, 0.15068235703486713, -0.08081541690898131
-0.04422375769770612, 0.16056179927677103, -0.08211250940883218
-0.0436902099519134, 0.15113927583681921, -0.08193128566195665
-0.04994003733805362, 0.14658314217455679, -0.07785566111967569
-0.03609973670539845, 0.1340103364329462, -0.08451700490494116
-0.030470567019977995, 0.15958328338946826, -0.08812155051127309
-0.028879437605437597, 0.15199068186876732, -0.0884027032296631
-0.028994726305587627, 0.16575508336295436, -0.08904005873198735
-0.033094584126615784, 0.14822591173805372, -0.08646934555239322
-0.030249047964777214, 0.13328261164447125, -0.08690421645051537
-0.031452081878587355, 0.1519048698234598, -0.08733280843741445
-0.034600477492138314, 0.15261793940482096, -0.0860641933099188
-0.031563838933757124, 0.15686766364155208, -0.08753353538183162
-0.03322815597562035, 0.16520741855145385, -0.08725925620083477
-0.030111661272881382, 0.157966618919171, -0.08818974616757425
-0.03881779189725797, 0.13609572969645528, -0.08349494859050112
-0.031525619061845825, 0.14556069657884857, -0.08698657333758777
-0.03239665018488748, 0.1377054248821411, -0.0862347921605992
-0.014968309480955552, 0.17572364916513145, -0.09288876037025907
-0.021663122755086233, 0.15649320952644563, -0.0903720257272958
-0.018018644741327017, 0.1424026418777951, -0.09058060826735542
-0.016027922478811418, 0.16677111566943414, -0.09221098283364795
-0.024200011270087786, 0.13359360499583056, -0.08867999492231717
-0.014959150762907096, 0.1556336455347842, -0.09194085333396104
-0.015586222948405977, 0.17618476051061022, -0.09276221982026922
-0.015291215598228162, 0.1746195698112137, -0.09275902296654834
-0.017304809756348287, 0.14299291310055673, -0.09077989997270433
-0.025861908624404253, 0.13813020276728374, -0.08849555625713798
-0.019613252040723173, 0.14494752104226452, -0.09031813119954818
-0.021424398627987444, 0.14237982435683655, -0.0897618814097827
-0.01512528323968768, 0.15385211299425386, -0.09181671545369649
-0.015771099541743445, 0.13749094721009705, -0.09088790904086658
-0.0010876717397297318, 0.13917611131514135, -0.09233516376786574
-0.010346249089232977, 0.14281340888835492, -0.09177427304247968
-0.003866010138022239, 0.13562613341420454, -0.09195274979060444
-0.001012925772702248, 0.14797293328106256, -0.09274682393211243
-0.0025654492508721, 0.14301831726133404, -0.0923960915911827
-0.004050050454963538, 0.15335892125044293, -0.09275623876808432
-0.0013804237839526163, 0.15720391672641051, -0.09314370537893249
-0.008323210981122507, 0.13352694357122813, -0.09150512710183359
-0.005326486991343794, 0.14045277626856278, -0.09206044906138564
-0.013331265091825188, 0.13546029364702264, -0.09120016295139291
-0.004684223303355008, 0.1555324645349308, -0.092806588559276
-0.0030328633268983394, 0.14968657887065911, -0.09266689685915117
-0.00531987339265908, 0.1424858587803026, -0.09215475106132472
-0.004834519787867294, 0.13960499073709853, -0.09206006156802417
0.0044481057371340265, 0.1388407064996192, -0.09205522477570664
0.014034177293536855, 0.1783830801469579, -0.09312478885688129
0.0056701164760956015, 0.1397583946457231, -0.09200138085847262
0.008530334919551602, 0.14700807046851766, -0.09211068805392299
0.008995543951132515, 0.14005357972408805, -0.09175327847359249
0.009646631120900515, 0.1391034366637737, -0.09165820826311988
0.011360411155589563, 0.13459267738069872, -0.09131525770062834
0.013914053929052528, 0.1737426496430343, -0.09292018917509497
0.014284073876222245, 0.16917471248730787, -0.09268035807580122
0.010589681433875649, 0.16891829590166457, -0.0929592871514296
0.005072123620927177, 0.1448969001054133, -0.09228547310252407
0.008421896313581962, 0.142734763998587, -0.091922103443467
0.01289660866266262, 0.15625887081478884, -0.09219377310803525
0.003632914412767188, 0.13611349915884355, -0.09199358162718521
0.026616914983638298, 0.1459382050534996, -0.08868356372790094
0.01923627301476255, 0.17530566690130736, -0.09184435633724852
0.02833704160408045, 0.16243461900300962, -0.08905074220816928
0.024299632681519575, 0.1563597322807524, -0.08973275230726771
0.02713881404795362, 0.17450438894998616, -0.08990921612591762
0.02098393231797455, 0.17829649437414258, -0.09156621939666473
0.02018779496680046, 0.16942105657791728, -0.09133761981733603
0.02576323321211516, 0.15481054406245157, -0.08930810620570866
0.02046826779861491, 0.18266149759636485, -0.0918964498690085
0.021662907867971593, 0.1814730674826026, -0.09155343688695709
0.02868095368814141, 0.16204671541900614, -0.08894983090114272
0.02539213482101213, 0.16736310402731924, -0.08999083459241482
0.026510579321852752, 0.16296308117206354, -0.0895142322375116
0.027762665151420615, 0.1646906189364728, -0.08929532941944945
0.02344344130730537, 0.17085023064617233, -0.0906235909364097
0.0410083760542819, 0.1587387024083927, -0.08371463623870767
0.038103788713389854, 0.1555044434073389, -0.08475677235129069
0.03831866228009955, 0.1821990331327874, -0.0859964664971086
0.03079043785626295, 0.1805478273178607, -0.0890325688133303
0.03903442551334227, 0.16803302557119518, -0.08499488851839135
0.03781448782152313, 0.17783821363851016, -0.08598824657641789
0.037022394720819946, 0.1553940520825293, -0.08519920533377401
0.04177293346351946, 0.1597251737425725, -0.08344704717555113
0.0416231888707735, 0.1486500699115875, -0.08295782068274425
0.03603152273942814, 0.18231270544914388, -0.0869494876859273
0.033055988372301094, 0.18288316838235436, -0.08821038737449384
0.03139963926810829, 0.17848927790690167, -0.0886777672590171
0.04011741675830224, 0.15367468333017414, -0.08383162659643123
0.034197290134452454, 0.17910425136041133, -0.08754955321366875
0.046476992930428764, 0.17234176546744917, -0.08136708968315755
0.05296364016309929, 0.15740139711078815, -0.07658629398471506
0.05343566715633409, 0.16875333010918736, -0.07690927930265791
0.05485014051278466, 0.16745618371201365, -0.07597253110561746
0.047042324378049095, 0.16588245200715973, -0.08067228463324963
0.053593284471014, 0.16699711331695916, -0.07671797343025252
0.048757294494355743, 0.16537326780942718, -0.07959388916932314
0.05413451763081724, 0.14454448428829103, -0.0751753688203244
0.05280128437914999, 0.16005688133034898, -0.07682900375312152
0.05402764219792468, 0.1782486409493252, -0.07705862731426823
0.051010631950022006, 0.17649232851464053, -0.07881272798207475
0.05330418738907694, 0.1550573494597208, -0.07625118520341213
0.054143351343944865, 0.1488475704288205, -0.07540203373186657
0.04806706681794394, 0.17665661975296404, -0.08062540534262293
0.050370147267176035, 0.1667165758869498, -0.07867798161933734
0.06206841519633211, 0.15087936067449925, -0.06886299413616431
0.06126780216697273, 0.17441854806944726, -0.0709703191979862
0.06611356580783109, 0.1785628463791698, -0.06708226007851692
0.06381252360608744, 0.15294891073485342, -0.06749853645714111
0.05896127796808734, 0.17492487194325995, -0.07297090307703288
0.058584090238222405, 0.1828596357439493, -0.07377290850113108
0.06491421343794321, 0.17818574633505063, -0.06808380179110993
0.061692875409737585, 0.17284463357205798, -0.07051208858000807
0.06355766370854793, 0.1429022938178524, -0.06710863784384082
0.06153389768344311, 0.17393854022403388, -0.07071402292620067
0.0623098753435482, 0.15981032552487684, -0.06919686807790529
0.06514791724502124, 0.14080374680148028, -0.06562351894342418
0.06116544372069671, 0.1633123554762421, -0.07038609368643765
0.06298450325154517, 0.1793524305409988, -0.06980249046001652
0.06090390838822675, 0.17663979245498485, -0.07141544479752275
0.08059142600813173, 0.15495562957428702, -0.04621257637748813
0.08242883653806837, 0.15566143800992366, -0.04327631572413232
0.08115707375108717, 0.16149309734545542, -0.0458648941441294
0.0804541955418218, 0.1361885247928719, -0.04478480041969389
0.08182756701236088, 0.15806884297357857, -0.04446937645931731
0.08032774895977798, 0.1506821203143731, -0.04626674124080279
0.08162044339956913, 0.13693913078784553, -0.042947719747725266
0.07841427816080962, 0.13714323957131608, -0.04819766668179799
0.08231948400356284, 0.16638521015788094, -0.04439857489598836
0.08220462022945314, 0.17254792197672444, -0.04512840315123199
0.07941496928733928, 0.15827683848854499, -0.04842468174576173
0.08129279041652013, 0.16198936671444258, -0.04568710207257628
0.08024029200165575, 0.13347156018214162, -0.04489473572501449
0.07910662643578338, 0.1529860614550982, -0.04846220356515613
0.07418107057866888, 0.14456707355180265, -0.055394780098663526
0.07048733260044429, 0.1672176836657084, -0.06132342129757474
0.07365413089106136, 0.16244432114797663, -0.05727758560897104
0.07178575841727086, 0.175998838724008, -0.06042492788116434
0.07391067595468062, 0.1375734017117882, -0.055216169412374186
0.06855927914770188, 0.17827572949514023, -0.06436387288457332
0.07315514061398282, 0.14877526735615657, -0.05689396110952223
0.0702943365868575, 0.16978791737893745, -0.0617313818340037
0.06893270972597937, 0.17594606544116642, -0.06376168452054648
0.06918449905615402, 0.16975370804884257, -0.06302841334852938
0.0704411848565669, 0.17531669027464702, -0.06195092142596867
0.07560708314547882, 0.18363512637339516, -0.05649143225653351
0.07120378328009942, 0.1804988054304807, -0.0614249638024143
0.07369850518295823, 0.17843512366002823, -0.05835789398067698
0.086981343211743, 0.1591386464481248, -0.0331699074280258
0.0859833636122238, 0.17556391476248306, -0.037553005301487676
0.08696829492114307, 0.1693262067242568, -0.03442560666445905
0.08717694211291294, 0.16749361049201358, -0.033701671271391946
0.08659137765055516, 0.16089492270412195, -0.03432241376601339
0.08676446143886835, 0.1627518264599087, -0.034127688427282366
0.08768643235467137, 0.13468539272036636, -0.028529220397775223
0.08863197273954562, 0.18026878909465577, -0.03172405208459714
0.08589076334726639, 0.17902291000293974, -0.03819221593220305
0.08654964631843867, 0.17840700949686372, -0.036527518768896226
0.08761272684197968, 0.14990055368771052, -0.030535505765811325
0.08621281793704189, 0.1752202051153861, -0.036957750426361215
0.08767029563760553, 0.17080135569050503, -0.03290808681859086
0.08575114413331025, 0.16654102196196602, -0.03702938921191063
0.08699492237201611, 0.16886005824668157, -0.034305307029664424
0.09150300495903706, 0.1439432071236789, -0.014455471151543046
0.09138145583521701, 0.13808115485460226, -0.012563976233779703
0.09247075874946299, 0.1508079723534668, -0.006181904996619303
0.09226959745010602, 0.15029369146591826, -0.008436635096144252
0.09112538737512538, 0.13518162691147595, -0.014118308631855266
0.09174583557400663, 0.13543971164897164, -0.006385493043823978
0.09220760677691285, 0.15666233350580652, -0.012957323456627146
0.09241313096098754, 0.15612575529647982, -0.010031194750845096
0.09164125753175238, 0.13599352489900254, -0.008038992268298413
0.09175883839765364, 0.13723179025910637, -0.007270688410627696
0.0929199206242672, 0.1709245750009364, -0.012265672255046038
0.09157630380811538, 0.13456040132026104, -0.008024342493136442
0.09197890230781114, 0.14380754423140288, -0.00832868189380269
0.09222481586711777, 0.15090071750015266, -0.00936148586765782
0.09394463815032075, 0.23728757249783655, -0.022697512862012745
0.09485575970539378, 0.24344386907742632, -0.02011509679765996
0.09573491948664284, 0.24721856628406821, -0.017196670578627633
0.09356254741922443, 0.22546246296704017, -0.021959666419091965
0.09371802184537173, 0.20487959791037202, -0.017257531166307308
0.09425649618765936, 0.22826418751206012, -0.019621042822231042
0.09393211626249101, 0.23201206638830274, -0.021710470511179043
0.09339833872038047, 0.2339486028677759, -0.024315298959802976
0.09413196569440292, 0.23544364274864998, -0.02155400424864004
0.09302249101275123, 0.24500089318954313, -0.02805797258102838
0.0937824063924154, 0.22249917949300063, -0.020460156900566535
0.09344087823087922, 0.21138908033385634, -0.019694201014633345
0.09318728089624163, 0.22135875834454286, -0.022714402507604883
0.09292226275335204, 0.23733271964790573, -0.02696493431658387
0.09396984123971569, 0.23511594910712147, -0.022164754644202707
0.09349217289400887, 0.21915584698948865, -0.021010485170650565
0.09349437102210091, 0.2050600578894149, -0.018224658100046268
0.0951532181199623, 0.2465540173873319, -0.01948874039830866
0.09449567232154493, 0.22002241518276033, -0.017001283337592068
0.09577972290091305, 0.21460553214007022, -0.0015295322322289484
0.09654281307105736, 0.24657593588992183, -0.010572006476932632
0.09541747145113724, 0.20554095206043985, -0.0008195275732462992
0.09570883988404359, 0.21427912866973384, -0.0022389075472698384
0.09602125534179916, 0.23047590515635893, -0.0077625658104254515
0.0950722715413916, 0.20042229245070312, -0.0022056802688890974
0.09728876950398146, 0.24703616485181198, -0.0013631027739866189
0.0960144674348694, 0.22807122082809778, -0.006439357704820388
0.09668527338022422, 0.24077684394757565, -0.005362775682523843
0.09683689195714201, 0.24526209617676115, -0.006065146705308852
0.09676070770989548, 0.24086737221925958, -0.004457314342777848
0.09609922707431355, 0.23237005382483722, -0.007882020306682093
0.09635322005972849, 0.24103051246714194, -0.009730766646779871
0.09604717668948905, 0.22151112319163233, -0.002178653573828667
0.09706360291791993, 0.24045294618928822, -0.0003656023301948381
0.09631816497840455, 0.22972550698787642, -0.0035499870681855654
0.09629798740258008, 0.22990787418264316, -0.00391326891168177
0.09510810603247269, 0.20394704000493438, -0.003816305438470975
0.09592109965377645, 0.2278088620165914, -0.007471979145138404
0.09341984381956697, 0.16805367542075844, 0.004230164501794258
0.09160863594893215, 0.14010833064316047, 0.010864727340905128
0.09217240760325364, 0.149820776301696, 0.00939388516015263
0.09252308122909012, 0.14916354805333365, 0.004552916562864741
0.09252280377147083, 0.14885708584317617, 0.004376820255050348
0.0912038020838657, 0.134545212713791, 0.012748039826016534
0.09250205563413146, 0.15395603619069798, 0.007629017636139385
0.09243981315423863, 0.1484682395522407, 0.005203414223765858
0.09218926962278315, 0.1404223446247516, 0.0036710800986542395
0.09245387136859738, 0.15072189294150126, 0.006345684174918806
0.09416421260142734, 0.1779826329744221, 0.0005915049209887893
0.0929782946698319, 0.15306838971190442, 0.0010575282020191465
0.09229033108877589, 0.1424290947507549, 0.0035631487633110913
0.09368335046054921, 0.17132447948358925, 0.0027990385506438398
0.09135151203401265, 0.1632373048726342, 0.018911524918345714
0.08986355596708502, 0.14316179903412624, 0.021154708446532455
0.09117043499583673, 0.14526539868561106, 0.016125554203730904
0.09016966028969246, 0.1385512610121271, 0.018971484086479064
0.08976497484995465, 0.14797614110288348, 0.02251368445036243
0.08929108398879294, 0.14241180952264795, 0.02339148443061299
0.09303394804951803, 0.17819912618533457, 0.01485095250280254
0.09019010779764791, 0.13420141922991496, 0.018029457359194142
0.0889270630133443, 0.14089241058252902, 0.02460843831799373
0.0889360392841938, 0.13982029254630346, 0.024359857541534965
0.09084937680851443, 0.14573250269169888, 0.017554868298523187
0.09157540180426643, 0.16656728359895134, 0.018634916918090046
0.08788088086871092, 0.13515683743171855, 0.027836266736733176
0.09126721780648518, 0.1610904988152489, 0.018839744815655392
0.09523171999674099, 0.22182310811782624, 0.012722709564219479
0.09498858513244482, 0.21584631417808517, 0.012308996920797939
0.09537783139118478, 0.2203138899420219, 0.009981645556237923
0.09658056115901471, 0.2440907908070114, 0.008635317500430752
0.09441723382006295, 0.20717440515067126, 0.014486026968814299
0.09618062384011333, 0.23133383349968528, 0.006240086252347402
0.09593026977683482, 0.22909131314414674, 0.008106767389281178
0.09592628258540918, 0.22684314362697364, 0.006839772083710583
0.09569604306188362, 0.23346103544817937, 0.013643982319563432
0.09718780140845595, 0.24619449045136355, 0.0021526368273426704
0.09618834023224332, 0.2437235357021399, 0.013403672134648647
0.09534030086294351, 0.22012368374392915, 0.010347032447101893
0.09586896548220536, 0.2335654951203939, 0.011508034445681636
0.09644858176026405, 0.2400084060341775, 0.007919568193372811
0.09689880345158935, 0.24620949646537588, 0.005833472749565107
0.09673773767823596, 0.23692872277467547, 0.002440511242524971
0.09648622621604279, 0.2465827055879603, 0.01129446463917844
0.09536364345557907, 0.22672267100877458, 0.013918119511250517
0.09459369918726754, 0.21039197215537447, 0.014129660944958867
0.08501158763336263, 0.14953734890755893, 0.03677143156493587
0.08824733540732656, 0.16429477881231536, 0.030732964942173698
0.08626601407431114, 0.1424390073244112, 0.03288998026799107
0.08399555693100431, 0.14240486144334485, 0.03836726902800357
0.08414819999773764, 0.14441688712334233, 0.038240533164332687
0.08749759991560285, 0.14708801179548542, 0.030475312235516586
0.08735539566154557, 0.1493419394995863, 0.031089472419876266
0.08706002488640206, 0.16223744281350927, 0.033352174934635284
0.08615823211965848, 0.13355879357642547, 0.032083083203845515
0.08741955025058784, 0.16509718688180908, 0.032827846481355734
0.08342562053958685, 0.13851037319843995, 0.03927523492492143
0.08805038478635394, 0.15058763341849138, 0.029561304093196787
0.08702274518970878, 0.1442046263756977, 0.03127523068787373
0.08850585117409637, 0.15788729807911478, 0.029338883559367646
0.09342156061924198, 0.22527270759416643, 0.02250926001304048
0.09197955382277116, 0.22894299466019424, 0.029238660933939144
0.09374736647093179, 0.24555450610296042, 0.02514741584481856
0.09075151834835649, 0.19833510059597723, 0.02832447043137424
0.09111064842387621, 0.20434912025535565, 0.028013262512873942
0.09238405717852477, 0.21772908919961104, 0.02534479273165342
0.09187028677348394, 0.2081870312952065, 0.025605149990116635
0.09061190484614817, 0.19413937843488685, 0.02807950375226919
0.09503761408225114, 0.2436993656957971, 0.019407698037046
0.09360301041458471, 0.22268596912446736, 0.021243913249480748
0.0931525884387914, 0.21887984328582244, 0.0223703051749626
0.09281554071246745, 0.2324429943824063, 0.026445969198433613
0.09302589718810034, 0.2308781244220119, 0.025261511344004756
0.09249555780874254, 0.23667037097782778, 0.028611532570535135
0.09094672358217612, 0.20608412778752025, 0.02903783303266044
0.09009940812851135, 0.18648864807562257, 0.028707121467710362
0.09228789513261662, 0.221411315277081, 0.02647068577004422
0.09179736166369826, 0.22134303751219703, 0.02850045961856644
0.09265244665290845, 0.21686601185157897, 0.02405685306913605
0.08674753501628592, 0.2452608152750287, 0.04408318964932087
0.08995940694271783, 0.2348760644043275, 0.03508113612987661
0.08568594505564547, 0.21317556958532308, 0.04279055311887648
0.08908132894646634, 0.23973904569356475, 0.03778537245566922
0.08658956335649756, 0.2290740899920889, 0.04251947805900081
0.08902299722019202, 0.22148435412663992, 0.03573260955043116
0.08911099915718004, 0.22815126204282632, 0.03632128750488537
0.08732233005744133, 0.22343462473885528, 0.04007274825744199
0.08787262930980008, 0.2133522186783798, 0.03753264558268863
0.08852347910949522, 0.23076410114634605, 0.03805366331212999
0.08581034227281836, 0.22208876437460368, 0.043561291613754466
0.0882922639226298, 0.23782613714237769, 0.039460482173652965
0.09037085482720544, 0.23314781081722022, 0.033880133957533795
0.0891440009708545, 0.2357416886394253, 0.03715372310580365
0.08614958976982716, 0.2013081744320439, 0.04024515894778713
0.0863244736913305, 0.2056664095954289, 0.04034666140012594
0.08625176074568477, 0.21645167060831255, 0.04181822521568118
0.08671436762346689, 0.24216259150082273, 0.04379096265614485
0.0880143431003243, 0.22880834997834387, 0.03904781486562223
0.07974478597799348, 0.14668786763923833, 0.04686644355521874
0.08166299435711438, 0.14185064856639215, 0.043310482120821274
0.07879081010077156, 0.13632817124873675, 0.04751142395608221
0.08250119468315989, 0.14570219582328836, 0.042281641519234116
0.07801940609750367, 0.14195074629916762, 0.04926508993588888
0.08171916044253763, 0.15727721735634775, 0.04457653533045225
0.07771788928968822, 0.14148660351191433, 0.049716271173713175
0.07898858746076513, 0.15481201640435535, 0.048815462467077214
0.08331569336721038, 0.16785033604673377, 0.042901780206321447
0.07917424362460236, 0.1411398781061428, 0.047309200255890624
0.07641633637453413, 0.13529525032844314, 0.05129530609960253
0.08022021831711765, 0.1395465673232223, 0.04546209508368006
0.07853081826255393, 0.15084059777798745, 0.04921294563283189
0.08399150061958673, 0.18154979108340905, 0.04300466547979281
0.07738750435671675, 0.19054977338222354, 0.05457348377476122
0.08017392094362968, 0.23956804777621943, 0.054340593546862825
0.07761157695980975, 0.2009867560107123, 0.05512639515744646
0.07845593434786054, 0.2139112134989522, 0.05488601873489332
0.07998657460045319, 0.22250418635228425, 0.05314451536309059
0.08495638390870355, 0.24458679038850206, 0.04697803322975112
0.08004211586615204, 0.2146842006721543, 0.05236563933586046
0.08154134570053914, 0.2301190440179922, 0.051277549639690646
0.0846742009341408, 0.2364967997993221, 0.046726509250973575
0.08300074172806367, 0.22839424894709112, 0.048744234035842174
0.08189960331102052, 0.24274117017303065, 0.05180380682932119
0.08233525874774526, 0.2278219420730886, 0.04977983344996243
0.08038138370008924, 0.2124768407176072, 0.05161773420300053
0.08150254805374703, 0.2251582208389622, 0.05090425695202989
0.07920072449424798, 0.2466079338406042, 0.05654828826552556
0.0786278893194175, 0.20709192914912716, 0.054005245239910335
0.07854699384718214, 0.21219551510350848, 0.05458642377694369
0.07800490074317294, 0.2093733322154665, 0.05522265665533267
0.077951266891192, 0.2155513175985322, 0.05585390676866059
0.06900104995011394, 0.2049539291419078, 0.0657355819320553
0.0683247492435442, 0.20459628057260623, 0.06650210540829116
0.07202626649478022, 0.19032890116666634, 0.061157944991764676
0.06994639633009994, 0.22792920486924612, 0.06625553806843891
0.07114075599346198, 0.21833942777056597, 0.0641780946586726
0.06921541531520042, 0.21482298884371803, 0.06618339298652934
0.0715673958447921, 0.209327832208777, 0.0630404764686868
0.07328754489340361, 0.1988216651930506, 0.06028252479685834
0.07068767899775653, 0.2244563675407571, 0.06514170418299654
0.07263223725562082, 0.20530228105029097, 0.061508667245364516
0.07487130515313796, 0.19133926468189272, 0.057898368728344876
0.07547055378925342, 0.1849529938836755, 0.056744543351844416
0.07321205838561981, 0.1983366970354219, 0.060336569011641916
0.06908749523177048, 0.21712012195203614, 0.06649582207831298
0.07238040748048508, 0.191067828465913, 0.06079561995736693
0.07135892614224221, 0.2070845817657694, 0.06312572509284453
0.06885663523619953, 0.20700268440791242, 0.0660497368307847
0.07135845207136604, 0.22079658782409795, 0.0640971896729535
0.06846434483761193, 0.20415217891615642, 0.06630721410029367
0.059540449980796606, 0.2271283931042953, 0.07563319763847598
0.05718953345965623, 0.2119603649046757, 0.07672377647533161
0.06112417568114571, 0.19813634890237308, 0.07252726804111141
0.06021738934448012, 0.2090978532882119, 0.07396463568688391
0.05920720596123882, 0.20959106888239792, 0.07485723994290547
0.06275382858671255, 0.19762716826900464, 0.07110462208330731
0.05812728579163053, 0.22649817599262892, 0.07680203962790683
0.05641411170519399, 0.21315690794999184, 0.07745840956387022
0.06294126283231806, 0.20894140820592527, 0.07162877015685822
0.06131275595037584, 0.21879242637459473, 0.0736153875514959
0.06129213865784651, 0.1933066974212476, 0.07209173978700724
0.05697134794069737, 0.2359301521098806, 0.07835970382215734
0.06307126141899688, 0.18898457457196868, 0.07031084594704909
0.06635255921964064, 0.18399833386515058, 0.06720681250782153
0.06445312641275018, 0.19355245583074915, 0.06940686729660175
0.0580691264430766, 0.18922845672712926, 0.07459781566050516
0.06369171907718055, 0.2041047977315217, 0.0706953255042831
0.06545261124657914, 0.18691511350182738, 0.06815183267316033
0.07243218647704942, 0.17752711396896648, 0.05977621584477563
0.07565086068877533, 0.17893870685244556, 0.05610757733067501
0.07539298485140282, 0.16442589405804525, 0.05538190442389554
0.07175424943848763, 0.1612254833735796, 0.05941571152913891
0.07033070689209661, 0.17988351356423102, 0.06240358536979724
0.07041862702258923, 0.1740816094729227, 0.06188982916710733
0.07248257290682981, 0.16001705892606133, 0.05847738823883964
0.07210237961312452, 0.16447576445189516, 0.05923824515028753
0.07542761495166142, 0.16425775866368003, 0.055329452579726254
0.06864307623879104, 0.18287319566362134, 0.06459124008413364
0.07356424127982139, 0.1545997871258858, 0.05682733519028118
0.07026738390105176, 0.18143750408256404, 0.06258776041858106
0.07326534355855721, 0.16775550554695548, 0.05810881552974878
0.07180772665056476, 0.1821138043463449, 0.06083213476353878
0.06427270017522699, 0.1647038325053695, 0.06781634346933875
0.06351729295090396, 0.16768668195731376, 0.06864190893403001
0.05966594949165516, 0.1689773324356132, 0.07200931439238606
0.0619314420012509, 0.16757329991728276, 0.06998949492650926
0.0605457440719645, 0.16375314107045247, 0.07094196721426503
0.06142295931298693, 0.165322286318912, 0.07028764964093986
0.06021409533989658, 0.17232373410823335, 0.07174352771792346
0.0617426711592559, 0.16259196344497864, 0.06984947419143821
0.06606220717580984, 0.1693768696343376, 0.06657056390273149
0.06060639024025126, 0.1606582925110715, 0.0707030097759817
0.06391853795021049, 0.1523685655894352, 0.0673728515978648
0.06457816338366976, 0.1695134641238601, 0.06784631580675032
0.061422127590854254, 0.1598442113010695, 0.06995707372367439
0.06439315559394929, 0.14927695745010772, 0.06678052557858448
0.060452280257878, 0.16971461725332818, 0.07138231267256012
0.04642920499974426, 0.19983619223753749, 0.08287918467438146
0.053456006959290696, 0.18455931067222087, 0.07774921697963116
0.04572096516389729, 0.18419223660274436, 0.0824694708963922
0.045839314142504695, 0.22868353733295874, 0.08479649373225756
0.044903658458997235, 0.22950899309080533, 0.08541438494444643
0.05225152939862056, 0.19175815905837537, 0.0788755787567065
0.0435201480117868, 0.1880080727226636, 0.08402393600286054
0.04730386401581553, 0.18672286332425886, 0.08163595103840365
0.04918664636465807, 0.2192686017705165, 0.082237465584806
0.045376561842144676, 0.22566531912958931, 0.08491728797118793
0.046754325690244805, 0.21450703509924607, 0.08347119189274925
0.04452780455213237, 0.18628560093496688, 0.08331354377490816
0.05456319053330435, 0.18612218503504302, 0.07715502278686241
0.05167388292188907, 0.19154971936550957, 0.07921832007026652
0.04580605331856871, 0.23260319629541495, 0.08502827483525702
0.0490777210190239, 0.21667165590079568, 0.08216415431868716
0.04760624588728436, 0.1931775144751735, 0.08179876915179947
0.04675417167477529, 0.2171040662005792, 0.08361135183766764
0.032085186433367024, 0.23656248023146453, 0.09128433640038632
0.03671860805940925, 0.19091152824241103, 0.0870928599959751
0.04119403029908954, 0.1847404552844455, 0.08493192057889548
0.03560449381390569, 0.2062538270787982, 0.0883179958042621
0.03321465477898889, 0.22852358926534885, 0.0904163642715861
0.03987964101983319, 0.1944893432253136, 0.08596160359067148
0.03768319582600524, 0.202591928895402, 0.08727470158622998
0.031964216931540904, 0.1842766188317029, 0.08873194041271812
0.030514598178593644, 0.1871138222115681, 0.08947361149768993
0.032546173102173837, 0.22983898698319025, 0.09075873123139887
0.04128315992451336, 0.1882090475553906, 0.08506764942404886
0.031892073811401696, 0.1855517591978273, 0.08882529250459875
0.033835227231852824, 0.19585702622119672, 0.08853335304932883
0.030659359531975464, 0.20124970555832045, 0.09011725614901706
0.03717104236215518, 0.20862290384959567, 0.08778703093948859
0.03588527666573152, 0.18787100279722818, 0.08728669588364321
0.036009807956372056, 0.209303206195107, 0.08830189083834561
0.03092148545833503, 0.22379988416317542, 0.09113110430860254
0.03275972670940536, 0.199922642077055, 0.08918120319379794
0.051928824066187367, 0.17049029336604718, 0.0779262921180015
0.04850763788615337, 0.180791875016048, 0.08057839941642092
0.04648294901700656, 0.1724030553537311, 0.08136669805390993
0.05400261972676358, 0.18268746595159985, 0.07731329713406294
0.049885324020669905, 0.1537446175385487, 0.07827540684590552
0.055270752873276305, 0.17794703282490232, 0.07628051582701176
0.04756357370851807, 0.17711662180966037, 0.08095870618121453
0.050757755572891874, 0.17244683901232646, 0.0787494482076265
0.04936522950062183, 0.17950609787770777, 0.07998351932290004
0.048178846761341834, 0.18263560483261337, 0.08087932149666734
0.05455740318740309, 0.17430756442987944, 0.07652137021050544
0.05203586318005596, 0.16432534798845172, 0.07752820348040143
0.04579460181263814, 0.17077632843468035, 0.0817007843148218
0.05390556690741852, 0.15706437359462722, 0.0759908376559484
0.017098823436256266, 0.21507974882401337, 0.09423847666955634
0.023476350624582448, 0.18483663613191872, 0.09127710386009037
0.02061018030126896, 0.19719179519793886, 0.09254951359443447
0.018318262945641976, 0.2211561350666513, 0.0942330790744299
0.015593225775875057, 0.21896123734233625, 0.09478350341962374
0.016111504230377178, 0.21074139930885355, 0.09427034227942177
0.019535877590629573, 0.20394808086764094, 0.09312695035404961
0.027936702646507605, 0.18759568861558262, 0.09033674601857705
0.020503176556841828, 0.19351452316849915, 0.09240129721832485
0.02392222068376821, 0.19726746533793696, 0.09175793916001322
0.020447483099061387, 0.19568560128757354, 0.09251734284081388
0.02041414411875257, 0.20211616157402557, 0.09282946131278938
0.015404722557110853, 0.18802412106291114, 0.09336567910989627
0.015411582830371378, 0.2183933396894546, 0.09480025511703294
0.01531376971100282, 0.23255187860328366, 0.09549332456530424
0.024181722486721548, 0.1945206128814496, 0.09156573377334741
0.017399321814971086, 0.18419943207521805, 0.0927059392630249
0.016621557302766217, 0.1867957928218989, 0.09301545184337082
0.024146223832507144, 0.18831819457541138, 0.0912809311119677
0.03848913221053074, 0.16888494534261606, 0.08526312431072727
0.03228976879773683, 0.18091930034973464, 0.08842998386375969
0.03188065809075395, 0.18318066657490806, 0.08871200108577385
0.037159214375486346, 0.17619425969143326, 0.08617781063046581
0.03972681463182524, 0.14288903374310688, 0.08345652748275756
0.03404434013848249, 0.17668144259130242, 0.08749228076043528
0.040590853120199444, 0.15964203865276436, 0.08393250371246233
0.04068181989112197, 0.18348847162696785, 0.08508176783182772
0.04037425341116954, 0.17693647646772748, 0.08488304368184553
0.04228454776121878, 0.17969009189442878, 0.08422883503014288
0.03731807165815744, 0.17213448261657172, 0.08590993662727053
0.04022737247053616, 0.17087469025501115, 0.0846421614145329
0.03938830375362576, 0.17832834814692838, 0.0853607163589061
0.03825603907269593, 0.1482903603893932, 0.08433458978881297
0.0017372007009104182, 0.2003474706984768, 0.09510571057193433
0.009723584626402717, 0.19226817640793245, 0.09410449347086876
0.0014010896392208125, 0.19664558070724242, 0.09496140249642543
0.006406606002000189, 0.20763973169839506, 0.09507460029808816
7.739693011924905e-05, 0.22331207082969293, 0.09629564717836
0.0018302830412883192, 0.2312791424564822, 0.09652519745044828
0.008652138282276072, 0.19074873483226867, 0.094118728739438
0.004699660913404357, 0.22311981324884883, 0.09592300197196363
0.005389005194554507, 0.21332383792095178, 0.09541688228299304
0.002949347507264795, 0.20860176243833858, 0.09539106642084805
0.005194648196579343, 0.1898440489744573, 0.09434910540289201
0.012356599828178758, 0.19404826600986583, 0.09397938432242434
0.008899984054880338, 0.20511688908746098, 0.09476199557627975
0.0040258069149498, 0.2156256466839132, 0.09563034490939093
0.008770557204176268, 0.19092171986025502, 0.09411738848576592
0.007754109308862907, 0.18789300894068106, 0.09405767592126932
0.0092585586737464, 0.20317162283776483, 0.09464404438232887
0.0010484671590849522, 0.1874928158680032, 0.09456695656601428
0.02412850105432089, 0.17328991750217956, 0.09057446507603344
0.022544102672161632, 0.16247559824632307, 0.09044341239671803
0.02702654731211796, 0.1405915825519994, 0.0883323233724306
0.018845909438093934, 0.1714745791579427, 0.0917568555166278
0.018213762713392017, 0.1753191180773486, 0.09209043816415141
0.02830330471517247, 0.17946712514156954, 0.0898643147510713
0.027378053987134977, 0.16589137240849083, 0.08944441962544272
0.017697756437886368, 0.17370533852763803, 0.09213800131606098
0.0250704460846938, 0.17744247801925872, 0.09054470760312364
0.027929614489530803, 0.13550503259879973, 0.08787496068993995
0.021759805973253724, 0.18305401014180098, 0.09160490684113075
0.025011719146145747, 0.16092565912534074, 0.08977768802357844
0.025680338506089806, 0.1469346654673658, 0.08895549964108762
0.027508750270975376, 0.1750130006249456, 0.08984442510259347
0.028286333632820456, 0.17455985178381045, 0.0896363128094311
-0.005620479259626695, 0.1493904078319705, 0.09244955784100313
-0.012618973044565465, 0.13352844972733724, 0.09116709516344045
-0.006470080208601273, 0.15454695974778776, 0.09262055370941243
-0.006212155319980328, 0.14251192580119876, 0.09208570370537073
-0.00773500901081555, 0.15348237512703042, 0.0924718960316887
-0.004402555948559277, 0.13649280020519183, 0.09195047182574578
-0.0012602493779414786, 0.14376403783407288, 0.09253317932803592
-0.0003748108022981943, 0.17168721248533947, 0.09389089682255579
-0.008391453179387602, 0.14504203589362819, 0.09203089966200047
-0.0009588138382139457, 0.1420754246109608, 0.09247901061385645
-0.005039173244425186, 0.1545606757793152, 0.09273379979727386
-0.004623022323820201, 0.15543456896660274, 0.0928068618862764
-0.002648299432742001, 0.15957749989305078, 0.09315337801266728
-2.373135723130112e-05, 0.17564011100605123, 0.09410086528725661
0.013446561937638025, 0.13798013718955313, 0.09130730861663663
0.01161963244397409, 0.1437789638051055, 0.0917185761754036
0.00942673130335773, 0.15329099431631538, 0.0923299275302525
0.01361282160459474, 0.16284979308252334, 0.0924414032272855
0.01335306481899743, 0.17121590487667743, 0.09284775563289746
0.009625031004649702, 0.17580150992983745, 0.09335267890155713
0.01013005028601626, 0.1484542511045162, 0.09205146790669105
0.002706227644610265, 0.17729722177974677, 0.09396618931546347
0.010699993036968426, 0.14991159872529544, 0.09207383690337739
0.009614327083705413, 0.1596292914715847, 0.09260753446892882
0.006379163658074489, 0.17936453185437762, 0.0937724858072963
0.01242747083035255, 0.15523452537009674, 0.09218341691541024
0.010945855221013974, 0.17632294480365757, 0.0932727813010656
0.011261420009384343, 0.1806808148198936, 0.09344896445156356
0.006165307620640344, 0.1656541062621964, 0.09315688643018759
-0.0228195600708564, 0.1464921799818556, 0.0896213922966265
-0.024844931716349036, 0.1441716074467038, 0.08902539626822005
-0.014937602822642554, 0.14263572960893656, 0.09133131214451345
-0.018315450653648657, 0.15977057976887798, 0.0913307030661558
-0.02089628203322104, 0.13709877624404856, 0.08963889822734339
-0.014941958066354682, 0.1725562812841372, 0.092745274644286
-0.015289634064666296, 0.18126353522567637, 0.09307358963090903
-0.02235990214090434, 0.14749897910073964, 0.08977936066789038
-0.023261149651887966, 0.14937602266264402, 0.08965175870453546
-0.01527138346933767, 0.17579313503137728, 0.09281926408367427
-0.020286823073519245, 0.1445959148233938, 0.09013977312029343
-0.01764056933943372, 0.15091829237137486, 0.09107408456258084
-0.017920713325983485, 0.13513147155059185, 0.09026023444513893
-0.021049142760113413, 0.14358104902906044, 0.08990876024319258
-0.010242663541894795, 0.22280286084685622, 0.09547213631832523
-0.014632994560741033, 0.20703774700642089, 0.09439940085539911
-0.01041918972206108, 0.20878096113577374, 0.0948114471106227
-0.009975856576513904, 0.24012925527962353, 0.09629235914901953
-0.012048517395990156, 0.22598956116771363, 0.09547700626541372
-0.00775391895010621, 0.2355308635387085, 0.0962551180422112
-0.009109696200363494, 0.21385619931816133, 0.0951486156447478
-0.010147182468914301, 0.2250739779229522, 0.09558441201347675
-0.006401135764032725, 0.23998791673133424, 0.09656717819836422
-0.012129248119989436, 0.24408017373521262, 0.09630512861742721
-0.00900037224789702, 0.2233475322142418, 0.09559503183497024
-0.00870943618479484, 0.2280970830837994, 0.09583701441671766
-0.012442921243455016, 0.20039297435241182, 0.09426525737102065
-0.010554781928126948, 0.24417501130006464, 0.09643341731222917
-0.011603084669211214, 0.20863557049238624, 0.09471156536977274
-0.010208613234818465, 0.21904934980232083, 0.09530167580190443
-0.010256163265111015, 0.23765029453215242, 0.09615594993377165
-0.0066739547573399375, 0.22226464449253405, 0.09572817519761921
-0.008342146752356769, 0.22754948114219947, 0.09584066138163594
-0.02655277612824293, 0.24687775185918823, 0.0934725868878547
-0.017629543689385237, 0.24202444327432956, 0.09538533637526829
-0.02834951030409167, 0.2114205813159674, 0.09136437773741016
-0.02635490880833993, 0.23243955264901472, 0.09283727436227983
-0.02645085761881489, 0.20088073857796154, 0.09132174912151914
-0.019429362009058683, 0.24230118297976025, 0.09496632685881386
-0.027167848283154765, 0.2139394855521358, 0.09176719391932539
-0.01753818825995746, 0.24414375143857153, 0.09550749585698842
-0.02854684329484637, 0.24601764851314595, 0.092953178490538
-0.026955415048141872, 0.21512703628935975, 0.09187435656064359
-0.028141313587888572, 0.2470364185511867, 0.09309871735621675
-0.020868226399361485, 0.23500823102392046, 0.09427598612305368
-0.027211354573352716, 0.21056233157904167, 0.09159703550799754
-0.023106990435959898, 0.22522803773356023, 0.09327597945035428
-0.027363498572447086, 0.21587317393916422, 0.09181167118541407
-0.028448723238250664, 0.21871362408939682, 0.09168546389766233
-0.02742664886925702, 0.2152647817687791, 0.09176773788779509
-0.02437605099290269, 0.2123576615550553, 0.09236263549993853
-0.027304072948974828, 0.2359204157241106, 0.09277401886645212
-0.035794419946796066, 0.14661748750386708, 0.08527096415358093
-0.02921026859637594, 0.14814091130565124, 0.08807403252780359
-0.03294954418652359, 0.15632640148659913, 0.08693260434598526
-0.03104495461144902, 0.17282013674340638, 0.0885424765201098
-0.030462698181822533, 0.14063418615140222, 0.08718161689827343
-0.03911179167621644, 0.14077158505051526, 0.0836058892576135
-0.03592663394753778, 0.1560242994137793, 0.08568441822932812
-0.03450423911114232, 0.14913273272957464, 0.08593056870438119
-0.037879164821413625, 0.1442372575274887, 0.08428896119132613
-0.029103920968808445, 0.1755238231269316, 0.08948105229063269
-0.030630256746772493, 0.14952563700485577, 0.08755477898776443
-0.031064666299262085, 0.1610719502243835, 0.08794955223740392
-0.03607838825830621, 0.14971471338534878, 0.08530750349415359
-0.030796068912521235, 0.13986495568326704, 0.08700524240354844
-0.045585543844159096, 0.16199139436203833, 0.08135510739072603
-0.043596103599686194, 0.17164284835156043, 0.08309477499895296
