-0.013066508912531844, 0.12892779100856902, 0.07477654112090941
-0.010076782080239835, 0.13588203290053325, 0.07567155993924862
-0.008847350007780815, 0.14089843786664588, 0.07617032437623497
-0.013587425779733752, 0.10813304723271414, 0.07343367758874994
-0.010040369735011071, 0.13755093452495235, 0.07577847833223506
-0.014393942920112823, 0.08581439811703849, 0.07195321634896844
-0.015526697288724804, 0.12664965695053354, 0.07424880932809712
-0.014067626298941767, 0.11789445144344313, 0.07394925491692568
-0.015266902881808406, 0.09141962635784882, 0.07215468310037881
-0.015186951526540442, 0.09931756860139541, 0.0726460362600263
-0.014425931479477384, 0.14179912541656714, 0.07534135468459506
-0.02077046999645941, 0.08116332512583108, 0.07005180337916599
-0.02261110688533905, 0.14758952904634517, 0.07367535436497921
-0.02224769452965434, 0.12523074201006928, 0.07238704963732186
-0.021751720575246526, 0.11615067807548256, 0.07195721092523993
-0.022583682990215632, 0.08664028024247863, 0.0699053856060326
-0.021920017985049386, 0.08399669558589212, 0.06991937922018743
-0.020303620659537742, 0.1461613316854548, 0.07420513370660747
-0.02025570653875476, 0.1297841785577109, 0.07320300165475724
-0.02112738696173642, 0.0944708954492871, 0.07078090127802404
-0.020107268282435385, 0.1420118798922526, 0.07400058497005099
-0.017841338242082, 0.12990714404188602, 0.07385755307120939
-0.023218630763162433, 0.13392913889262248, 0.07266596833864901
-0.019430333589901577, 0.11887045168559385, 0.07274778461618284
-0.01957705595302371, 0.09662356381798715, 0.0713297240764962
-0.02210509726736732, 0.06654893691706591, 0.06878846596580616
-0.02057900922040723, 0.14351866391561435, 0.07396756448059191
-0.020261544140132485, 0.1144975127627155, 0.07225404953931869
-0.020023013113611633, 0.11446174245712187, 0.07231574713693784
-0.020807055949029374, 0.112555560133207, 0.07198752738877905
-0.018025082292982948, 0.14461905960280771, 0.07472008670418458
-0.02095254543518792, 0.11389089760716717, 0.07203130070232922
-0.02017815869606773, 0.12237576323120905, 0.07276464562402737
-0.021653347197224917, 0.14641058995728723, 0.0738589218351465
-0.02801678040585162, 0.12807659278250244, 0.07049063507288611
-0.02841341869255934, 0.10465103354393626, 0.06883628420678889
-0.02819525334141549, 0.14532968503770005, 0.0715284287434147
-0.025812224662259645, 0.142275488046202, 0.07224735263683005
-0.026468572618049947, 0.10854208589005689, 0.06983234797015463
-0.02434903371510689, 0.14406149428658904, 0.0729235452085176
-0.0274175732182116, 0.11833745518872583, 0.07009615735459301
-0.02832101664480794, 0.10341519743735401, 0.06879250993858362
-0.025538241944236297, 0.14226090533516692, 0.07235159039180895
-0.027880862198388465, 0.1393193365977579, 0.07126371721289779
-0.026278427854818924, 0.14769939352586994, 0.07241618466525626
-0.030233194204190485, 0.148343356142154, 0.07093937395151298
-0.027286723457721603, 0.1278065625726339, 0.07075356469995517
-0.029441213707552514, 0.08206513312159211, 0.06699349395821688
-0.027598038627699394, 0.09849237515719307, 0.06875437567905605
-0.027603348677261066, 0.09765327820157298, 0.0686985327192391
-0.026598792696051577, 0.12393494504620088, 0.07076938236156265
-0.027057873072716808, 0.10663309258421866, 0.06948372663283175
-0.028716369472138, 0.10208319886707734, 0.06855533670700852
-0.029860866190300924, 0.14499285117328703, 0.07086745704401796
-0.028689216845338303, 0.07279053752152649, 0.06668745448096286
-0.02852727349559276, 0.09398551696842408, 0.06810868446030761
-0.024878698357669024, 0.13679189898598437, 0.07225408333299141
-0.03579815214801121, 0.09502399364077965, 0.0646665833595509
-0.03555745319272557, 0.0782274938968852, 0.06366073665997768
-0.03266958185396172, 0.1306241452499648, 0.06865248348799376
-0.03593355797250518, 0.14629731797054296, 0.06804243541310022
-0.036692701531519614, 0.08693759013980436, 0.0636674994581719
-0.03586520719593437, 0.07234250912863212, 0.06310854158319217
-0.03658424068563179, 0.08345756608134736, 0.06348895400195308
-0.03726330590604671, 0.10479186705965081, 0.06457632014178893
-0.035760357372720646, 0.12802658623302177, 0.0669031492923566
-0.037461343403234, 0.12355463685162577, 0.06573600935984564
-0.034751913399286585, 0.13826718058204282, 0.06810499611204893
-0.03524155032282437, 0.0853031597550313, 0.06429708072908995
-0.03489904788614589, 0.10914367842594103, 0.06607333946652502
-0.037603433865321535, 0.11574815009117154, 0.06513912549736534
-0.03665676854786058, 0.1271092654973029, 0.06638477800724774
-0.0350536345148951, 0.09040969774665052, 0.06473591509213109
-0.035813483832267, 0.10001682155178379, 0.06499421915439824
-0.03569905588375391, 0.14232487294194351, 0.06789502686698687
-0.033033068136526234, 0.12366305726983451, 0.06799959269061502
-0.036412879803055936, 0.09829759624738753, 0.0645733066617935
-0.03367144441483631, 0.1145712164487047, 0.06706348314673588
-0.03329418158225736, 0.13556876533121048, 0.0686664455658303
-0.036956654289590996, 0.10671293979858992, 0.0648616345541463
-0.027738835288826223, 0.14955437772318067, 0.0720637702641555
-0.03993646438816665, 0.12152352084798564, 0.06403679546332658
-0.044515541610587794, 0.13630744221748364, 0.06211834115225706
-0.04375444147944057, 0.11792197343320049, 0.06130029356710423
-0.04386972632777552, 0.11306884155291703, 0.06087902081967647
-0.04444395922501948, 0.12580743681405504, 0.06141536067076697
-0.0433364587522479, 0.14719841065868322, 0.063661421896594
-0.043066891212726686, 0.11461109494062133, 0.06151047234859653
-0.04172303176490455, 0.09735921449510895, 0.06115178733126571
-0.04373619867708117, 0.12517924893827864, 0.061830148631100396
-0.041399710499267856, 0.09763608506978057, 0.06138151771189728
-0.041129744602411186, 0.11782297224723344, 0.0629977308209598
-0.04089913049487022, 0.11023803117168085, 0.06260609782817479
-0.04125533932500491, 0.09857117583846192, 0.061542018436580775
-0.042174990357670625, 0.1431902108308215, 0.06412959450054559
-0.04040599508004368, 0.11802185560061189, 0.06348193666212008
-0.04095431547076591, 0.14777699133408026, 0.06524970675121
-0.04281902659829962, 0.1336886655890487, 0.06303315214945417
-0.04335508866607095, 0.11269397991475136, 0.06118647475257428
-0.042814609736620914, 0.12140904745798997, 0.06215952896634548
-0.04045236576475996, 0.13887135744028503, 0.0649400136565981
-0.04347382574989611, 0.1465029474570552, 0.06352257382950137
-0.040444452199587824, 0.10197293647809923, 0.06231142646676715
-0.03990064881961209, 0.13666879752801578, 0.06514109024367114
-0.04865896320392017, 0.12801419333356878, 0.05819136549606514
-0.048371647091501, 0.1307276410152544, 0.058633043123006726
-0.047166553642913764, 0.09048944735920914, 0.05650940667874179
-0.050266814798184546, 0.11978133649233297, 0.05625518610839726
-0.049407584670970985, 0.09718342929457266, 0.05521028602317931
-0.04863104567601319, 0.11894552436934269, 0.057515423590577056
-0.04889293882653427, 0.08771016581764679, 0.05489732331317666
-0.047393865834067114, 0.1428611640699289, 0.06035946564072464
-0.047439109403204276, 0.10021230176341794, 0.0570376356853159
-0.05020143353509836, 0.11490460643554329, 0.05593248192124914
-0.04748813938040356, 0.08789913483274987, 0.05604946302741635
-0.04912421323224035, 0.11359467536800552, 0.0567038948581126
-0.04771483851955144, 0.14438306266935125, 0.06021677728766388
-0.04860185892713487, 0.0943771998581982, 0.055646588970085266
-0.047616804902078674, 0.143402207167804, 0.060220609147224005
-0.05091775703080352, 0.1449595151427515, 0.05766750964972999
-0.048845422054980187, 0.13956305339440445, 0.05892996947388384
-0.0475864480001395, 0.11228985467409032, 0.057848643203756565
-0.0505569813175374, 0.14832607393295497, 0.05821898205379874
-0.049055757688674956, 0.11111141337274519, 0.056568046244882
-0.048188745977016216, 0.138066277051103, 0.05934644009014366
-0.04857271601936181, 0.09927979313889507, 0.05604782950131061
-0.048682719263717734, 0.1447514093871978, 0.05946137658825357
-0.04794188320504243, 0.12008896620437001, 0.05816157410477607
-0.05272307812826456, 0.05899669008435826, 0.04869534201627523
-0.05507620727401604, 0.11259038823930773, 0.05087940772347019
-0.049372663610806486, 0.05724515808064228, 0.05189750326525199
-0.053467707217468366, 0.08671402040098275, 0.050297241787848154
-0.05421671929847746, 0.1103504765560706, 0.051549273712898
-0.05071994878339271, 0.0733609450635571, 0.051914560457432035
-0.05444933661458446, 0.1163169995096399, 0.05182177719501525
-0.05477018485111545, 0.10918880521144292, 0.05089745658025707
-0.05180214259671113, 0.09362126368807315, 0.05254758545402859
-0.0505104865921185, 0.0632124430855515, 0.051264857336102955
-0.05186765710007649, 0.06390330193937876, 0.04996616221590357
-0.05371324021694029, 0.09018980755957935, 0.0503459649920098
-0.04989314893783611, 0.07374947502789561, 0.052774260605555436
-0.054095849759957446, 0.08999712190132314, 0.04994703928349556
-0.054644631172321254, 0.10519170347394179, 0.050684618722673665
-0.05310940501093508, 0.07920579115326472, 0.05001990424077926
-0.05515411537191699, 0.1072547822597232, 0.05034978911655223
-0.04991840861036251, 0.06035780555768078, 0.0516152685013795
-0.052399051981524725, 0.066450113565359, 0.049650374314121996
-0.05110214883653592, 0.07596564890137458, 0.051752869871913576
-0.051696173259662255, 0.0742456920502895, 0.05101322932015377
-0.052914675853604196, 0.07330486121495602, 0.049715065326773764
-0.058140641600491705, 0.06749011548496625, 0.04296430741988824
-0.05957729673403463, 0.09838712421546039, 0.044129212316155644
-0.055954514788430526, 0.07145350528859541, 0.046040965901631904
-0.06196167183476954, 0.14377434675259632, 0.04550213717305987
-0.055549485847573556, 0.07315716359287167, 0.046703193833997445
-0.06151431721877939, 0.13683427581284272, 0.04539441179452295
-0.060565811888901616, 0.12982033151512856, 0.04589853016206431
-0.058954126244411854, 0.09553244581525419, 0.04462721849354451
-0.05886162298669797, 0.07572624247860422, 0.04285741651152932
-0.05427888168810922, 0.062386853301636486, 0.04724775346867833
-0.060357763031756446, 0.1177096401725675, 0.045003438982476864
-0.058556222032965684, 0.08246570841699648, 0.04387563723095852
-0.05927035951513704, 0.1148526518986085, 0.04607450663273625
-0.05921715928245343, 0.10115256207444094, 0.044837003889948726
-0.06047620826886952, 0.12719352487572805, 0.04575931075253959
-0.05647213432469217, 0.07156770124013795, 0.04541262043666555
-0.05815625346612674, 0.08641229328834729, 0.04474497100302743
-0.056403244808552744, 0.07018932405071895, 0.04536657609333973
-0.059405213227691, 0.09512727198255444, 0.044031629812826
-0.057959305134080395, 0.09873660999599482, 0.04616051384397283
-0.058068262019391935, 0.077309494995258, 0.04398774210908914
-0.05855143158610061, 0.10026837221029143, 0.04557500359710654
-0.0635203366616153, 0.12471252862190223, 0.041082180583391775
-0.06415055741815695, 0.12411717084123705, 0.04004629935528706
-0.06247335794885964, 0.0966254897769193, 0.03960724164970551
-0.06289136929391592, 0.14226095455674762, 0.04397949172517778
-0.06450111435644039, 0.137579262599972, 0.040986151979326715
-0.06279272302584171, 0.13426160433177559, 0.04325216058340429
-0.06571862434979231, 0.14532377645801028, 0.039962593990289674
-0.06341864234997979, 0.1011120826416855, 0.03864478215408813
-0.06321436853769172, 0.10076831266617478, 0.03892154790653213
-0.06423683631876428, 0.13729184721352805, 0.04136150917231887
-0.06292020072301303, 0.093786660289649, 0.038607148165107595
-0.06320364309242506, 0.08047673668493692, 0.036707758622689005
-0.06289793070010938, 0.08167667175019358, 0.037310397315497554
-0.06271829139198462, 0.10450393237064096, 0.04009602357118085
-0.06536453277189719, 0.13476430592085853, 0.03934721952619913
-0.06589865866274194, 0.13827844189866437, 0.03891099587006085
-0.06360133506282815, 0.1480678749749772, 0.043524507958321274
-0.06365282266634761, 0.10118370630910398, 0.03829205257582944
-0.06293746418555819, 0.10215895241806443, 0.039500787509583524
-0.06305478670854524, 0.10441365788766267, 0.03956794982494331
-0.06298553830605781, 0.1253090345345182, 0.041971252074786844
-0.06362051864119296, 0.10117654479419916, 0.03834100870084183
-0.062482760229379854, 0.12349148221433874, 0.04254568121786971
-0.06911588702607091, 0.12371524564669985, 0.03084910112731246
-0.06409811615655103, 0.06808731633493373, 0.03336192376981653
-0.06530295859563445, 0.06285093951149169, 0.030306811282298958
-0.06359901022267155, 0.061893961891987904, 0.03352481742959351
-0.06921600734806582, 0.13370245799430153, 0.03196952242351954
-0.06488659789715198, 0.05765850486545846, 0.03043928973950416
-0.06676162963307464, 0.0928088471098434, 0.03139426731870312
-0.0670633913232481, 0.10402006579583287, 0.03228034244843053
-0.06511816257716364, 0.08175672185340507, 0.03316242067002051
-0.0671036181537821, 0.11128774012029402, 0.033159711913080696
-0.06414422986415447, 0.07736375027851355, 0.034494615626954994
-0.06711235280823895, 0.10205178687079727, 0.03192471167277028
-0.06539075852186674, 0.06301106318963712, 0.030155607867655282
-0.0628005490249569, 0.06323456103970784, 0.03526866099910127
-0.06280479613441767, 0.06222758966471957, 0.035127545804313286
-0.06409923486759372, 0.06458525268051095, 0.03289794428114935
-0.06516778803714338, 0.07920178761920953, 0.03272813010075221
-0.06436813120306427, 0.07550290404293311, 0.03380981149475284
-0.0668030172041017, 0.10519555579755124, 0.03294635716551308
-0.0649153375858702, 0.07364470248812252, 0.032490832940043124
-0.06603881383440272, 0.08828771872947433, 0.03221671776910562
-0.06457102329816261, 0.0604119364656701, 0.03142170989579634
-0.06647257306091162, 0.0647155810928768, 0.027900073121871097
-0.06980105720889955, 0.08952254957357195, 0.023372932640542268
-0.06765610889379212, 0.07493139816335194, 0.02652334688869941
-0.06825615160958506, 0.06391505822406347, 0.023119986915834244
-0.06635015346219254, 0.061799358429600305, 0.027731851824082686
-0.07182560457530525, 0.12705139472802202, 0.024367750108080764
-0.06732389166032177, 0.07157388228437853, 0.02682795031334697
-0.06645918773274789, 0.06262833309551656, 0.027586283126674903
-0.0691101788165296, 0.08768164543141374, 0.02486521617301315
-0.0665568439471036, 0.06761124313627061, 0.028164240358597235
-0.06971152830129312, 0.097590047659391, 0.024953780430712124
-0.06801241566176736, 0.0779843948768407, 0.026105120554597006
-0.06851847588567188, 0.07885398258135581, 0.024932051652520867
-0.06590932057871167, 0.05822262523173514, 0.02828278900834999
-0.06840883610826341, 0.06581559709134206, 0.023039703020547288
-0.07227058404641876, 0.12975925279016895, 0.0236608713569557
-0.07015947880657514, 0.09305229502761839, 0.02302883447224225
-0.07282740421268907, 0.14026079642301575, 0.023964518074166517
-0.06884670852874061, 0.07197981834980476, 0.022928699446619634
-0.07188309820986567, 0.12725834288732676, 0.024252543806916313
-0.06965478106866792, 0.09380445835649796, 0.024469255896396695
-0.07399764238100942, 0.14995021107997872, 0.022580961152777038
-0.07096844295245006, 0.07928869743389258, 0.016915907844904134
-0.07047378354674153, 0.06683581563139476, 0.015881784727261705
-0.0698724212161788, 0.05867997162421604, 0.01623971103278197
-0.07169118192220196, 0.08449488617808507, 0.015422799935659315
-0.0708294835024124, 0.07593083886763533, 0.016657874530266202
-0.06956011442064293, 0.06983772832795679, 0.01998584345675951
-0.07266806684518959, 0.10584115423935175, 0.01671419101683528
-0.06969971843429132, 0.0597800779240017, 0.017138666073370987
-0.07196860905486958, 0.1024213894873213, 0.018533587851273185
-0.07176447994245613, 0.08902795620097059, 0.01619768670839882
-0.06976054579252643, 0.05710119129768082, 0.016292075671572242
-0.07084020999377073, 0.08598083832820864, 0.018942257420025806
-0.06893004070492514, 0.06411607234492639, 0.021013910066071423
-0.0707422132789412, 0.07472804240200645, 0.016705373358770197
-0.07123854636191254, 0.0846358935851601, 0.017144623146600695
-0.0711834296445537, 0.08524285645457587, 0.01749069699217136
-0.07042915486606803, 0.08244983371909323, 0.019659623718686944
-0.07029647733913116, 0.07771490775951097, 0.019059651669071878
-0.07010985174547699, 0.06564700563209828, 0.01696500378186657
-0.07542201593721483, 0.14779138979172646, 0.016139066526900947
-0.07135909740671514, 0.08741323544226627, 0.017337090815046252
-0.07697351107362704, 0.14965626290270334, 0.007191726082629958
-0.07379934048782175, 0.1057756571886304, 0.010376416636429162
-0.07090229532769249, 0.065993328808447, 0.013444198664785871
-0.0746270441746325, 0.11820744637120519, 0.00990777075660868
-0.07240388996205502, 0.08263151356341167, 0.010330350641781142
-0.07384789281644415, 0.10663396717489997, 0.010398320355900322
-0.070672643749083, 0.05809592413967135, 0.011872001879804073
-0.0746980453681665, 0.11829871523751079, 0.009494399104506236
-0.07164913188756519, 0.077138568477636, 0.0129938031601976
-0.07612044875420877, 0.13924825761060008, 0.008530447715109118
-0.0724014925655815, 0.08070454786864889, 0.009608069389779712
-0.07451987043801796, 0.11550572581377128, 0.00955055717572066
-0.07211976396898485, 0.07692172430833813, 0.009939267890650548
-0.071738812878934, 0.0744776489617783, 0.011409270422812203
-0.07355207657893532, 0.09563223047177113, 0.008055907437299472
-0.07459219478574979, 0.1129099942312716, 0.00810055996515871
-0.0721283155427207, 0.07913346101253817, 0.010731669125532594
-0.07336507714179215, 0.09877029887453888, 0.01043750212404603
-0.07104900902423683, 0.06195774255704936, 0.010973501136299933
-0.07405386291828861, 0.10650342790731888, 0.009047877945843268
-0.07416456438677772, 0.11183165290823234, 0.010387937946530333
-0.07309056480404844, 0.09466448850864795, 0.010599535670190223
-0.07259878606657978, 0.07314735893613408, 0.0011739963807182216
-0.07290479630254532, 0.07948686742477128, 0.002586262333580758
-0.07228701294759267, 0.0691612103985606, 0.0025635375936215194
-0.07182145469809531, 0.05968674591143953, 0.0006097885221727277
-0.07234678241719764, 0.07220800001975503, 0.0049080718858615785
-0.07493198376737333, 0.11305176705346782, 0.002297553912264135
-0.07247756152879663, 0.07410417726236333, 0.004581548822196811
-0.07182072104160865, 0.06053055794383079, 0.0015889652909566272
-0.0723276290251473, 0.07027221749169431, 0.0030593358638019855
-0.07586560543576502, 0.12755006791497858, 0.001066487435401
-0.07241641167672293, 0.07334292924369296, 0.004877625466614729
-0.0741153691748787, 0.10023026804871835, 0.0032139566779493213
-0.07365193504726002, 0.08977939365144386, 0.00010282957313719082
-0.07340598117024823, 0.08971995138720074, 0.004727943154396969
-0.07403324660498468, 0.09940184910210631, 0.00383338668926575
-0.07274160289715184, 0.07722575978849491, 0.003113871972354402
-0.07227488542745897, 0.06691158511331752, 0.00022175638355333366
-0.07473409328848037, 0.10908115828983514, 0.0015318477771377012
-0.07198230756093993, 0.06473711656209717, 0.0033172826337617978
-0.07432701357699499, 0.1015951385443199, 0.0007366987331051382
-0.0738152029263001, 0.09504372915262345, 0.00300898163566432
-0.0773441081826563, 0.14973854274080126, -0.0005278663660831643
-0.07213016942382278, 0.07023676265788924, -0.006786455174393498
-0.07429036770774114, 0.10452862884101286, -0.0047911600638376696
-0.07203507456514469, 0.06582147062566279, -0.0035506520599939448
-0.07233974940002577, 0.06955879785417823, -0.00201193463149943
-0.07211359942979084, 0.06934183162427307, -0.006078984784833333
-0.07414865582577378, 0.10185775708855534, -0.004440182910669397
-0.07257491308854153, 0.07812422235042638, -0.0073220849706892065
-0.07202962443885047, 0.0634947743493215, -0.0009933088067265344
-0.07363170892576404, 0.0955192717122699, -0.007054039342142335
-0.0743296549907232, 0.10477012015761708, -0.004317734289754441
-0.07279123168034916, 0.0786489733359869, -0.003794682282891564
-0.07206843034054247, 0.06640829707565869, -0.0035854105195070388
-0.07567872660845357, 0.1300754634759537, -0.007520713311100238
-0.07411215797109016, 0.10286218770974379, -0.006285502300256379
-0.07189183605658395, 0.06340300167712802, -0.003517510022121518
-0.07284549606092593, 0.08124352699664253, -0.0057269715539799695
-0.07145995475448497, 0.05724896823994112, -0.004719190442265619
-0.0764410710733978, 0.14321750426608396, -0.00800645842688793
-0.07586206334096936, 0.1324131710887977, -0.006696354474577706
-0.07502176388738804, 0.11719688680250984, -0.0053255111878466
-0.07169715237811455, 0.05711390309956692, -3.8674307814207225e-05
-0.07426320673038322, 0.15009253729551544, -0.02173243430496852
-0.0723601050859648, 0.08174095828311889, -0.010265901967371309
-0.07196980840512412, 0.0805897325315438, -0.01228966915250108
-0.07438839213680082, 0.12943054158418885, -0.015709321351058025
-0.07338534494479054, 0.10309315661831378, -0.011963678401391164
-0.0711994195499175, 0.06911403289917133, -0.012762332838364442
-0.07308472970819638, 0.1038686185571921, -0.01415850907053921
-0.0706546305500577, 0.05993900480435287, -0.012690992456226242
-0.07132761708491815, 0.06169047569296876, -0.009112033658151317
-0.07124105555793954, 0.05855512312073228, -0.008458736450234886
-0.07350039308391375, 0.1050803357100652, -0.011997726364413
-0.07173262069404132, 0.0702377869759588, -0.009825758463355518
-0.0726847570021678, 0.09348092815688203, -0.012708738776550522
-0.07130065608097698, 0.061710628747448565, -0.009289976802557599
-0.07197038666835806, 0.07744375258783755, -0.011082107155396754
-0.07128199956687577, 0.0693070501378267, -0.012314789502560522
-0.07521226424885165, 0.1432418562753092, -0.015792764629287914
-0.07223388499299678, 0.09233030953722972, -0.01511520900948387
-0.07239931598648672, 0.08603536242555866, -0.011661718062992108
-0.0726581733212665, 0.09414841081681119, -0.013132021101736491
-0.07238719849260175, 0.08181190169261848, -0.01012198384148442
-0.07257134634918927, 0.08507182820000446, -0.01020679628839975
-0.0734045912473971, 0.14917361557600217, -0.023970425116861656
-0.06956749604637887, 0.078220629863593, -0.021897165993829126
-0.07110557653957918, 0.08944728555806548, -0.018753721261917038
-0.07156016814194939, 0.11047238852691146, -0.021920075756867802
-0.07176591331444775, 0.11883450623555072, -0.023086307891433774
-0.0689085487459311, 0.05762951001722125, -0.019593832651086707
-0.07144374503974593, 0.10816129321751955, -0.02182003101166635
-0.06890475862163026, 0.058708249544757486, -0.019857477479524873
-0.07128518779769907, 0.10134995933298557, -0.020836374538801446
-0.07140854947381084, 0.10261339985879861, -0.02066821414123112
-0.0704865972015942, 0.09231445246283286, -0.021726866063170543
-0.06866581819131248, 0.06413010845344273, -0.022003206523589797
-0.06900265097455822, 0.05751335250727435, -0.019215781683594956
-0.07143654139796818, 0.11262719965607346, -0.022879828361750253
-0.07006756304803968, 0.08432310486489515, -0.021442373213192985
-0.06999001437304496, 0.08724677373431672, -0.02240799276146463
-0.07008856461571675, 0.08940457220386819, -0.022539282342538748
-0.07077145819422204, 0.08819201304915499, -0.019710304709241313
-0.06869410245496083, 0.06562084092461179, -0.022242440572527444
-0.06989169444578078, 0.0689299177486185, -0.018538436224170205
-0.07050810610291186, 0.09421376210137332, -0.022085884725026112
-0.07161361220975711, 0.10389950952945987, -0.020200392385827708
-0.06785697789824055, 0.09889487095407568, -0.030003001730696692
-0.06755053203712288, 0.06355132281534345, -0.024897394050247747
-0.06807515578878477, 0.10355190743074363, -0.030212558222916706
-0.06629037357010298, 0.05917762771148016, -0.027449623239523182
-0.06810201770294595, 0.08730042467632732, -0.027427867933230685
-0.06787503572770702, 0.06051973502710762, -0.023545623577214094
-0.06908051465753384, 0.10573105073072599, -0.027957518723957894
-0.06763590021266454, 0.06728161834684708, -0.025298125555608064
-0.06814132273652312, 0.10207932138607931, -0.02979420059076808
-0.06897517016677297, 0.1107806467812719, -0.02907545548392035
-0.06861584750960477, 0.07664190368570759, -0.024308852161381466
-0.0667385328664192, 0.06465148031820817, -0.027196501249794044
-0.06682665129134865, 0.07108062798951226, -0.028040895134258732
-0.06849631158874805, 0.09543099733257128, -0.027758859409748617
-0.06816117414693497, 0.09876565524316516, -0.029188957825155248
-0.06773504425817706, 0.06758742213889647, -0.02509092888691373
-0.0679643482845739, 0.07704774884648902, -0.02607386154070533
-0.0679251022764785, 0.08323230931661038, -0.02720919466172405
-0.06882339918007033, 0.10731868703476961, -0.028892533287483438
-0.06656976016372955, 0.05968820081995887, -0.026807083644157355
-0.06612400457650727, 0.061805774978801964, -0.02832204597241156
-0.07011570143045906, 0.150020817299506, -0.0327438027016127
-0.0638645076099199, 0.08858148624087477, -0.03652274203996822
-0.06519769959283842, 0.0905153501421615, -0.034161198812919555
-0.06323637708334437, 0.059984426646321524, -0.0339847120421444
-0.06549718933486168, 0.06587839882088366, -0.030324787289929704
-0.06590051289100707, 0.08495202706277712, -0.03204826712353364
-0.06389014813855479, 0.07512583680778193, -0.034698157580042445
-0.06634385725325032, 0.12636290274404616, -0.03663859103933356
-0.06262726606649249, 0.06272757758819679, -0.03554187432609061
-0.0639798465521478, 0.07515059750822364, -0.03452537907789441
-0.06629326005059512, 0.13565429820015007, -0.037963057298992
-0.06317540418794378, 0.07271042257987911, -0.035782428220915374
-0.0653170269186328, 0.07606335663838487, -0.032021365311395655
-0.06437381525037171, 0.09024665321968649, -0.03574273616969835
-0.06352763664808554, 0.07011876485529178, -0.03474939553072288
-0.06488586164468393, 0.07839477063484822, -0.03317499698382792
-0.06587520995672684, 0.09262681841444961, -0.03310992505164453
-0.06452449420603552, 0.09191991065406603, -0.035667647127883256
-0.06532166584226243, 0.10557006284999784, -0.035903015260720955
-0.06440454924954347, 0.09562192270970285, -0.03639120021441628
-0.06393014307103101, 0.07321213898431597, -0.034367322726554655
-0.06578446035235538, 0.12270241764281092, -0.037253800187707735
-0.06238634842100682, 0.15001487306186181, -0.045849602917587814
-0.06130014857956886, 0.10536832623100882, -0.04237477647712677
-0.06011935762700596, 0.058293095933129674, -0.0390188327802229
-0.05927829607939343, 0.0798211955163789, -0.042680186002575456
-0.0593798795933446, 0.07269819954961036, -0.04174084709318124
-0.061694079918021894, 0.07759908797293692, -0.03871595891526088
-0.06182639638337887, 0.05753790145917811, -0.03630721292974604
-0.061589854462691884, 0.10500168278111766, -0.04188836867980436
-0.06056249977911694, 0.10638927500552453, -0.043622874097468574
-0.0622266805806807, 0.12273606220061886, -0.042856989269536246
-0.06232659461122846, 0.1349052433571221, -0.04404069273652567
-0.0596748761476707, 0.0826112287475913, -0.04237616763236274
-0.06202858016066611, 0.10333269925719947, -0.041029345275955136
-0.06167278580440346, 0.1112027803431524, -0.04244225001062522
-0.05884623797144226, 0.07126130975229943, -0.04240465090779928
-0.060105579499953335, 0.06545953567141347, -0.03982773807432509
-0.0593263185002325, 0.0763010556146346, -0.0422193267723891
-0.061778079025620665, 0.08939915560384495, -0.03988359868077385
-0.06183638887902498, 0.057823386525224355, -0.03632320448488566
-0.060903980900937515, 0.07115616012097652, -0.039224441782042624
-0.060770428753723744, 0.06649958016158865, -0.03891827319791578
-0.06221301292139956, 0.10244080373095417, -0.0406473118354646
-0.05559492063201382, 0.05802806612635697, -0.045207935416777256
-0.05741044145122456, 0.11610559702073156, -0.048490483871752615
-0.05518352537434035, 0.07406914038273552, -0.04724184280952401
-0.056331138698947666, 0.06727729709520142, -0.045178601885031804
-0.05574308086392714, 0.07949710033549072, -0.04706717697672663
-0.05712251130522127, 0.14003064597481601, -0.051121874137391624
-0.05736895867950797, 0.12252794977181677, -0.04915262545702858
-0.05595329537219128, 0.10804966753971815, -0.049523596597130404
-0.055113380517847116, 0.0833396907935069, -0.04821030869679147
-0.05743310857733668, 0.1256991447481649, -0.04937506148954229
-0.05672712774907437, 0.08004115773027157, -0.045903737444916555
-0.055756451349147626, 0.06508622069921771, -0.045679856699548466
-0.056205356824821, 0.09427331571684912, -0.04790187698258032
-0.055794397090691616, 0.07712454993185641, -0.04677812234201595
-0.05594421430714548, 0.07337488466046212, -0.04623643399355047
-0.05690164964146375, 0.12741888668901136, -0.05019494346814714
-0.05587267796990972, 0.1141892445719212, -0.0502071667054301
-0.05487385730238756, 0.08137064546747952, -0.04831879217795648
-0.05387514737104007, 0.0598236534493596, -0.04750247237982068
-0.055364056718136045, 0.07932971216525972, -0.047519308513015966
-0.05569804959230745, 0.06048085115953967, -0.045313899039603395
-0.054839669286060155, 0.06374966997348219, -0.046684846902296476
-0.05158186588927832, 0.07853898887778119, -0.051490948871393154
-0.05040541925102486, 0.061900661493116876, -0.05125880694629739
-0.05066325670403915, 0.08770702502988392, -0.053185719456514485
-0.05107754451234515, 0.08426777295770457, -0.052480266173335295
-0.04865001179274893, 0.06034630463109838, -0.05288262600575536
-0.05049719918021345, 0.10467632284381595, -0.054788387174639935
-0.05082001908028011, 0.08608407561064813, -0.0528915589944737
-0.05237478492657907, 0.08570626582754089, -0.05130480582929807
-0.05054314566267311, 0.07406967985505816, -0.052151301696807026
-0.05176958442795365, 0.08071388200724701, -0.051487355138356825
-0.05143361037775912, 0.09716953329969125, -0.05321645463356486
-0.04942507393444663, 0.06995261335958736, -0.052920826763598085
-0.05179626401768763, 0.11091960428937583, -0.054017872749974036
-0.05116824836366999, 0.07936290573021831, -0.051974319254475695
-0.049594377220083835, 0.06520976855574383, -0.05234999701541755
-0.0485246452224351, 0.0646245382014974, -0.05337018528537501
-0.05206343751869079, 0.09006474426430483, -0.05198513968696557
-0.04983577141773746, 0.08331904112445948, -0.05364172197775946
-0.05119902134005075, 0.0743202710243454, -0.051516639987598103
-0.05128093346379809, 0.08789595233653286, -0.05258403629516071
-0.05145949289609444, 0.09181306513224256, -0.05273709689032711
-0.05074621433047749, 0.07053702745505895, -0.05164916063832926
-0.04446038293477355, 0.07208118335246143, -0.057282792280719766
-0.04510775096634127, 0.10162434900244499, -0.059034263301001484
-0.04382042195333869, 0.10079387327567378, -0.060012755770090936
-0.04443680628033618, 0.0686777323271626, -0.05703971747289488
-0.047309110085568, 0.06507387541127016, -0.05443615575659479
-0.04396800135365133, 0.08583656317237956, -0.05874109020569423
-0.04446923229879435, 0.07071263972927944, -0.057170207628862366
-0.044185448831034306, 0.09720057398974427, -0.059440370464876505
-0.04528635872861529, 0.09915350830468844, -0.058699300666126504
-0.04455194969314448, 0.09830416595808983, -0.05922859179561996
-0.047581104912877495, 0.064744253079775, -0.05419050684873705
-0.044495923518472646, 0.10086252625846451, -0.059471030923808045
-0.043769912351138335, 0.07877370820408633, -0.058357450543694754
-0.04472437045039229, 0.10535024012139872, -0.05963172467779368
-0.043899481548360625, 0.09946283838562617, -0.05984620499221234
-0.04521111650925992, 0.0570885093866349, -0.05551997554115834
-0.04355251460173553, 0.08133953811023124, -0.0587311418435084
-0.04432329945907051, 0.09260671036607916, -0.058974876598176275
-0.0428291534027013, 0.07462747701385986, -0.058799882941116544
-0.04410161313493005, 0.08264239838609165, -0.05838684732622269
-0.045520701424839966, 0.10451759942804945, -0.058922727201129545
-0.03877567030405746, 0.12890607705806784, -0.06531752725177555
-0.040822787885513113, 0.0672740654014439, -0.05958889979718223
-0.03691766460860241, 0.06453954361890821, -0.06192967247773544
-0.03704076382341552, 0.06973327974124734, -0.062220457364579596
-0.038669410098800865, 0.1298492782899409, -0.06545385685124101
-0.03685161629883664, 0.08592691486847087, -0.06349917706627356
-0.03766806750176599, 0.11491659742076575, -0.06503823927480402
-0.04162704939333433, 0.05975347945499834, -0.05852980447296234
-0.04020999089387122, 0.0878131612142192, -0.06145291006577122
-0.04040179398431855, 0.10114328383253722, -0.062279847808526016
-0.038336767309100725, 0.07206576077332194, -0.06154533207946923
-0.037056253925145645, 0.0688734406211477, -0.06214902357631238
-0.03985660354795412, 0.09857683340328281, -0.06245069963307208
-0.038258685478527635, 0.13154857743363138, -0.06584187323926811
-0.039133175937267485, 0.11031711632689827, -0.06375850052902676
-0.03864675270707352, 0.09596363971106989, -0.06304984093089855
-0.039154973194924475, 0.06513456807381307, -0.060519251783825334
-0.04009244644406485, 0.07345011624752898, -0.06050402010235413
-0.04173942969592062, 0.06212601509976185, -0.058626175140398785
-0.039421641300290654, 0.06743308771433316, -0.06051014579352732
-0.03791470581507546, 0.06745117483241331, -0.06149003054553179
-0.03959941152375043, 0.08756157056770231, -0.061831457840657626
-0.03249324192319336, 0.0979685545171723, -0.0665482766771582
-0.0307386257825652, 0.10536847578292566, -0.06793947537938905
-0.03082942900797884, 0.10657944409504565, -0.0679745700453715
-0.033087472947638835, 0.059620860780438295, -0.06366903885302563
-0.03181632187273741, 0.0815925126354976, -0.06579292917495674
-0.031158910552765675, 0.1143616374035849, -0.06832955226249045
-0.03078525350074366, 0.0737530352028913, -0.06579157433845335
-0.03129778183570863, 0.13599044791916468, -0.06971196631019111
-0.034068479193834975, 0.05900098124077514, -0.06312754373649179
-0.03349755254082002, 0.0816367553261731, -0.06493927242108159
-0.031441254440278704, 0.06692957493145206, -0.06499887831441992
-0.030480595760417836, 0.1082716933860008, -0.06826600631538429
-0.03198498828617118, 0.13629659793725804, -0.06938238661777388
-0.03541648722454737, 0.06513152776111199, -0.0628525921019191
-0.030008852325004574, 0.07112036774656588, -0.06601028952010689
-0.03199779719965394, 0.07812477716615555, -0.06546747658203825
-0.03291713289498983, 0.06155760529608831, -0.06388595522699766
-0.031194013444765717, 0.09342611483185345, -0.0669050738588978
-0.03357581713648969, 0.07596633935915914, -0.06451841704331103
-0.03239646726739966, 0.06457923584365191, -0.0643542614023919
-0.031163475661739305, 0.13319376147998113, -0.06959249802466852
-0.03153976973406732, 0.10247502806355022, -0.06733687065347882
-0.028230536574269202, 0.06745627094634737, -0.06652139061353884
-0.02682958898069362, 0.06930438266739045, -0.06717768957818399
-0.024401898764241814, 0.05863724458083146, -0.06742562546203712
-0.023722045247458787, 0.0754992864764786, -0.06876784072297737
-0.028033379319988897, 0.06887407728402625, -0.06668798814886752
-0.025902984520128618, 0.0990205100146615, -0.06943886166287502
-0.02660959236957881, 0.07778355783316504, -0.06780584636647007
-0.025276886657042624, 0.07388568124234986, -0.06806750234341097
-0.02519438496444489, 0.10967907598237599, -0.07039433032231586
-0.02343763967002027, 0.09995322634791019, -0.07044506252484448
-0.02486958505707786, 0.12426306915971681, -0.07145417425076557
-0.02579820412906984, 0.07148626514244678, -0.06771352352469892
-0.025622069853226282, 0.10616367459823967, -0.07000473541611935
-0.02534754357678405, 0.10495292037058226, -0.07003248371853418
-0.025188871492460962, 0.11922516561009426, -0.07100856473068326
-0.027123381649363124, 0.07211310039201366, -0.06724501053097283
-0.025231600017960387, 0.12396316973977417, -0.07129597422922512
-0.02621750852884954, 0.08328925906586448, -0.0683093975419936
-0.023162253284929577, 0.06332991144437566, -0.06820240363475322
-0.02753867596088441, 0.08345999300424718, -0.06781317763723062
-0.026928250252561365, 0.08729207301183237, -0.06829322899913
-0.02160940680868796, 0.15033194246053236, -0.0743604279403695
-0.016427520501864218, 0.0806822851138512, -0.07118565789064125
-0.015456142618934018, 0.08002970019358308, -0.07140549641166802
-0.01720968264783675, 0.12643049186014468, -0.07381129471209893
-0.016435633842133503, 0.12250783516361931, -0.07377559784495219
-0.017739648954123, 0.11662844955269897, -0.07306181366117248
-0.01641737194073072, 0.14112974769492387, -0.07493457325562865
-0.015154913685386727, 0.059357353746625964, -0.07020505458632557
-0.016299612038057795, 0.06747972603789398, -0.07040171028990783
-0.017620400448634728, 0.0663749534022987, -0.06997933551589143
-0.01877312217645841, 0.09063783200001685, -0.07117413975727417
-0.017225198717809906, 0.11330354254250598, -0.0729936021734707
-0.01674062112283097, 0.07903154342192395, -0.07099945838455984
-0.016670777399297024, 0.12072626752210551, -0.07360217918376835
-0.015457036291718573, 0.06222557631181573, -0.07030185681457024
-0.01824284126639808, 0.07279773082686714, -0.07021059947547778
-0.01635184787510983, 0.09028135525800096, -0.0718008312216079
-0.017412570738202925, 0.06506435626881721, -0.0699538002943933
-0.016794372440206755, 0.06325638970782302, -0.0700073997424633
-0.01746259831295533, 0.0783450746860582, -0.07076346006973219
-0.017439720264712345, 0.0715587876244544, -0.07034901411460873
-0.01819379286546896, 0.06142021546874078, -0.06951862722255668
-0.00603527627693798, 0.1500187357694922, -0.07712821422765236
-0.011212881302601795, 0.07386490371794452, -0.07173278321064123
-0.007855233282726179, 0.0732874950451258, -0.07222957855407963
-0.011820071055912408, 0.05784529715846226, -0.07066568045399317
-0.007949784428807885, 0.07997054733027163, -0.0726196574509332
-0.007994026777234152, 0.05753304704203416, -0.07125273244954132
-0.008153761771022582, 0.09367880766130122, -0.07341819707142325
-0.00822353435405414, 0.062058340250046716, -0.07149065671175384
-0.010829586552956853, 0.06569170826844042, -0.07129811984401441
-0.010515818877008259, 0.07336142119867275, -0.07181266982567658
-0.00824636357628473, 0.11901958484775307, -0.07493941354091888
-0.010732444538373648, 0.11056787580852101, -0.0740334117402698
-0.011821392037915357, 0.09076069710288509, -0.07266044561937221
-0.010510054055842322, 0.0950717451678628, -0.07312942713466579
-0.01073217147110249, 0.09384759441548374, -0.07302005296006236
-0.011325207768618954, 0.08885743132206085, -0.07262367704285752
-0.009611289051330756, 0.11157027039098621, -0.07427173706611617
-0.009729566330856101, 0.0689225117552437, -0.07166815968836356
-0.009426731222755204, 0.05820814066225714, -0.07106673445516065
-0.013202092703629516, 0.06609010718592331, -0.07094650378223392
-0.01252039230363124, 0.07795350908963275, -0.07177350366908355
-0.009124655114667786, 0.12273594504361862, -0.07502555324744778
-0.0029325166337700256, 0.11276209964118512, -0.07488134004806705
-0.0020221375418938547, 0.12425422901663516, -0.0756179450368963
-0.0007017332137840027, 0.10291249844123312, -0.07440779870764627
-0.0016171448513675624, 0.1224447280697785, -0.0755306961034683
-0.00529565360884897, 0.07678713965961285, -0.07260097644394845
-0.00031736121022461034, 0.12085124765405454, -0.07550328501104056
-0.0006889795556056011, 0.09751207152268326, -0.07408473653031891
-0.005679282051113233, 0.07626860750336684, -0.07254979013457889
-0.0020762110604998422, 0.08199509176254234, -0.0730818726756757
-0.0015941839629993295, 0.05924404492597862, -0.07174331213895842
-0.0028727394493528995, 0.10400702669321826, -0.07435964654088989
-0.005522833608125677, 0.07627557586455004, -0.07255840599313627
-0.0015227400126029498, 0.10833967110677316, -0.074690110467388
-0.005424182213591107, 0.07968578175973946, -0.07276800146731173
-0.0033508823940998113, 0.07226139678285767, -0.07243158818370038
-0.0023996319973489297, 0.08560348833380002, -0.07328123152382293
-0.0034237681011999527, 0.1057736698250961, -0.07443667383981174
-0.0048427093864998995, 0.06444498509961658, -0.07188485662371441
-0.0033736434081468153, 0.06868782429335042, -0.07221617641365732
-0.00269929495909386, 0.11591420794682637, -0.07508251546008385
-0.0009817013145372163, 0.08003318102489189, -0.07302161923211811
0.005917928109690537, 0.12572523256131582, -0.07550196469799421
0.0015421949607054765, 0.13479642229636224, -0.07627504825470363
0.005051502474045008, 0.09566635136858684, -0.07374548199169256
0.007208767339841291, 0.12687090114496646, -0.0755029961292568
0.0035333670165385855, 0.13171285949504521, -0.07598585662138649
0.005131837437155954, 0.09470807264665147, -0.0736838277999819
0.005410186448988698, 0.08790679109134901, -0.07326153643175418
0.0076999232710878995, 0.10703229159115803, -0.07428802668064188
0.006724459676879473, 0.13802202541546202, -0.07619683313733669
0.005188619672309165, 0.11849690631547702, -0.07510687995405621
0.004559490278986432, 0.0977334596814592, -0.07389517905938799
0.002665512522127384, 0.13506921428398497, -0.07623253378520325
0.00706235541378276, 0.06735209273189074, -0.0719427983801318
0.005514978065494539, 0.12860778067072548, -0.07569587624564142
0.0071847594395468796, 0.09100242163150671, -0.07335410894335596
0.006520301527288679, 0.11066054406077835, -0.07456734087293568
0.006062395523300384, 0.10658963844804034, -0.07434730578043613
0.005456481208540037, 0.13333560077978862, -0.07598235215573826
0.005660012054597465, 0.1108817218851579, -0.07462568259785311
0.00771284776919032, 0.1416443883360749, -0.07636218049722161
0.004644577322829194, 0.1173999092117844, -0.07506963052323147
0.006408223147991582, 0.0719519167146681, -0.07225281559029048
0.004426032411762797, 0.1255302436354711, -0.07556845829794712
0.006094055209083661, 0.07749875777127656, -0.07260178627542245
0.011133963041511633, 0.11009820663139182, -0.07394134597459118
0.015696824724168654, 0.14383541963694751, -0.07526343392096137
0.014987933871939155, 0.12578121731971714, -0.07428146338745893
0.012681955788570577, 0.11282369704847538, -0.07386135480132157
0.01412273912999353, 0.0980627653521296, -0.07273850769831912
0.01363392731586729, 0.09539685367362956, -0.07265435022645689
0.015251209518051296, 0.12085952257280191, -0.07394146463278539
0.012607547912961195, 0.10501715667356877, -0.07339999254545156
0.014856528842312318, 0.12252350436282858, -0.07410482906092813
0.009812248114969703, 0.13359966902726042, -0.07557509003881438
0.014801618132708708, 0.08942621059134734, -0.07210752875439785
0.01228959837507705, 0.13031811848935995, -0.07498382006089917
0.015982141803568727, 0.14673178450485283, -0.07539378971560387
0.014274828283359138, 0.08209465297857649, -0.07174660584806129
0.011251735863463369, 0.14121437846839538, -0.0758086157585705
0.014111345164348947, 0.13168073085941082, -0.07477786720014934
0.014649944590029745, 0.11747615574653342, -0.07383163386850401
0.011208526159462526, 0.14217154837698276, -0.07587347279306327
0.012814783649932854, 0.09571988177952605, -0.07280366973636483
0.012341697098613897, 0.1066343054816643, -0.07354011359424147
0.014909035036211864, 0.11596696890121946, -0.07369912704695136
0.01282753627792188, 0.12623452632889395, -0.07465111523989994
0.013610164650656651, 0.14724174684921645, -0.07580038656163682
0.023022561974293636, 0.13081746207693767, -0.07252563200840761
0.01903577870097774, 0.13573228731183448, -0.07389847091940885
0.020643238437558158, 0.11174051702457301, -0.07198085523456994
0.01724856807348371, 0.14586083348148815, -0.0750050682971609
0.019861172030582915, 0.09520682949526942, -0.07116572092320803
0.016801149540696045, 0.14122246677117375, -0.0748374863840212
0.019172584506665508, 0.11637115033824634, -0.07266189627243834
0.022156735925458394, 0.10671792041452807, -0.07126404230658406
0.019774051134266137, 0.1249388566516355, -0.07303172493012886
0.01942619538600769, 0.11233256633830788, -0.07234364875434934
0.022429721464091425, 0.11902976966031265, -0.07195393143607931
0.02130806715170338, 0.08685027848925986, -0.07026012994170427
0.022180004640397964, 0.14813444618189847, -0.07382462181422678
0.02178954185080967, 0.11560450042961315, -0.07191318138938341
0.02087535937593516, 0.11036639506943208, -0.07183349749182685
0.019042018959482432, 0.11799285968026016, -0.07279738710859207
0.01865116611368016, 0.11783945645693478, -0.07289260701464673
0.023379861498138896, 0.13215774784482112, -0.0725129603195965
0.022515289774474784, 0.11775332296139358, -0.07185189525706477
0.02194322949107671, 0.12073191336580141, -0.07218977603589938
0.01915419007559258, 0.13627060217828657, -0.0739001055436124
0.02183273760389224, 0.11060314754440742, -0.07159164542067649
0.021503603127921662, 0.09542758376944765, -0.07073932069122209
0.017182265129288842, 0.1493632307464604, -0.07528669575414115
0.02986519369696085, 0.14441667774112832, -0.07082886230882728
0.03060853534954165, 0.137777585724897, -0.0701178064931146
0.02836512164078127, 0.1446215929840614, -0.0714178257587978
0.028609790200161044, 0.10638594585848812, -0.06887214987613399
0.02470191276455572, 0.13469838120913669, -0.07218770131894552
0.02713744387245582, 0.0965356924421743, -0.0688057101965207
0.029709888047829276, 0.11965584063165954, -0.06930075754490109
0.027917245999560397, 0.08944690563090549, -0.06805182306324598
0.031095693837544073, 0.14486228459390854, -0.0703850907934726
0.028700937279910303, 0.14660667361578505, -0.0714162060603366
0.02550681452824193, 0.1247069057924517, -0.07123805235998491
0.027749137793720388, 0.11360950760987032, -0.06966571460446876
0.028426191061661582, 0.13228415151534478, -0.07060327867422114
0.02856019673637649, 0.10903890101180139, -0.06906130052762414
0.02958619998204373, 0.14230941813819808, -0.07080083571739601
0.027060920698636148, 0.09944429854209966, -0.06902159111556136
0.02692300507084865, 0.09746878925898217, -0.06894785783952434
0.028899935193427314, 0.07999222553863614, -0.06706834842475853
0.026152952322951183, 0.12202382917338199, -0.07081797829508166
0.02418423906686095, 0.1478239481555334, -0.07322805878931717
0.027015594246731015, 0.13876963330660744, -0.07156061996081163
0.03038843935788095, 0.13291581475526254, -0.06989054566422985
0.028790776910630745, 0.07233041771567411, -0.06661895787838523
0.03687857401263743, 0.12407032816926702, -0.06606760991031867
0.035309197739903896, 0.14156466426272812, -0.06804260833532368
0.03640187563703751, 0.10377247039294696, -0.06494678064325912
0.036589020627576914, 0.10081839594120613, -0.06465295519916064
0.035797383132303434, 0.1359441962145673, -0.0674162529068287
0.036911607930742836, 0.12308334566005898, -0.06598446756156673
0.033916081091535925, 0.10101600328927389, -0.06602815915007212
0.03719300393099528, 0.11308507171260607, -0.06516935193247747
0.03658057632927893, 0.14197956928870498, -0.067422685595365
0.03595310726993291, 0.08740899402118561, -0.06407605314842034
0.03437525549759182, 0.1324839630187013, -0.06790838451008074
0.03541158064415509, 0.12163030136693562, -0.0666511446181391
0.03746983228533214, 0.12066272938101258, -0.06553740874001171
0.03600155503587871, 0.08905719434230325, -0.06416210274941803
0.035754541231272426, 0.09051829977910414, -0.06438612716358216
0.03439230290600845, 0.10455260966876831, -0.06602312070186803
0.03577820044887033, 0.06513071028584293, -0.06266839814195517
0.037882873381563036, 0.12584434549332008, -0.06567508295670005
0.036058663369185964, 0.11003194138666866, -0.06554220037899296
0.03678814983293638, 0.1314616706748511, -0.06661027315692378
0.03501818438450755, 0.12434230108237014, -0.06703379621889516
0.03501974813712233, 0.14878779622334964, -0.06867537858600273
0.03615928028845446, 0.11828596671320278, -0.06604548319128208
0.041512227523865554, 0.13662702983565583, -0.06409154009919663
0.0427009717766071, 0.09352243069174065, -0.06024281294075838
0.04378203334992997, 0.11048056887478877, -0.06075121202503834
0.040898251377141016, 0.09068137690774802, -0.06121072287702815
0.039743400161021236, 0.12413999560083336, -0.06434892270661093
0.04187547631588113, 0.14858228824130654, -0.06470899358382684
0.04192342301104367, 0.07259968954421656, -0.0592543223535729
