0.050686701134706885, 0.07017431170115135, -0.02158072400534388
0.05107674355924806, 0.08211199803644095, -0.021743328365023143
0.0494635389670304, 0.04168830373729554, -0.021954527089829607
0.05235169900760598, 0.10476859833641905, -0.020659017383922527
0.05257705265780541, 0.09365537304512138, -0.018974657986779997
0.05114485149353375, 0.08303259603596357, -0.021656798928636818
0.05128922507172447, 0.08286550755015465, -0.021264195263899964
0.05115810332682175, 0.09076288310335517, -0.02238554696390315
0.05127019760498955, 0.08408993416699212, -0.021434660452527385
0.051033137003433725, 0.08218636986036298, -0.021864270537906384
0.05268727017615025, 0.10469533963007732, -0.019777591875956894
0.05337724688459265, 0.10485400968231047, -0.017995809169098716
0.051528360292748245, 0.1048339162705488, -0.022810335773873317
0.052480424402357465, 0.0998594694834026, -0.019838960778204635
0.05199074394369729, 0.0984164272344425, -0.020972138446530446
0.05250207860319307, 0.09251674632579256, -0.019057546625743212
0.046876291354472785, 0.035634510969152954, -0.026446758523022626
0.047173420704311304, 0.03632160502209424, -0.025933723204928445
0.049620978777693656, 0.037375076285973495, -0.021009447978434397
0.04788296485449905, 0.03050495466479571, -0.023580933637111896
0.04738000066619323, 0.030513228582079298, -0.024569536822252613
0.05454970104237624, 0.09577337378091905, -0.01262967048218177
0.053999229860552264, 0.0945502658229819, -0.014516843232991081
0.052375268401342, 0.0593117866909446, -0.01575992929678269
0.05395296800444996, 0.09316282495622674, -0.01449981105326262
0.05414732887466517, 0.09315738216002074, -0.013773701017251491
0.053813821270881204, 0.1012455070411949, -0.01612413913677469
0.05384980690411792, 0.1013416987544207, -0.01600298954528631
0.054686461570500056, 0.10317371117049791, -0.013131010022150403
0.052585601151501724, 0.0720000182345835, -0.01670962792671652
0.05464624351785754, 0.10434592244640097, -0.013441365055512649
0.05347143276300915, 0.09159620271867498, -0.01608274733724192
0.05323491274356998, 0.07613458549366997, -0.014851617468104546
0.052425877841885765, 0.06769041334880427, -0.01671653653119555
0.05381365005572675, 0.08275413369953546, -0.013596728629368691
0.054262100093784404, 0.10108781341848824, -0.014429577743596302
0.05374683876744716, 0.1022699090890357, -0.016514172887046034
0.053546933407513146, 0.10303806319312414, -0.017365249410551144
0.05354362389130477, 0.09097269978053638, -0.015728083651845644
0.054510801357874505, 0.10456666070498499, -0.01397702121834898
0.05392677448314134, 0.09549719968898784, -0.014916710994795232
0.0547110616632811, 0.09865502862891155, -0.012421429041563048
0.05252830325586483, 0.06905100168612223, -0.01652029194363393
0.050130279679925636, 0.0364552216976851, -0.01956373371224172
0.051637385280039895, 0.039452690146634634, -0.015735600893532545
0.052295263249895696, 0.0407186287933454, -0.013507049061019474
0.051003289155499565, 0.03327016647014169, -0.016675739497106972
0.04980981930570352, 0.03096200124104577, -0.019267349494021882
0.052097406573310204, 0.03285242660460592, -0.012502815115875676
0.051345861444019994, 0.035011296394200475, -0.01597772703357492
0.05536091576546059, 0.1056663301061313, -0.010422842671461513
0.0552257312449292, 0.09630825351266072, -0.009159653363452761
0.055856432001065805, 0.1041884113053712, -0.0069599586075694605
0.05547728768152266, 0.09542907921176827, -0.007372514077190532
0.05435110329048096, 0.08104903684607398, -0.011230375570414505
0.054962810475411704, 0.0843425963423177, -0.008113152808612804
0.0548800756823616, 0.08806352318848604, -0.009477166012727628
0.055441514015036976, 0.09384702272313158, -0.007240534155335442
0.055096922308223766, 0.09961763454458777, -0.010721481409921857
0.05400587755842211, 0.06990738769977456, -0.010889915875744418
0.05499225103074919, 0.09304385979568022, -0.009895423002924019
0.055099496139515564, 0.09261680695241796, -0.009121702896367207
0.05535660429956193, 0.09186363429867747, -0.007328011632325951
0.05571977141388277, 0.10035224579739623, -0.0069550983681647485
0.054815261074029856, 0.09565952093447827, -0.011604542907201951
0.05583544714044736, 0.10396941548655554, -0.007042917863142704
0.0558225579701347, 0.10598214466772146, -0.007579559809506855
0.05494998649613934, 0.08466011530437587, -0.008265940971057891
0.05528459114429235, 0.10589528536213368, -0.010956528949147573
0.054199794426517595, 0.0736972464270178, -0.010522797097516667
0.05419347572642767, 0.07303395262322024, -0.010412660682861622
0.05220206745841551, 0.035756291207602924, -0.01296652170853524
0.05233771672594176, 0.03588017793772298, -0.012482463371260716
0.052915538014658335, 0.03024143868832085, -0.006931687900832045
0.05277174120677572, 0.03154547548601636, -0.008509366784956495
0.053592966933739716, 0.036233915943155726, -0.00538692075839645
0.05382839868903643, 0.03929343734505543, -0.003602979828837568
0.052897294308503436, 0.0395519798138486, -0.010925655216041982
0.05547356990576398, 0.0834728553728105, -0.0024259226443248388
0.056343078562991006, 0.10678001444956658, -0.001592267268060881
0.05593783532142362, 0.09497711611567039, -0.0013449406960699996
0.055293456469841074, 0.0829196964236949, -0.005489153412656721
0.055467227527764076, 0.0843425528445229, -0.003135037173488175
0.05600792279224181, 0.09981176847713469, -0.0032765211631876484
0.05536806703433827, 0.0803849994200534, -0.002351365632436572
0.0550935921495648, 0.0736475228208939, -0.0030336338046304417
0.05597815918768171, 0.10074357531328781, -0.004474601803221941
0.05557160656246184, 0.08705887971272411, -0.002979818669177894
0.05550634078958455, 0.08488386973111901, -0.002754633941740423
0.056185156758593396, 0.10234196329265373, -0.001605085660493129
0.05482900556147128, 0.06945821815669734, -0.005250232450024123
0.056122932932483445, 0.0997673766128126, -0.0010516605694230706
0.05461423854711453, 0.06231585259926795, -0.004519260660014048
0.05531658653201013, 0.08111605502826195, -0.0038281445031815436
0.0549237744515545, 0.07253750158640186, -0.005523839202659211
0.05569531647831703, 0.09037784730330002, -0.0028631884642437225
0.05586601721767455, 0.09506521690860023, -0.0027750836087165553
0.05575377211047972, 0.09266314438155526, -0.0032929118971355424
0.05415702220931858, 0.050680082074190724, -0.005376793567051593
0.056222940689196255, 0.10226321467853224, -0.0008307717381945349
0.05349838895118453, 0.03937401953896872, -0.007077747581579519
0.05330204119136746, 0.037497295799230244, -0.0077615781984495605
0.03467144247533225, 0.0004947210693361795, -0.0020084136127345303
0.04125219111598867, 0.0016599085794029018, -0.0019313169639383649
0.04000515376428682, 0.00143302820838666, -0.0036333053931920235
0.037167899338951274, 0.0008472197957884542, 0.0007256158140622892
0.029449788563776187, 5.344387337146098e-05, 0.0019367638394746749
0.037697535562370856, 0.0009767291617057373, 0.003230912696464626
0.03333990131920246, 0.00035101944540917644, 0.004601963030358493
0.03702841892804361, 0.0009224281838751252, 0.006173135763308269
0.035948621524813505, 0.0006748101529717375, 0.003491972290177417
0.03073927619887519, 0.00012150265188249619, 0.003909583901514208
0.03987614763563061, 0.0014492947146375055, 0.0053578042127907155
0.033261758054024496, 0.0003935260398663026, 0.0071103994347994325
0.037410288342637654, 0.0011391510395318302, 0.009686987068628897
0.035832997914009915, 0.0006930797878361497, 0.00529002657751812
0.03211882367557234, 0.0003738885118116196, 0.010703136327632342
0.04008376930970367, 0.0016781760831811373, 0.01032332411812431
0.03717504200133824, 0.0012267486936899641, 0.01223125870757236
0.03162207262747686, 0.0002835379113069447, 0.01003690062389054
0.027417173060085828, 4.3633704859427465e-05, 0.010335725165546768
0.03703618461706138, 0.0013706399321816234, 0.014639286545836525
0.0282440428343652, 0.0001979931702690868, 0.016154449542741874
0.03508689775941792, 0.0011741451203095095, 0.016648898519059353
0.03457075318715411, 0.0007504661899749302, 0.012210872029191593
0.028100148191686315, 0.00034293515729558053, 0.01840088047426027
0.033708098077222345, 0.0010713637619280013, 0.01820113514412057
0.03441677673546748, 0.0013441909626603903, 0.01987257613541369
0.03276169512116352, 0.0006788129366372596, 0.01524550983723059
0.026216007228311175, 0.00011848629525743167, 0.016379749888411736
0.0254666913225582, 0.00030304289625039226, 0.021447792908519378
0.03480008380188901, 0.0015371300372048972, 0.021087744580220537
0.031636614726559056, 0.0012669232181803775, 0.02337071068394305
0.02315317262706646, 5.7453095050025434e-05, 0.01843817187255182
0.03306856402757327, 0.0016490640288045184, 0.02469708384606094
0.031378041504530135, 0.0014900470970730206, 0.025496939990964567
0.026861839366433916, 0.0008848775215808393, 0.02595460993066173
0.02725625617867798, 0.000711320445528087, 0.02411228466667988
0.022026819818437595, 8.66972467671649e-05, 0.020717705104033965
0.026799395643670253, 0.0011287289515394222, 0.027774584239854107
0.023340813259460882, 0.0005890879775132691, 0.026699236151243175
0.026114070689370036, 0.0013693186473767672, 0.03008657946967034
0.01884759616600088, 6.893187784000722e-06, 0.021424450595337433
0.022383352593222765, 0.00031237665673715436, 0.024793402012297485
0.024384701681542182, 0.0011808450021883242, 0.030251013479053908
0.024746060467273262, 0.0015107402214874076, 0.03212178731210138
0.01902678938025063, 0.0008412893128084548, 0.031910037057432485
0.02267885567936228, 0.000636924873134943, 0.027697767250012818
0.019264738650267323, 0.001028688275502753, 0.032894290079566
0.01746530085773451, 0.0005495828778526416, 0.03054094200128936
0.01874673663403298, 0.00111083927199295, 0.03365591024442377
0.013363178484436826, 6.919769462582093e-05, 0.026691606494258915
0.018403086042215702, 0.0005924217203330372, 0.03033381972561749
0.011621367673410904, 0.00028414085608096274, 0.031044081052556714
0.017824117050098655, 0.001520334753624858, 0.03646824362812745
0.01533070243510748, 0.001351199668391147, 0.03666466117690464
0.011264713498335948, 4.616919678232677e-05, 0.0271189025507251
0.013770757424556588, 0.001583768209036912, 0.03853305212135625
0.015078530782320758, 0.001504084206251729, 0.037596054216856765
0.009344440879266709, 0.000973394268208551, 0.036627514910305574
0.007996300307795806, 8.027082535691304e-05, 0.02900570041073588
0.012983737954493651, 0.0005945906076081709, 0.033019601128948944
0.010027710117333118, 0.0013521727600699304, 0.03844293950557853
0.006296146552768746, 0.00036509869672240894, 0.033178684992846694
0.004184284588198046, 0.0007984967160027777, 0.03670396817644179
0.008275436852873068, 0.0006738587265180994, 0.035130161573073554
0.003983570824028524, 3.5490278353486386e-05, 0.028857375492920247
0.006692100982677, 0.001683392358748049, 0.04087276536335842
0.005179070713636222, 0.0015744565845935855, 0.04055031098180267
0.00216672917435768, 0.0008012088322097647, 0.036857580090858474
0.004459600717427887, 0.0005000549815163107, 0.03449619686597606
-0.0022952054465246933, 0.0009207337040928131, 0.03746082883802207
0.0015713162162839642, 0.0014856862252363837, 0.04038193584785667
0.0004995879570620466, 0.00038196794339802884, 0.03390219203762532
-0.0033762130923394446, 0.0006147459212527678, 0.0355028026104086
-0.001096791648802973, 0.0012669384997397838, 0.03929044653997067
-0.0007567474872012075, 0.0004007117669192263, 0.034029737107782954
-0.0059929065584211245, 0.0007732981833346538, 0.036287501391610834
-0.00020274368288530326, 9.686213246134355e-05, 0.030474401106860102
-0.006509770284588639, 0.0004190298380278268, 0.03355512874687257
-0.0072219477851841055, 0.0016594240947798726, 0.040665189095724724
-0.007103674931852676, 0.0007105818231546975, 0.03567893115195414
-0.010566318603814946, 0.00108301698452891, 0.03687852968373438
-0.009146819531840437, 0.00027115114024896584, 0.031764249082682154
-0.008602010676640647, 0.0015691886448487504, 0.03997000366374601
-0.008335386839219831, 0.0013583497944865681, 0.03892902206489679
-0.007936348046037562, 0.0005687469082005206, 0.03440344081291964
-0.013785847339420374, 0.0010966902188253441, 0.03586832158752765
-0.007492312166319824, 8.217136847886265e-05, 0.029183009543362438
-0.012332328860629767, 0.0013361810372857154, 0.0377336446269927
-0.0121102688024199, 0.0005916405135342612, 0.033331160302163126
-0.01573574457388718, 0.0008608179071890393, 0.033759998273347996
-0.009407165640714872, 7.465797019814711e-05, 0.028487306919487622
-0.017192308610388105, 0.0006205057502411228, 0.031278078410756714
-0.017508679102779985, 0.001507567917545174, 0.0365559406958325
-0.014816776694665666, 0.0005376981909330396, 0.03179019754293906
-0.023376053745311712, 0.0014883127717037993, 0.033017366804288094
-0.014074253410889005, 0.0001659289256306919, 0.02866077558011769
-0.021222532315574968, 0.0015561847372171456, 0.03482833473444273
-0.021399529348013518, 0.0015763990130054422, 0.03483622821990256
-0.017478956799594235, 0.00040742783768475373, 0.02927662923755211
-0.023519227268771488, 0.0007592919358687768, 0.028187357965068216
-0.02000100329326474, 0.00025182166776361746, 0.026143096481764053
-0.025701617196365288, 0.0013763890451365765, 0.030466910325967274
-0.02035088667383255, 0.000459554983967994, 0.027868111818312377
-0.02796823576459196, 0.0011163119702225209, 0.02651622786472571
-0.01906184010333289, 0.00012332715476350337, 0.0244685069789177
-0.023545209922693863, 0.0003012569024253246, 0.023513372233482804
-0.02612268475889526, 0.0012032090886095242, 0.02898807899220608
-0.02406740399257623, 0.0004685090436371609, 0.024768335946403777
-0.02843183956432544, 0.0007733443448755752, 0.023331119179150053
-0.023375415422206114, 0.0001708895567837321, 0.021926106600782785
-0.026492536061432287, 0.0004164087114183623, 0.021534429735011813
-0.030796029968821626, 0.0016625755985075462, 0.027612793763756242
-0.027421617099996225, 0.0007323619425462639, 0.024159261741974
-0.03102452671063792, 0.000843094802364123, 0.02040721083181598
-0.02909420249692523, 0.00034882053008719946, 0.01695133740799922
-0.031177401954358863, 0.0010773700773670507, 0.022364001019506443
-0.030305308037286927, 0.000635127471801739, 0.019036083742380857
-0.036444967525774946, 0.0014493925338777904, 0.0170733605231757
-0.02588175388373307, 0.00011292289507807329, 0.01667504669486513
-0.031102670037349428, 0.000455094605278928, 0.014798990158172985
-0.034351024265570254, 0.0012852369246255783, 0.019340203685460987
-0.029339470588903096, 0.0003391357728846268, 0.016340385363259352
-0.03800285704030584, 0.001402755586063255, 0.012577675758614255
-0.02791341755684696, 0.00015963596938923944, 0.015243273640510958
-0.030697177495657382, 0.00024092638655117727, 0.011618937262053914
-0.03691202739035974, 0.0012939321795537783, 0.01387178521216359
-0.03099764930647593, 0.0003392420359881873, 0.01289743574918296
-0.039402933179097044, 0.0014909791472097467, 0.009178089711458736
-0.032781023821955385, 0.00037266656511192407, 0.00829891091002948
-0.039753872126267735, 0.0016215800898772088, 0.010440028397860446
-0.034831951269832045, 0.0006916477870877351, 0.00990467390561154
-0.036949089449264366, 0.0008552223072813975, 0.004484503593805138
-0.029567855318669317, 0.00011990992853447885, 0.009187219832811254
-0.03613050754941851, 0.0007044186100098744, 0.003956225251356907
-0.04047855018819339, 0.0015540741358553345, 0.004967793306664183
-0.03502533869680321, 0.0005888097082438233, 0.005381305083940936
-0.03671574034721656, 0.0007797324878563173, 0.0027814413148429208
-0.03089991606445421, 0.0001335466523572442, 0.004548553378172086
-0.034652013653975626, 0.00048241593266369604, 0.0006120903405609766
-0.033118635257095255, 0.00028468733263949564, -0.0014842935020511498
-0.040053631337529635, 0.0014484214307468434, 0.0042062966813414815
-0.03917982370384447, 0.0012355002996912083, -0.00014565886194364732
-0.02909424044138185, 3.872321536557028e-05, 0.00268028490163856
-0.029113448366126442, 3.814433331033584e-05, -0.002076225314789882
-0.0396370982686494, 0.0013519601761805013, -0.0027609744172455222
-0.033943419698228464, 0.0004111334043466146, -0.0036785320187683306
-0.03861127397703932, 0.0011763578930807106, -0.004451887434043289
-0.03556241115899074, 0.0006250133078635407, -0.0037121596430012586
-0.0290380583484343, 3.728439274706819e-05, -0.0030887186141463087
-0.041075331601173055, 0.0016811748772845277, -0.005340538434226839
-0.03787237414877706, 0.001190136161942874, -0.008966257553017352
-0.038458598275727826, 0.001320987542228243, -0.009355025908623485
-0.02825762080699393, 3.85875164364232e-05, -0.00732927150100397
-0.03928402713362637, 0.001626521622135011, -0.012290736048522675
-0.03217264126539636, 0.0003749359853734428, -0.01058475955598787
-0.03719501286582162, 0.0013026902741594569, -0.01325906937114462
-0.03245957295907304, 0.0003819898359665473, -0.009769177348805839
-0.02749871638304469, 4.710334267810321e-05, -0.010331109189775175
-0.038399573134857305, 0.0015776800463617488, -0.014031755063121001
-0.030790141491717705, 0.00044529903310582187, -0.015250217328393496
-0.03551786896003004, 0.0012372836804540879, -0.016511764818941958
-0.032396263637012604, 0.000540848380701205, -0.013480693461763187
-0.036062858226544724, 0.0014760789773463551, -0.018122830163170556
-0.02914814364834441, 0.00047378258128200496, -0.01859209739536565
-0.031985471101474004, 0.0009605356308869477, -0.020026349717286326
-0.02914754318496479, 0.0003405187235802165, -0.016739920655016387
-0.02658883037482447, 0.00011531183862617617, -0.015680405385911516
-0.03308969200430655, 0.001543097367050955, -0.023777256316059356
-0.025298843447665163, 0.00023435713992830736, -0.02083495812973203
-0.02860116550378887, 0.0007912692963979263, -0.023267101871072955
-0.030274647786150244, 0.0006045755489983197, -0.018661754115886987
-0.03235600226088431, 0.0016412353537533157, -0.02551352892411611
-0.031215281993724163, 0.00150804065947688, -0.025843552027156
-0.02571875394049818, 0.0008781307368114784, -0.02704899523281909
-0.027276527659973862, 0.0005950572078820863, -0.022699091760282987
-0.019898869280046774, 1.2157486591526568e-05, -0.020581724049085533
-0.026293749287348726, 0.001094878088829665, -0.028036183928176577
-0.022963107056317638, 0.000522971238514002, -0.02636581927549111
-0.025049951812836466, 0.0009044354579238617, -0.027899579575547895
-0.025917358997103193, 0.0006590405078771258, -0.024942822793213776
-0.01766063583239606, 2.0944909967038947e-05, -0.022773881958080257
-0.0229814697284492, 0.001190030785905832, -0.03144749391589123
-0.01904539042685497, 0.000465487896498679, -0.028779457801141144
-0.02284877329313343, 0.0011801843494135122, -0.031487313165075644
-0.019863769027380285, 0.0002953580293890066, -0.02667507037767367
-0.020286145732310676, 0.0013728575970139512, -0.03432233379010884
-0.014605812401318856, 0.0002152068375523176, -0.02917820328788405
-0.0183654240915593, 0.0012564167077546444, -0.03468280105538575
-0.018396899085743997, 0.0004529750006310468, -0.02908849182751774
-0.013553919413804284, 5.584785537126937e-05, -0.026272583397336968
-0.01672482534870918, 0.0010658439318750957, -0.03442868546627047
-0.012108490168532842, 0.0003841221613665594, -0.031661676502625025
-0.01566201723008415, 0.0014378958954502793, -0.037010689930479915
-0.016952831272396666, 0.0006379932167801535, -0.03154749465297057
-0.014444109874701808, 0.0016068360829305474, -0.03840045091090817
-0.016713320853294078, 0.001671540258381285, -0.037882592730913364
-0.008814019309964595, 0.0008583032812995316, -0.03616237513619798
-0.011921307292869946, 0.0005454024928357726, -0.033031507838900694
-0.00871098981526761, 4.987098577102692e-05, -0.028138260630861472
-0.009017384378509402, 0.0013080102087930044, -0.03848061760134252
-0.004804806784018102, 0.0002529363559215606, -0.03256162675470121
-0.004110444871285613, 0.0007924352802204275, -0.036684340532268794
-0.009156819141050801, 0.0006235886058207404, -0.03450293571892654
-0.004140271595322489, 6.648467116534298e-06, -0.0282053803205545
-0.0063044495494285185, 0.0016190330886477506, -0.04060203036916566
-0.002685344541617996, 0.0008817234238451129, -0.03724125240644979
-0.0027807926594743443, 0.0012750531399050706, -0.0392435679136858
-0.006481944081396066, 0.0006342885397463478, -0.03519697613786034
-0.003455699497245194, 0.0016261999514415486, -0.04100023990874786
0.0028820338180130783, 0.0011191899477926309, -0.03844283212101664
0.0030839913659912485, 0.0006391737231966607, -0.03570185539360911
-0.001620832412620548, 0.0007224871961264901, -0.03640535983603502
0.00036722573973810486, 0.0012412911025652426, -0.039197743959243234
0.004834487337818564, 0.0009111864577612952, -0.037182412169729784
0.0012405588737475761, 0.0006226681164803551, -0.03567427499225899
0.0057622752659343655, 0.0002045502173225166, -0.03204190203482885
0.001145471307014216, 0.00014694193721171317, -0.03150192261079731
0.006352531571455105, 0.0014700239312773512, -0.03982554059223337
0.005680547981465531, 0.0006398511591611191, -0.03536621827898381
0.008665156780574454, 0.0008391046352817604, -0.036100969932658794
0.009155714746969855, 0.0003243874995922065, -0.032175907658052685
0.011673827304434368, 0.0016846811517158364, -0.03975620421755944
0.011650041831606242, 0.0016453871083853327, -0.03955525551535521
0.015432768116421162, 0.0012830293394135042, -0.03625328657494922
0.013431142119057392, 0.0002689906459693442, -0.030227375005307117
0.008309842940217457, 0.0001881923780406079, -0.03132109255807591
0.014715686185839225, 0.001608169385743073, -0.03830348716583053
0.012234219102292731, 0.0005105992025382953, -0.03263130159959758
0.017963976754547, 0.0011123428006323396, -0.034063292265240894
0.00994255050439863, 7.762753016664272e-05, -0.02835003869057924
0.01659849516530304, 0.00031911477589570024, -0.02903911155563956
0.016464388134572714, 0.0011232561214177244, -0.03488978697483893
0.021623018869492985, 0.0011737850174685363, -0.03224446366993741
0.014893944304805864, 0.0005023983499989294, -0.03145315696144518
0.01741132389597653, 0.00023178616558363314, -0.02774697960692266
0.0200435300217504, 0.0010744747719192156, -0.03266671884302837
0.021903326980968606, 0.0015433897652970294, -0.034308431244883184
0.02450449280728284, 0.0011009237628273063, -0.029629838724807893
0.025314040298671337, 0.0011298625252306215, -0.029164053615183847
0.02373556224297198, 0.0006465391031748531, -0.02693495840868213
0.02368558346548553, 0.0011141549923339763, -0.03037974940782585
0.028540946662939663, 0.0012784806530340793, -0.02711232460020512
0.021185694679618648, 0.0005659001389362818, -0.02822019670838105
0.02392051400327081, 0.00032928469344073094, -0.023435857104626312
0.01873618121414456, 0.00011917613412425158, -0.02461746977883536
0.029870821136481793, 0.0016362553203581208, -0.028361077115811067
0.022226525602021537, 0.0002605026313246403, -0.024398974592724512
0.032352426980578615, 0.0014726681760301636, -0.02415287583234008
0.027626266770434595, 0.00047242740448798183, -0.02080318818113662
0.028325780410116325, 0.0010203611196694814, -0.025462494186968415
0.030666427246212893, 0.0016044684116513692, -0.027302294133922433
0.02634229077229843, 0.0005596492980308764, -0.02343011408674177
0.03217569227878055, 0.0009560322335632516, -0.019691340206452093
0.023797570993614445, 0.00014844429167020135, -0.020747470282993695
0.03416099008909341, 0.0015980793584309267, -0.02264213772523596
0.03272723834185917, 0.0007798863150504046, -0.016854079735320035
0.028399001674811, 0.0005097457523112682, -0.020241835408201687
0.030117770065774492, 0.00032336303973264075, -0.014551908749741181
0.02732084906903321, 0.0001756271209988759, -0.01693153172819074
0.03690253389819549, 0.0015811166105091049, -0.017654066693235358
0.03326113465344978, 0.0007241153863855166, -0.01501502562849185
0.0365132857498919, 0.0011461785270546927, -0.01280940262519071
0.03378208375328755, 0.0006080989462939464, -0.011280607799098338
0.03820879790859044, 0.0015878681776515127, -0.014673775933921327
0.0366201479347121, 0.001249655664682063, -0.014002576069662747
0.033841318306248556, 0.0006973821013824622, -0.012998164727212057
0.03639341754521137, 0.0009876065226687583, -0.01049800405353898
0.029228789934414037, 0.00013449436800527562, -0.011061297287749138
0.03431911579727954, 0.0004992914824360221, -0.005540913844096907
0.037352278422262325, 0.0009050378966518925, -0.00283779713093521
0.038567896255240715, 0.0014807941410765776, -0.012094100128001129
0.03331112297404952, 0.0004985626588184907, -0.009975456163463117
0.036317897721228266, 0.0007878328803729473, -0.006274379409828844
0.04041081104148671, 0.001600943329079094, -0.006922763153975291
0.031237446600289445, 0.000176408075202604, -0.007644366496247168
0.031906028106013146, 0.00019230060975858668, -0.006032081397832012
0.029773411874726218, 9.432223013377233e-05, -0.006276491108346846
0.03270993152761697, 0.00023322457283422496, -0.001895458994501473
0.04544435372129434, 0.0036523177605985477, -0.0015286588896067435
0.042741510153828696, 0.0023156937545952528, -0.0019400077924205696
0.04488200351066575, 0.0033182550215763804, -0.0023786248743353183
0.047249312854591954, 0.005015310899956037, 0.004448293176136996
0.041640623491740164, 0.001820429292042655, 0.0025525943174501816
0.04345995403868956, 0.0027995632929259553, 0.005767900930982355
0.04371175565640773, 0.002782295709413146, 0.0026391434736986424
0.042874074180191166, 0.002746769302022241, 0.008739719758022188
0.04672745888867985, 0.005024004994251612, 0.008167476101165777
0.04114360355789556, 0.0021587900368048012, 0.01044998903977235
0.04267213006026721, 0.0029979773897086427, 0.01173276463447831
0.03979221025964884, 0.0022412502924440483, 0.015277054009562537
0.044557700740474285, 0.004453646508637496, 0.013801897180936266
0.041654538721048684, 0.003224107096276938, 0.016335784216900344
0.043951925204108025, 0.004666975129404554, 0.016421692682121368
0.039014052940158736, 0.0025837874026580347, 0.01894407375285948
0.03792879044739096, 0.002727748614782922, 0.021757366492185355
0.04254308514562097, 0.00553924795246526, 0.02260581432072728
0.03588522525490376, 0.0019310197906748, 0.021775183577545106
0.03507028661938277, 0.0024616127200660677, 0.02512950415929764
0.03897895743502368, 0.005171119095023711, 0.027450098727360917
0.035112439458033474, 0.0026665202452508005, 0.025826294993618944
0.032937208836257996, 0.002933086766672262, 0.02942528233294056
0.03269147295730681, 0.0029645798064316096, 0.029792467535456214
0.03471154627557818, 0.004020524467088688, 0.030214127090742914
0.03242431361401386, 0.003132603868657063, 0.03057170266029217
0.02736032655308244, 0.00222179343009984, 0.03263698512753048
0.033701233859219575, 0.005578004884114645, 0.034498654766401425
0.026774771343907974, 0.0031089019277555684, 0.03557108131971161
0.028323199175523214, 0.004888291141487837, 0.03784463823695515
0.02944884502217556, 0.005337705041838482, 0.03776269586789388
0.023002162431813623, 0.00259153865332646, 0.03678565435830114
0.02338596364389004, 0.003342584628789577, 0.03846625551102785
0.02697103917089919, 0.005134343565134662, 0.03922717280521583
0.02122357573988595, 0.002155579079372707, 0.03681693686009627
0.021554538917756254, 0.0032409035628863463, 0.039273278606171885
0.018677959341547166, 0.0038191484707615487, 0.04177500760944764
0.01564094137891626, 0.001993430628618632, 0.03908048980513268
0.014706146725414516, 0.002964512238765817, 0.041680886798708294
0.013862819917650593, 0.0033285527705146163, 0.04283891841041997
0.01576376997190379, 0.004227085603580836, 0.04352854904681861
0.009927020407452499, 0.0024125474647210005, 0.04184988726395055
0.006254539082102773, 0.0021746166693180366, 0.042019362550629345
0.01181069563124508, 0.004388748865330172, 0.04499488787230695
0.005906985237869138, 0.002339234611583684, 0.04243358512568056
0.009318733668821097, 0.005535984160425103, 0.04728877113755532
0.004040403941550527, 0.0018831028397893613, 0.04169793362674578
0.0012412400012287513, 0.00414242113480712, 0.04616347071182736
-0.0009611734604246441, 0.0034222124694097697, 0.04514354680734886
0.0008209467146510272, 0.0024144912964126084, 0.04301334728577391
-0.000586763430859414, 0.0017806900075514162, 0.04165789787933754
-0.0010125067525478873, 0.0030451839668755535, 0.04436431910024638
-0.006019981135189092, 0.003492539017051469, 0.04484324859145378
-0.006902983906137944, 0.0020149970476916164, 0.04156839596960246
-0.0075578820579709815, 0.0027994162386548154, 0.043176161188538564
-0.01247384546537407, 0.004210546772744398, 0.0445525359614799
-0.013355282956817425, 0.002832276821640992, 0.04186772156412073
-0.008965498860291436, 0.0018444388182591652, 0.04084008998925553
-0.017725601369338026, 0.0038159992894171635, 0.04214380591867346
-0.016467437819215912, 0.0016988052887002589, 0.038083143361634084
-0.014356172178010124, 0.003013713073785151, 0.04192881106715182
-0.020141402436015015, 0.0037071537328890835, 0.04084903928869282
-0.018319590982468836, 0.001724117876281003, 0.03725304412609022
-0.018646221903265852, 0.002257318417090196, 0.038376221447100824
-0.0263796092091875, 0.003847188400073605, 0.03740953145225068
-0.025477901468721177, 0.0026449827255540176, 0.03531519613420846
-0.022504371575177127, 0.0023231284498537955, 0.036419219738709194
-0.03088284921943503, 0.004892275786918439, 0.03577921824171643
-0.025532589437119415, 0.0019459315928433486, 0.0333520801476821
-0.03225566395865928, 0.00414264826171143, 0.03303218623970361
-0.025572594132936107, 0.002536587105939496, 0.034957556966536824
-0.026629018022165177, 0.0029619928881318173, 0.03528172144208696
-0.032039759257885624, 0.0032571367858908176, 0.03133577083804111
-0.03212779486596231, 0.003067747902417277, 0.0306705449886465
-0.03457977698306805, 0.003379321039758582, 0.02891518774399173
-0.03541145784804439, 0.0028807898778991634, 0.02619075263551872
-0.03597592679569298, 0.00325625135651865, 0.026779399499846507
-0.03777621864353946, 0.003574080196087768, 0.025095606123385194
-0.03780897189911365, 0.002774863995078526, 0.02215174021632147
-0.042403940730180244, 0.0044562531083705646, 0.01945672857776411
-0.03646403824499321, 0.003164803708455541, 0.025765649916378943
-0.03865999695096141, 0.002422959176249563, 0.018875495939190436
-0.043724639818519734, 0.0040705980580781915, 0.014626480250069174
-0.03858153732773753, 0.003060515774976221, 0.022055855611900516
-0.04220233465606006, 0.0031079964623718535, 0.01421053154805456
-0.038560304688462964, 0.0019104720927643766, 0.0164971360240402
-0.04504230112497637, 0.004333347678340217, 0.01132653375941663
-0.039758787218443295, 0.0017319921420526547, 0.012064485300987358
-0.03999729277204789, 0.0019193436949242223, 0.012734322583031945
-0.04598384442332741, 0.0042124188054960005, 0.005419813213394985
-0.04216146611922912, 0.0021712791433217346, 0.005311020464721844
-0.043555553522802465, 0.003052703223456843, 0.00865138753728063
-0.04522823151324262, 0.0035016154562196554, 0.0015212808128090192
-0.041624489446231705, 0.0017595647627478782, 0.00035399570386907236
-0.0429290490362135, 0.002370552972134554, -0.0006197353267902062
-0.04479454352325871, 0.0032997507531377164, 0.003284874194202789
-0.0443100977732714, 0.003101140113162203, -0.004350430561534933
-0.04284985146368575, 0.002471890708538726, -0.0051057840462280105
-0.047680691877298356, 0.005249024919723304, -0.0026228871927638057
-0.04354289409982667, 0.0029377177248010432, -0.00714723405098203
-0.042176648065869314, 0.002602996308667778, -0.010293082407234097
-0.04714202083259121, 0.005204577697525376, -0.007205804399272787
-0.041589882241424854, 0.002571720427240895, -0.012222518960147047
-0.03878674224716508, 0.0018156808104110474, -0.015337186590523466
-0.04384030533119885, 0.0039968278171171245, -0.01394719016181949
-0.040376287815498256, 0.0028807443146629313, -0.01760088162723196
-0.03783912690742628, 0.0022911339773185025, -0.01986073946791062
-0.04473930499922901, 0.005401037234284837, -0.01730887197888681
-0.03750859998303402, 0.0025224408822616903, -0.021607412009870323
-0.037415601030316846, 0.002727150547120691, -0.022568612320749408
-0.04055992585762833, 0.004390194004277183, -0.022867033561451127
-0.0372972822021092, 0.0032450706085627636, -0.024800081802403798
-0.034539282254622536, 0.002271301267161274, -0.025180633461807753
-0.0402197200068753, 0.005083669259460975, -0.02530907488079021
-0.031483301316392584, 0.0020167832989877676, -0.028082895255104778
-0.03319053863265791, 0.0026262751422662343, -0.028061736962769063
-0.03599133587331417, 0.004817801838587345, -0.030451059643730145
-0.03249836619535117, 0.0029009098235638436, -0.02979145600742268
-0.03236918102649413, 0.00319940697499883, -0.03083035436881237
-0.02892747792544806, 0.002794333825550866, -0.0329554975996623
-0.03246884088136391, 0.004609078691427315, -0.03376524589225333
-0.027952863594444644, 0.003093923853995571, -0.03457547568316996
-0.02823029073397678, 0.005064297451654722, -0.03824469569630304
-0.023101078299598392, 0.0017008915455493082, -0.03443277776323168
-0.02421288941841907, 0.0031373399532036612, -0.0374017805805411
-0.024586929047877657, 0.005464827288549724, -0.041340645990319246
-0.020466317339723972, 0.0019595936509247723, -0.03672869149657394
-0.017862749260340576, 0.002044710346848739, -0.03826114085957057
-0.021813323967604763, 0.0055733351392157834, -0.04300170392174327
-0.015241132892198207, 0.0017830718568354656, -0.03874833345877531
-0.01498887608908915, 0.0026537693791031953, -0.040855013215539
-0.01575213119765022, 0.004931918344510523, -0.044616014513758226
-0.011736643593181675, 0.0025570968133135498, -0.041687446334600295
-0.00970411973734732, 0.0028867075431225925, -0.04296743239479306
-0.01081391696843385, 0.004277077718171985, -0.045096067738125245
-0.005865187475597659, 0.0017609929980679688, -0.04117850760933335
-0.007498750986329198, 0.0027516501260956743, -0.04308125388099618
-0.002360951686791669, 0.0021842385627812468, -0.042435717430771625
-0.0058649525746660505, 0.005158770583800867, -0.047287837936357185
-0.001459864508522362, 0.004078364586851483, -0.04605993643217439
-0.0018872784400850867, 0.004989958753987458, -0.04734706556301929
0.004710750906687716, 0.004886256294477842, -0.04705012383797434
-0.0010532088414007394, 0.0026505014114622614, -0.04351042288300274
-0.0025843509008985025, 0.002623577854955439, -0.04337207797796132
0.003205401735125397, 0.002946574968677762, -0.04403654518641867
0.006912296588874206, 0.0034929978312779665, -0.044702525898478715
0.009059083915431927, 0.003034817431940415, -0.04345195616983
0.01393900059120291, 0.0035287331322808803, -0.043147283671288755
0.004516735776566546, 0.001991317945681448, -0.041894617671341235
0.01167959602024179, 0.002382094869576915, -0.04131230226363247
0.010790593811920504, 0.0026692861875667016, -0.0421912408411251
0.01797185605646653, 0.0036894812287024646, -0.04185480169790057
0.01826810183764249, 0.0033397502848310414, -0.04117970244777466
0.01321107655104482, 0.0019243206747676296, -0.03985365583090479
0.022855038901516963, 0.005092950309540189, -0.04169750223126369
0.018887771783369294, 0.0020414437906632913, -0.03773098338596427
0.01795244492302548, 0.0021093053297867523, -0.038371684797094935
0.025282435702618948, 0.003953379552028625, -0.038303657004364756
0.02305139736195027, 0.002156292975490532, -0.03563525068459051
0.022899471464140966, 0.0030551873240616044, -0.03804365922347255
0.02907679324828017, 0.004245049731844149, -0.03604695999274509
0.026716794037910892, 0.0017065554579202328, -0.03172931236421458
0.025147105110844635, 0.0022727492331573117, -0.034570470957613744
0.033956377119399396, 0.004652497517859214, -0.032365837474902015
0.03185278670941243, 0.002355886846673124, -0.028776062578653477
0.03143720801469698, 0.002806322855313847, -0.030564393289175495
0.0376998178169954, 0.0049488279103144465, -0.028639998413005723
0.03395075051727293, 0.0024405387236176345, -0.026486982371826936
0.0335608668427353, 0.002710273652908957, -0.02789212219173081
0.038750540957764854, 0.0037099275424066175, -0.023953058751343605
0.0360837666157323, 0.0021682154284882065, -0.022407930970779748
0.037688748121834634, 0.003070703974406494, -0.023507391898657887
0.04178539155681966, 0.0045218690397316194, -0.02087807122272308
0.03912495411152092, 0.0026364455154941247, -0.018976390994445647
0.03835151087992422, 0.002472423897920094, -0.019715772803990197
0.04388732313894614, 0.0044096855152402185, -0.01556006358186746
0.04138443941008298, 0.00270765273262593, -0.013933819876306925
0.042047542844687855, 0.0033477413303376943, -0.016055489104324763
0.04390820826798733, 0.0035553159407431317, -0.011246709095781095
0.041612605260121616, 0.002300911720933784, -0.00988307568333256
0.043299495586531705, 0.0033021742252018742, -0.011924281015014155
0.04458528643189939, 0.003457691652705175, -0.007329111111428156
0.04101714447580108, 0.0018305643352071327, -0.007842708820845843
0.0423979384099334, 0.002524634350901593, -0.008686022428131289
0.031133642759172176, 0.00013213671022978783, 0.0020981184977285658
0.027942008270818643, 0.0, 0.0003487644696873197
0.014300135994716377, 0.0, 0.0006443956344987294
0.02636725143644647, 0.0, 0.0015871371727958533
0.023715642194517335, 0.0, 0.0022407178900707785
0.01595935886687854, 0.0, 0.0009705166393480267
0.021392999656294688, 0.0, 0.004152711970048845
0.021894751921341646, 0.0, 0.003930619337641262
0.02346073727561931, 0.0, 0.0038656559444118378
0.021769441908181295, 0.0, 0.0036817790250219316
0.031530154603690165, 0.00016431240536582577, 0.004793167772501817
0.01427093217598698, 0.0, 0.0036040629108042713
0.006379580773181538, 0.0, 0.001837906786146781
0.021097666928584297, 0.0, 0.004622196082466834
0.017971764981240573, 0.0, 0.0054276462862116025
0.01364337995774597, 0.0, 0.0033240242352924
0.009850013691821173, 0.0, 0.0037534725708039734
0.01995773716762885, 0.0, 0.007145089302361093
0.019193331650557765, 0.0, 0.007648737561696187
0.021512111420855164, 0.0, 0.009357841320297846
0.025312323290324523, 0.0, 0.011246823036137296
0.028061082853328444, 8.808003950493361e-05, 0.0113217688966575
0.026024723874128616, 6.526206036089755e-05, 0.014485789715838625
0.00871525304094617, 0.0, 0.004115087345044177
0.021278399871755775, 0.0, 0.0102877666405145
0.01789041013686067, 0.0, 0.008295182210827779
0.0017384562907401266, 0.0, 0.0008016636757777728
0.023680480086755846, 0.0, 0.014023978186518907
0.00762654651071522, 0.0, 0.004834558433958278
0.02122895223957938, 0.0, 0.014555948438457183
0.02192491996060012, 0.0, 0.014838483470565968
0.0055030392872719, 0.0, 0.003957537264056906
0.025513384470158294, 0.0001106495107881601, 0.017152681666384673
0.01496541660143789, 0.0, 0.012973922728998673
0.020274816609118555, 0.0, 0.016131477206847197
0.02080847385554771, 0.0, 0.017879792776446267
0.02125039883755619, 0.0, 0.01681063994882625
0.0252047598380433, 0.00015901393059062916, 0.01937045656958682
0.01774747691855021, 0.0, 0.01679003209320504
0.011979839323375, 0.0, 0.012478527712453523
0.009298709267689149, 0.0, 0.008983758550648827
0.008694133159685044, 0.0, 0.007985659491185822
0.003677339804999112, 0.0, 0.003417285025324208
0.021036116325224192, 8.567774650165133e-05, 0.021677446516273433
0.015503748987500534, 0.0, 0.021106277851175335
0.00934525236403504, 0.0, 0.012411823619843821
0.013650538337190769, 0.0, 0.0163087278559805
0.010553137328775993, 0.0, 0.014111562241740731
0.009499993773408278, 0.0, 0.011014267581265422
0.01541364330841737, 0.00010819777142054297, 0.026579970440285636
0.015341051627077974, 0.0, 0.02149803573930314
0.0057391964098261194, 0.0, 0.008365006407929781
0.00842889723341263, 0.0, 0.012684698984405222
0.012764231671271973, 0.0, 0.01870055261477525
0.011622088357262934, 0.0, 0.016932904746611473
0.008399535722863973, 0.0, 0.01478738572485647
0.004112595385638666, 0.0, 0.008033553943551534
0.007647748213726069, 0.0, 0.016760745428777254
0.010521647449766526, 0.0, 0.02129656632804268
0.0037982575646951, 0.0, 0.006777272756970426
0.010126820155246838, 0.0001592853358091612, 0.030157783373096214
0.004070663413438281, 0.0, 0.009421734945566083
0.0075826776606147785, 0.0, 0.01724730189442482
0.01023727253552723, 0.0, 0.025003961492461986
0.005502934978464393, 0.0, 0.015459580227164614
0.005018129976909195, 0.0, 0.023397878246633846
0.0006676835531613137, 0.0, 0.0028785636924701886
0.004263481108894575, 0.0, 0.016840433631280936
0.005990459684470864, 0.0, 0.0218083063765612
0.004314609567622637, 0.0, 0.014507938491423292
0.00919864026950893, 0.00015756742990204179, 0.03040209517789485
0.00553395467572366, 0.00018609665880787838, 0.03188650985715248
0.0010474706038258652, 0.0, 0.007718181522423746
0.0010243235576033384, 0.0, 0.007842492064777912
0.0032766074184663037, 0.0, 0.024615398618932527
0.003926545952737099, 0.0, 0.02230821726948735
-0.0019021751541570822, 0.0, 0.027517708203749935
-0.0012040123722197435, 0.0, 0.015171383241584383
-0.0014802614649265917, 0.0, 0.019086134338271186
-0.002484648367415054, 0.0, 0.024961087515608715
-0.0007698418978602044, 0.0, 0.015257941348977705
0.0010518317145389784, 0.0, 0.022155807077095444
0.0016562564280983212, 0.0, 0.0279477448569137
0.001522484581505548, 0.0, 0.02052686245057689
0.0016642986342805754, 0.0, 0.02670533846146192
0.00011702246811798556, 0.0, 0.028385758884760134
-0.0014557895483257059, 4.723119939160516e-05, 0.029341419665015397
-0.00012141497159994609, 0.0, 0.0008207645182166149
-0.002561598365596406, 0.0, 0.012941486860149785
-0.0017907046293050776, 0.0, 0.011056664737335431
-0.0031210602761864155, 0.0, 0.015919656214356235
-0.0029752474473129344, 0.0, 0.027896910174146305
-0.0033884106630305533, 0.0, 0.012447067299556868
-0.004875411202567853, 0.0, 0.019880550579798602
-0.0019990032064767472, 0.0, 0.007917397242554806
-0.005083070412917186, 0.0, 0.01810927543116362
-0.0005218724826219306, 0.0, 0.0016984643040053849
-0.008762617558889197, 0.0001306544782523515, 0.029920569297668828
-0.010671073304906527, 0.0, 0.026283216514297464
-0.008067471195362268, 0.0, 0.020562534697173653
-0.005152879696703328, 0.0, 0.012361046171950604
-0.008437906236241436, 0.0, 0.02107152940397642
-0.00198369830039884, 0.0, 0.005186953148633679
-0.01290449166078719, 0.0, 0.025104886591739674
-0.01326263790941374, 0.0, 0.024615446509184895
-0.011183365677507103, 0.0, 0.02461975192728589
-0.011922909709991408, 0.0, 0.024665079722249773
-0.010360430659651053, 0.0, 0.020402983450559506
-0.013722951668413643, 0.0, 0.022681338552018992
-0.006080829740965647, 0.0, 0.009056541402880829
-0.007903954576308683, 0.0, 0.011522120905013327
-0.012113675106189345, 0.0, 0.019338284931849258
-0.0051366686507772555, 0.0, 0.008141404703448069
-0.016061984978116655, 4.1938757047210514e-05, 0.02446222906266059
-0.01737100082047979, 0.0, 0.02124327846360722
-0.01032591111283398, 0.0, 0.013590802278087497
-0.006231281375930029, 0.0, 0.007573415356741319
-0.015879917882387403, 0.0, 0.020874106761335113
-0.019308364925622393, 3.575015198868795e-05, 0.021848763688031868
-0.015119643527878023, 0.0, 0.01563834469280213
-0.011944489979722512, 0.0, 0.01288443710753763
-0.003937316665996083, 0.0, 0.004056386183549216
-0.01673937960655416, 0.0, 0.01721579323575708
-0.014381058372980942, 0.0, 0.015485639939378158
-0.0051986885199049315, 0.0, 0.004104981565223769
-0.011080131667287467, 0.0, 0.009171952756561004
-0.017208666829571045, 0.0, 0.01426101170098668
-0.01631083593774089, 0.0, 0.014666696943459526
-0.012842388755819209, 0.0, 0.011473414949974683
-0.022145778724204347, 3.5206014819297e-06, 0.017841719356167737
-0.016360011647655853, 0.0, 0.011469634846667465
-0.023263776165744893, 0.0, 0.013848310852793163
-0.013062720341738583, 0.0, 0.008673430341216305
-0.002435849022235126, 0.0, 0.0014710075541580854
-0.02379392168300741, 1.5154994623121051e-05, 0.016034939848272707
-0.019290582810936187, 0.0, 0.009383520300130135
-0.014322623847708403, 0.0, 0.006942982344265477
-0.018937497320473493, 0.0, 0.008785158907112919
-0.008273986075305549, 0.0, 0.00404302988615012
-0.011950785082519979, 0.0, 0.006138749223295008
-0.011715908533784717, 0.0, 0.004565113108669426
-0.02444268630467365, 0.0, 0.00965759275225158
-0.02042337262218118, 0.0, 0.008153232634425476
-0.019324947749475952, 0.0, 0.006505696451509138
-0.023460922638296022, 0.0, 0.008623001835209204
-0.027967643154206703, 4.7151279632437156e-05, 0.009112426440056828
-0.022130284277496245, 0.0, 0.005451368665619156
-0.0208923603267271, 0.0, 0.005149497100480172
-0.02218316935865059, 0.0, 0.006231576945415498
-0.02254183847832944, 0.0, 0.0059986595308429485
-0.021398035233243105, 0.0, 0.005418994711336778
-0.031272623392899504, 0.00014602100670658955, 0.00390788794377089
-0.025495246944287897, 0.0, 0.002719117819728879
-0.01953953179817672, 0.0, 0.002995611380619745
-0.01784640675614044, 0.0, 0.0029530381645948675
-0.0091159366373431, 0.0, 0.0012814564365094855
-0.02139811010404814, 0.0, 0.003249374718143362
-0.014973414033101274, 0.0, 0.0010170634090154408
-0.025082843404570315, 0.0, 0.0026041443976413193
-0.022659963418481074, 0.0, 0.0021208491646055928
-0.021715565062502665, 0.0, 0.0002762649333932378
-0.017592212015941716, 0.0, 0.0012973162129508787
-0.025749476604485337, 0.0, -0.0023403929576931545
-0.025712259767398184, 0.0, -0.0009014985870725797
-0.00957189597463832, 0.0, -0.0006489943157802651
-0.00820402509318225, 0.0, -2.7149574542265747e-05
-0.0270946517814224, 0.0, -0.002712902662952788
-0.03117491275275521, 0.00015353006770793879, -0.005555589957842997
-0.029953709126809745, 0.00014057253593845957, -0.009461632391612289
-0.029435690431331762, 0.00015249849226454392, -0.01160103466212208
-0.026148851043504315, 0.000179603599847335, -0.01889298347688036
-0.022769476952978665, 9.599458507683815e-05, -0.020227155531825726
-0.022623203803627236, 0.00015690204014803168, -0.022253455365740957
-0.01654467472338064, 0.0001160528518799232, -0.026046533873564523
-0.012844045331166069, 9.488790539546599e-05, -0.027575248555527995
-0.011313225536118177, 0.00017981400507167364, -0.030174530729879495
-0.006236610554857748, 4.309013900387002e-05, -0.02865051787973219
0.0015810177333775784, 3.222911331133903e-05, -0.029012178709888467
-8.456415933802568e-05, 2.658572626198375e-05, -0.028969236297612597
0.00837849507130158, 8.508644861247102e-05, -0.02901031415282694
0.01128168704502612, 1.7105223192636227e-05, -0.026443770469601377
0.01831823025933475, 0.00015539651301826906, -0.02590225961513262
0.018947886723099223, 4.150818668197148e-05, -0.022299746825469383
0.023722283211601535, 9.046058015943954e-05, -0.018861728354017376
0.024493965403259994, 1.3292759924859602e-05, -0.01488351520188656
0.028702256184867513, 9.552117943793548e-05, -0.010097431078092169
0.029324505640146607, 8.663929776509147e-05, -0.007334918318000989
0.02847474252401848, 2.250475045983203e-05, -0.00461671793377528
-0.023647570504655345, 0.0, -0.008812175884222062
-0.0232207426923833, 0.0, -0.007758004741088772
-0.013870879896066328, 0.0, -0.005018825850973931
-0.016884693797961203, 0.0, -0.0064673023468183495
-0.012743822830545294, 0.0, -0.004561208199353065
-0.013354971635326026, 0.0, -0.019459688553540105
-0.008625369149918762, 0.0, -0.014312903721798182
-0.006155042072459023, 0.0, -0.009725186811113494
-0.006922342601704425, 0.0, -0.00962037551509485
-0.01841498726451789, 0.0, -0.021278674072366652
-0.013646455500319836, 0.0, -0.01799209346837325
-0.01422883001434145, 0.0, -0.01594165057948778
-0.017211656811848303, 0.0, -0.01992003313055986
-0.010828419014335632, 0.0, -0.013855864675028697
-0.0024832655348374236, 0.0, -0.024764198092659926
-0.001333443147897759, 0.0, -0.014703093340853294
-0.0005413874640240188, 0.0, -0.028325995537215577
-0.0011257408905443638, 0.0, -0.02745238635897629
-0.00019150631764283131, 0.0, -0.012047152688827487
-0.004104250436581991, 0.0, -0.021539692848495957
-0.00271661729757861, 0.0, -0.01589945063378697
-0.0010107897866002463, 0.0, -0.006696909771366255
-0.004023914674642179, 0.0, -0.023140647099060052
