0.4173878368366104, 0.559423976539376, -0.1313565705921802
0.41982393236279303, 0.5391625507008546, -0.11080309870620124
0.4199403958162261, 0.5192156364818952, -0.10717560746816615
0.4180598567325152, 0.46064703339409124, -0.08735718940801546
0.41891042683569374, 0.5187480399865665, -0.1298255420205921
0.41717671853429983, 0.5172174021839643, -0.16501480890533532
0.41648007593589914, 0.46692260251982304, -0.13540949910313083
0.4110963626095939, 0.4985396245647322, -0.28210251757189975
0.4112784375766442, 0.4528452153408042, -0.24467628000444663
0.4132959734520085, 0.5129593652092408, -0.23243789196737014
0.413981903348418, 0.4518531768816947, -0.17999200278752958
0.412749371835827, 0.4949293013319378, -0.23647217103862828
0.41253132311916113, 0.48096509544499577, -0.2370371696843994
0.41409033481903423, 0.527766197013896, -0.2141104652283753
0.41572924433637126, 0.5007440135551479, -0.1805321669644449
0.4182301186169621, 0.5057180853357265, -0.13383983697903
0.4169318161060355, 0.5286298589686648, -0.16894281576168615
0.41659009596118723, 0.5604496175805643, -0.14388951240417044
0.4188678135625581, 0.5334767915897825, -0.13187656287515964
0.41294032790299157, 0.5137362798089863, -0.23910322682455792
0.4078356799683275, 0.5390597702906033, -0.303015513827193
0.4156487631470493, 0.5293642059423416, -0.1888404538461458
0.4111751227308973, 0.5486514535395889, -0.23840065899827598
0.42057932541361537, 0.46258363469166214, -0.02333220486471876
0.4206065882571528, 0.5117872210822935, -0.08205915257220969
0.42281599970425976, 0.5185373532160109, -0.030196829029067042
0.4222103621279004, 0.4586903408052613, 0.02265045579708299
0.42280283622334236, 0.4664842413231257, 0.027683935669288433
0.4215483395815064, 0.5469053646806031, -0.06573034591129795
0.4211339858819267, 0.4999055298784594, -0.05600726866197829
0.42254378313390684, 0.5318866031689762, -0.044706553428437455
0.41864815567570457, 0.5676557302882882, -0.08580594293784194
0.4247626125263685, 0.5021305376392611, 0.035563379750128576
0.4246751264069466, 0.5425912884646862, 0.01131524998403548
0.4202243910902707, 0.5724251546732939, -0.03736919077276265
0.4229011121939308, 0.5653463489485742, 0.0008445924209104106
0.42419711849947095, 0.47871096367689814, 0.04759014568752499
0.42513512853823127, 0.5078843412422753, 0.04016871542087158
0.4264097192639177, 0.47287784592737936, 0.10075406799265912
0.4272823891646108, 0.5233984189743686, 0.07944989197828739
0.423784111576945, 0.5774451015159966, 0.051191495603922624
0.42585001204834355, 0.5112591510363753, 0.05432262819765327
0.4250768563627289, 0.549609846099669, 0.0234437510400837
0.4271824776683515, 0.541765251563807, 0.07106387437128919
0.4278479758936827, 0.5148904199795152, 0.09827707516826392
0.427706383576936, 0.558511800554149, 0.09053763567314198
0.42520001964680243, 0.5741592240463568, 0.0687156941939055
0.4249296163155526, 0.5851349720809592, 0.0919828686807112
0.4298079037176791, 0.4913344595452604, 0.1596953273061907
0.4283592238049522, 0.5345568631351749, 0.0988177169718807
0.43014059185921344, 0.5405994153959828, 0.14219551963511876
0.4322705879070693, 0.4833109091872378, 0.22917833599814866
0.42916633076769806, 0.577195997469104, 0.16746813780715336
0.42879100850790003, 0.5681330892797576, 0.12715885208701966
0.4304445988860258, 0.5188407945472179, 0.15646068282852665
0.42524298492081664, 0.5886331971028006, 0.10897209984355838
0.4320525863692184, 0.5284272053907991, 0.19603220756994602
0.430324066392628, 0.5663347476047172, 0.18058845002164076
0.43242891156712693, 0.5471920832416963, 0.20913191209965903
0.4264707229372452, 0.5963731275103874, 0.17445671343259228
0.4290813910413978, 0.5858202497248627, 0.2107402423168255
0.4318509704259755, 0.5757255068720739, 0.3491233643800552
0.4298911600118676, 0.5934403997097837, 0.3277043081436481
0.433068895897527, 0.5207418785780235, 0.36683047976643457
0.43545717203099854, 0.5362079579018995, 0.32908974911955147
0.435673850702635, 0.532926806348839, 0.3056745950191869
0.4334988490589813, 0.4940033663722687, 0.2513017355725265
0.43258202165915516, 0.5361780701900776, 0.21004966077594717
0.4346420190339581, 0.5325100598059851, 0.26594401541371565
0.43525781179266704, 0.5051592093641085, 0.29239704961795904
0.4319228607771332, 0.5614583467434024, 0.22602726345324203
0.43416724507039123, 0.5327952150869483, 0.25261416970176154
0.43547260031284896, 0.5281270319283763, 0.2935462557391658
0.4312179070322632, 0.578206638603282, 0.2541177069987254
0.43563804123511873, 0.5296652874020886, 0.32448387247883215
0.4320763146309728, 0.577206113614216, 0.2849360454838446
0.4335742927941953, 0.5538467073717115, 0.254976879926432
0.4269474177429622, 0.599007364274612, 0.21414562385074992
0.43472966669018603, 0.5532845034456098, 0.2931913666957035
0.42579442942819523, 0.6100132054076319, 0.2577059732353702
0.421355388676684, 0.5863487465721104, 0.36314331551441614
0.4308386724833311, 0.5536220077949482, 0.3664596335018992
0.4256066887596591, 0.5256218223011474, 0.3851532116404483
0.43073118498294705, 0.49267314546621305, 0.3759834789125063
0.3851771677001761, 0.5813083780434865, 0.38006312745807397
0.35001913717984456, 0.5893871597363204, 0.3761561914523763
0.34807494366318165, 0.5692641566147761, 0.3887802896623571
0.32853277260876484, 0.5667999946718432, 0.3877807008135057
0.3352294591899827, 0.5441652676442175, 0.39776187188110723
0.3163721050926669, 0.5374536523104279, 0.39706681719890924
0.3066620376219974, 0.5368930332884908, 0.3932608303053539
0.3918746331912603, 0.5574477940648253, 0.39132346961726927
0.3939577099387014, 0.5256241614767558, 0.40038160577298676
0.37420205445144233, 0.5295493253605057, 0.40202612619638683
0.301736147040923, 0.5785577298244049, 0.3642872534994852
0.30104585073653295, 0.5750031650150205, 0.36658533996535253
0.2958514918318529, 0.547118434915494, 0.3756667187227216
0.29458499971787605, 0.5555409793236905, 0.3680174213463402
0.29159589743796654, 0.5802082417015741, 0.3320553816207473
0.29612246184495544, 0.5841994015480682, 0.3459952442685663
0.29076131100325847, 0.5937028549083965, 0.273779827219969
0.2963620566179585, 0.6093094057023718, 0.30087066189954137
0.285392293758977, 0.5654712080797939, 0.2981307245234953
0.2894494358112759, 0.5940787721731371, 0.24015353822027644
0.284082216949828, 0.570022095540485, 0.242241361110552
0.28549639354403367, 0.5055557192993245, 0.310901132788453
0.2825804227801481, 0.5175997780456951, 0.24850756008252958
0.28761396176148807, 0.49996803210567475, 0.3413807458711241
0.2850263928950475, 0.5660628121434638, 0.27672577581258817
0.28944103697531176, 0.5818672420521012, 0.31303951822579307
0.29006772511535694, 0.5481643793356834, 0.3544283144213898
0.2911432835987937, 0.5007930265146306, 0.37401102304477896
0.27915270722245167, 0.5313336857635392, 0.1436108430232155
0.2833656340134614, 0.5039984788617663, 0.21857891481201905
0.2808457800672987, 0.5276653486427589, 0.1965176118045221
0.2842074963046519, 0.5071466089379366, 0.276117404705681
0.29258906838701887, 0.6024739249619823, 0.26398289167843814
0.28757422834838514, 0.59202135682961, 0.18990151102603886
0.2857842449540152, 0.5728092161179414, 0.26614650423878405
0.28098061680691777, 0.5484506081000188, 0.20990165221871315
0.28165920644781006, 0.5337835472700962, 0.2317284438357794
0.28061748898294736, 0.5565101959732468, 0.15419418279253447
0.28816121366347736, 0.5942258748907029, 0.20074865694807933
0.28366656455137396, 0.5768590189986684, 0.1546764396289229
0.2833585577430868, 0.5678984352673169, 0.208002606782203
0.277379688159053, 0.5129325414739395, 0.07179295931094526
0.28436107244583403, 0.48142066913344983, 0.14945838436991235
0.28339585721005073, 0.494774627557236, 0.17863386963936315
0.27951416489426717, 0.508522938679869, 0.12926789182963955
0.2862442533467942, 0.5876098810379207, 0.1524263488516302
0.2824817331012995, 0.5745969915110283, 0.10089088507842844
0.2806192057015905, 0.5207151140763437, 0.18284474373524826
0.28057222326614717, 0.5290179582478238, 0.18893499279673587
0.2757667192464778, 0.537374518863612, 0.05620365813447028
0.278387414064717, 0.5340063046181499, 0.12743271303907805
0.28440064006451, 0.5813571027653586, 0.11530070964484188
0.2803986830059763, 0.5587123450006101, 0.13529219016965527
0.27856934011638135, 0.48922654615064265, 0.03378902227420583
0.27500242660359053, 0.5015842870236383, -0.03491859712172304
0.274644015780925, 0.5038672552188128, -0.041720636436672225
0.2760621752006662, 0.5058903738833678, 0.015373493021312698
0.27810383476884487, 0.5006797801006422, 0.06570280129992415
0.2785587824942632, 0.5605438088761471, 0.063811104800764
0.2773170839887389, 0.5580014509462612, 0.019714240272519685
0.2748869337047537, 0.5354208588636931, 0.027502263849606672
0.27569934190506284, 0.5301430724210863, 0.0569232158615786
0.2737901316623389, 0.5365577505132947, -0.041797277129509494
0.27480957655193555, 0.5318407397893152, 0.03473273059595798
0.275877494305911, 0.553782038339467, -0.04729248836549289
0.27677022584128846, 0.5528624092644558, 0.021926043441854583
0.2730799456543106, 0.5436148195283756, -0.1931675561776686
0.2789617015887481, 0.5600678927568602, -0.1787004098687664
0.2705738461255205, 0.499834977355529, -0.23280189420377778
0.27550823253904566, 0.46772470099787655, -0.16936599339772443
0.2721548279004175, 0.5010372240830717, -0.16581892865688252
0.27070455511600616, 0.5252239455078087, -0.24650914645324098
0.2751959332127122, 0.4804509757355757, -0.11914778936799306
0.27143684592227335, 0.5014537891637767, -0.2004488770483295
0.27364619742077134, 0.49529747287885895, -0.11124471646687499
0.2760223829368856, 0.481029995309238, -0.08385101948597004
0.2739284163386274, 0.49953298777077604, -0.08506115185158762
0.2788383224462143, 0.4779255527634122, -0.003810179910864313
0.27279174981294224, 0.5345470678482535, -0.10042486109399365
0.27518300778171056, 0.5081486731501275, -0.01008013114824419
0.27244091540476223, 0.5091257099018714, -0.12261603304789784
0.27016947685736364, 0.5202821936617267, -0.19624455418581793
0.27329863105204, 0.5108795083178213, -0.07709575618720065
0.2734253491647796, 0.5437228493604128, -0.14833876989607556
0.2732565185157011, 0.5413410472466952, -0.13596657970927603
0.2799154679174028, 0.564208070963002, -0.10640616322584875
0.27973258729226796, 0.5650169067154573, -0.009607287314016156
0.27738126711675554, 0.5567733652484359, -0.12913637925861507
0.2793906601474897, 0.5631497405271396, -0.06535039970684414
0.2797052637118846, 0.563751518964006, -0.09199407588476587
0.2716401498853368, 0.4690193143888062, -0.28611851332772903
0.27124624912043704, 0.45594251033869804, -0.34052012653286917
0.2729753736008795, 0.4787287384352074, -0.21256515176613652
0.2713868047889868, 0.4683868444339043, -0.29892688170243703
0.2786032046900872, 0.5561280943357477, -0.24213194321665812
0.2721625949516303, 0.5301153150763666, -0.2918814219678243
0.2713080811112114, 0.5302721343745497, -0.2370538902472844
0.27196091488056756, 0.49474541649082626, -0.20219721923578501
0.26944860327308007, 0.49950732167863365, -0.35268099849057416
0.26904908382054427, 0.5042665191609048, -0.2662050592959561
0.27557171033226147, 0.5457126996528764, -0.26031439019333547
0.27108199180837667, 0.5282715201049114, -0.2622622157054113
0.2723022414396528, 0.4282566148228863, -0.38398090273906593
0.2727170096312649, 0.41670584909816133, -0.4080728449118015
0.27269103570714137, 0.4501962670215057, -0.31163390672676305
0.27119278473536157, 0.44918789552664423, -0.38286638767238473
0.27259906818932, 0.4886525071374535, -0.3953948902910767
0.27070538559745194, 0.4692786812198112, -0.3903794183939563
0.2692046618465835, 0.48421871105086534, -0.31440572646556764
0.27022227916448016, 0.46152673431416785, -0.36324349264251643
0.2713726271674667, 0.5023287620737211, -0.3664272024007126
0.2703421720668802, 0.4847677999872595, -0.3778543010278331
0.2727023366339771, 0.39362547651347707, -0.4226669815854728
0.27282834579055687, 0.4017638555738601, -0.3997440859851331
0.2719840741656541, 0.4563451777772232, -0.40882937158876215
0.271631988411938, 0.4400653863202272, -0.3933853172583994
0.2734496140726614, 0.40637180905671444, -0.4326008891912052
0.27704976742757426, 0.4097392971804825, -0.461611297357301
0.278897807098502, 0.37820288504346633, -0.4642271704700864
0.35557364129613267, 0.41878523745743634, -0.47864603474542494
0.3421171817277932, 0.38515581332570453, -0.4778022493131866
0.36704555938027905, 0.38603297690107324, -0.4757223187831911
0.3412393882598256, 0.3515937347214142, -0.46825683094521836
0.33460113999559177, 0.3545843395012935, -0.4694161157658907
0.35531972191843386, 0.3348768708198014, -0.4617822886036004
0.2912925302085099, 0.32323483168503214, -0.4545280934210342
0.29115307286852654, 0.39910895166138516, -0.47568602478194344
0.3085513379091962, 0.3438952336535094, -0.46445525885681366
0.3906615774316352, 0.36313258720287034, -0.46100473165191513
0.3913869256750536, 0.3564607398800965, -0.45751570777361195
0.3935947255535175, 0.40403609190708223, -0.4672421899047102
0.4225932354209571, 0.33093912308802026, 0.20181137538508515
0.4196509903357748, 0.2914193537105606, 0.2241659938083693
0.42358023440269027, 0.3335130107329328, 0.22351828079894404
0.424999780575886, 0.3780060592040222, 0.1822939427840657
0.4305302474196061, 0.45998643749333396, 0.2105576026932549
0.4300191199543991, 0.4393530723994048, 0.223637239046766
0.43038394515591966, 0.489544128583007, 0.17524132218467686
0.426813092588218, 0.37162680181649294, 0.24133631280354712
0.42723936784748495, 0.4248863947879582, 0.17160105551224664
0.4302218453634131, 0.47226478792713456, 0.18709181979379455
0.42783244900356215, 0.4091736840955852, 0.20971205565984968
0.4280764659926031, 0.4062316852477418, 0.22072928954370813
0.41574153304374073, 0.2597465407029756, 0.21800333568360097
0.4127010789403061, 0.24542853991468588, 0.1871337915430206
0.4123113401652687, 0.2363535792454927, 0.2025196537098232
0.41577762670451685, 0.24062089171778292, 0.26820364922944334
0.40901436636310096, 0.19884843060345078, 0.2305198433429657
0.4076428918130113, 0.1908517116836652, 0.2237560863312591
0.4086806620646687, 0.20219970144991273, 0.2151455317112168
0.39273760217645376, 0.08921851052208936, 0.23295810679462198
0.39611981938701823, 0.10903776455133153, 0.2309534957215324
0.399730826442913, 0.13116335593140394, 0.23083013274504596
0.4018680570719994, 0.16547569863382638, 0.17947833954722758
0.3953437096515625, 0.08952104001018252, 0.28561410736239795
0.4006143321613534, 0.12855925375795663, 0.2553225355246462
0.401488018967036, 0.13679098551195015, 0.24989231337173537
0.3814333087878371, 0.06021916119354351, 0.21786825950303274
0.3901112514986782, 0.07578672932673271, 0.25606191669628575
0.34639036661529016, 0.05574344895788441, 0.2874686924254057
0.3378821223157808, 0.05404924796187133, 0.23506032952322492
0.34836341802537996, 0.052214790946971124, 0.20711354288268466
0.3570147522279232, 0.05564914273794628, 0.2992795871869603
0.307987011664015, 0.059808255160716056, 0.3111398346737011
0.2928540738812544, 0.07196586943785277, 0.31451458253652603
0.2946403615911209, 0.06715085361872504, 0.2964523631820814
0.2898986773228608, 0.07357857858180084, 0.22511918957528193
0.28960862218099626, 0.10730861174028869, 0.30771601569574175
0.2874959462417831, 0.15650737926536737, 0.19508661651824916
0.28777353176132936, 0.16479961961345066, 0.19787854194332033
0.2900289708683114, 0.17059376277963229, 0.2825725678629434
0.28879119530573905, 0.157228398796051, 0.2474804827618982
0.28719936333662954, 0.09831908388332597, 0.2117320861741286
0.2882276794400648, 0.08871219730941429, 0.2536410453342007
0.2871397029817477, 0.2552679614365857, 0.17498657316873129
0.2892430860353174, 0.23532564892035532, 0.25131210962119316
0.28777619226672596, 0.23174340760337933, 0.19164892869179045
0.2876739337127942, 0.21922825009499775, 0.18159443558010616
0.28978732796813933, 0.20927041308387082, 0.26499324337933416
0.2884543943021264, 0.18308689926425353, 0.20925325646333626
0.2880836298176659, 0.1820231415067893, 0.19449500298207484
0.29003375018374805, 0.3232693942623199, 0.23662147344331386
0.2893100555271219, 0.32487442728003657, 0.19975514261126692
0.2912084249887731, 0.36096079626606137, 0.1894318763240225
0.29203250091538174, 0.35539516742364, 0.23508572600537192
0.2923889971671276, 0.3571270441429103, 0.24717254147925058
0.28979714599584455, 0.4624733403248379, 0.2247309908702602
0.2846603194058104, 0.4824509665624108, 0.16046319364149925
0.29109689034719655, 0.4379300043957569, 0.18172159423138873
0.29352772873633537, 0.4332725349258419, 0.25613983301888077
0.29252286838182034, 0.4054913845100254, 0.19313488115851069
0.2921620509188224, 0.4003850340601794, 0.18010452816849631
0.2939791523106653, 0.3993810927563355, 0.2373259378595693
0.29968635364935015, 0.62097369316341, 0.20748090277852455
0.36709232548285936, 0.6331213151565703, 0.14780878543544865
0.3994341317839, 0.62776062004874, 0.14372670772075857
0.36804196934928524, 0.6408156166215156, 0.20748817360767313
0.30684742113274455, 0.6297434970089331, 0.21659870669948297
0.31805848354514843, 0.6309151197337515, 0.1637437744703536
0.4103449753228326, 0.6321606387810046, 0.20798205704291245
0.4178836379028203, 0.6193113870479852, 0.17451055403684124
0.2801725805364146, 0.07053156623902579, -0.10492246791811394
0.27969825316777747, 0.06828188106858957, -0.170378125704451
0.28041709671240095, 0.0661696217917983, -0.1441267881643841
0.28276603315738946, 0.06720695979074053, -0.245694617802037
0.2744412354797307, 0.09059744781822233, -0.30692308817421227
0.2750582431061037, 0.0873606709214503, -0.26688115680765157
0.2751683299271144, 0.09020847973273056, -0.3458232104110693
0.27671339264015526, 0.1392488987130771, -0.38579870922759885
0.2751580167660585, 0.21096417579229784, -0.40377372930037425
0.2831129195881259, 0.27077586026762296, -0.43187012231293653
0.27510956306931383, 0.47629103843774423, -0.42354940887989545
0.280755831124596, 0.4812016813639529, -0.4334530167133819
0.2801154907031087, 0.5219167380392649, -0.3780506132463096
0.2826392675385233, 0.5390510784807385, -0.35124848861858154
0.2795402970530636, 0.5527244308798002, -0.28176264864595346
0.2852248321607605, 0.5726833889839165, -0.21239983246681715
0.28596742441953293, 0.575083542529801, -0.1884698983655859
0.28445811048969716, 0.571680034924556, -0.20057847647837607
0.29411128447569623, 0.5867294661479519, -0.20392088846563336
0.2894363067657462, 0.5841993041509645, -0.10419288272514599
0.2858194480149043, 0.5773311933091942, -0.09268483772835594
0.29023145591767874, 0.5878497042609239, -0.04089031659683199
0.28898035765257213, 0.5881708479309365, 0.01586036501877766
0.2920673656165191, 0.6056119800826941, 0.17930105618033038
0.28937180793958694, 0.5950909493727385, 0.11019371838032876
0.2875813742095857, 0.5875373321478845, 0.05148781427676584
0.29331727040611216, 0.5991519960511036, 0.06952175128764204
0.2946956760241509, 0.6018609171722709, 0.07744627007794323
0.3028208898631809, 0.6230253515730302, 0.2973097222529319
0.30066961774195544, 0.6218702805269494, 0.20267796717634293
0.3094177150528409, 0.6342081663585428, 0.2665855280920537
0.30975331815182766, 0.5971545169299355, 0.35501116604662875
0.30637729075583037, 0.31701409244478057, 0.41178966283511986
0.30075461761952377, 0.3874871964125296, 0.3958296845298373
0.30316894647955694, 0.3976734514879616, 0.40038050378049217
0.29270445739113937, 0.502945272154726, 0.3806338229082811
0.2978712654960804, 0.4668530256519187, 0.39644626069323385
0.2973619646270875, 0.2734217061328141, 0.4016532818991998
0.2985630090577468, 0.22089473425505973, 0.409057194954519
0.29240107999685816, 0.16351765677882418, 0.39791157036843283
0.2904464025822958, 0.07759535992885223, 0.36535797197047754
0.28937039211475685, 0.08384351180749025, 0.2671522974292207
0.292679997688295, 0.07267423779910967, 0.3294243742610602
0.2888762172606143, 0.07950268815471545, 0.22520965287285188
0.28775917060477746, 0.07276155011413055, 0.1507778845048795
0.2870794573761182, 0.07779406265886185, 0.15678736856739658
0.2858777221112704, 0.08284037751824695, 0.14576916079909202
0.2868812731454463, 0.06341200030388289, 0.0671938700172501
0.2815665916251332, 0.07044782440418218, -0.053135807823853076
0.28541696269213057, 0.07419025962722911, 0.08275975111621967
0.2843949588372871, 0.06753809816175864, 0.014841818572866133
0.28195895660827996, 0.07350125959626493, -0.022514589077920807
0.28238960794482026, 0.06591975165277753, -0.05636343741171557
0.39256310649712683, 0.09888643298095205, 0.3897049054068952
0.40753776811453424, 0.19795935360317574, 0.3868347146817015
0.4038536773632808, 0.14700041594688618, 0.38361017232284345
0.4056575555083122, 0.2373442601716684, 0.39732037604317844
0.4006198023176893, 0.23449890802599002, 0.4032665670274843
0.42415873081980093, 0.5162156445838857, 0.38883635006420025
0.4255654505421702, 0.47966176763513735, 0.3898703022171526
0.42267126752512874, 0.41335454707978825, 0.39366173712128993
0.4109159199709831, 0.4104111030466875, 0.4057784331671077
0.4110242780059188, 0.3827124196103968, 0.40497728736951977
0.421397448334463, 0.3699233277955958, 0.38645229817062365
0.42592237658228077, 0.40524120784520634, 0.38273730783086407
0.40518709627353783, 0.6370685779365801, 0.2927875766608739
0.41853816829538154, 0.6273304807761528, 0.24475661939688143
0.42092271645165413, 0.6217576427791002, 0.23192993810404078
0.4252190682290647, 0.610362004234588, 0.23686714762551736
0.4249681664292091, 0.6137027277739385, 0.28955859456486843
0.42331395854359044, 0.6166883147624109, 0.30041668107086
0.42297733207126487, 0.590515973639302, 0.35678861336035256
0.40969275195623667, 0.614594691375953, 0.09415051546482385
0.4221094289367504, 0.6039167887184557, 0.14069040471186117
0.4199400497180176, 0.6007066294519996, 0.10070697546457218
0.42317113100166576, 0.5955414195145616, 0.11374394660166835
0.40114799771364673, 0.6074012338714916, -0.013010877392854885
0.4202110548063628, 0.5920904568452623, 0.06321762289313906
0.41759596196965926, 0.5833621069309642, -0.024840900745625883
0.4226970222206699, 0.5814791487675611, 0.04327623011585756
0.40740700850054856, 0.5800426331418049, -0.19861449477032878
0.4023792516435353, 0.586435682844506, -0.2127139471237749
0.4146189970355866, 0.588405596796843, -0.04762363552464681
0.41229568343768247, 0.5835640050674881, -0.11876764270866087
0.40564820750046193, 0.5889375153054606, -0.1648540302144773
0.4197633213414118, 0.5750193982983218, -0.033823752751623824
0.4143885447604677, 0.5763507804901972, -0.12042848257356985
0.40805298413471014, 0.5899203390638291, -0.1279643617724241
0.3975954050281245, 0.5880923383208029, -0.22258995230683337
0.40224005015881076, 0.5665691205902668, -0.27781890527658126
0.4022684419005068, 0.53265023271304, -0.3484497806940054
0.39812856887817816, 0.5534592168885976, -0.323584810055689
0.39726672463958546, 0.5415945134867918, -0.34781933131944903
0.3965912387218715, 0.5135442036051964, -0.3916464094649098
0.3988162479764813, 0.482564545053785, -0.4224449323085046
0.39971912418835637, 0.5030144474139039, -0.4000695510612738
0.3909269667157804, 0.4246670064801743, -0.4678088771814322
0.39993836777638614, 0.4585957234956127, -0.43879292450921403
0.38391469509263026, 0.23779837890316174, -0.4160888701483089
0.3868413455999787, 0.31381939497216005, -0.4458791440136518
0.37203411252114615, 0.11809662989916493, -0.380293806724301
0.3687945432318879, 0.08640044956058265, -0.3574080226465332
0.36673097256229426, 0.08107250941858296, -0.3438455444651555
0.3675024799473152, 0.07246867560787917, -0.2873615268287519
0.3605857475321308, 0.06245185086877101, -0.25867411217740977
0.36487818684765483, 0.0513501634892167, -0.08904317340439737
0.3648017690290526, 0.05472152022107866, -0.15556145919440179
0.35778520258014934, 0.0514760675339696, -0.1835459474466239
0.3635530532079328, 0.05534909611735664, -0.17654237112000387
0.3708678430102216, 0.06824688391688566, -0.16129053210306005
0.36812870951708887, 0.06428771149759586, -0.1949575533186169
0.37065694982943903, 0.058352601391549866, -0.06058833840770497
0.3629258351747774, 0.04848044690820966, -0.04953886108638812
0.3726326488247854, 0.06267361807593357, -0.05130867185676103
0.3761962862514964, 0.06948988714661848, -0.02777086130650719
0.3750495297574744, 0.058955323071522014, 0.044763044313450545
0.37592494693818307, 0.06386287974448158, 0.01454929507115748
0.3681059202536793, 0.051576713012080846, 0.050735817119666377
0.3664233956251597, 0.05056838649805133, 0.04850170755012628
0.3837520399329085, 0.06253636222456657, 0.22080782099047785
0.3802279233914344, 0.07156053070256754, 0.05940339339143097
0.3774482555820206, 0.05823405010890582, 0.14589733510025565
0.38546441716510615, 0.07360087020104425, 0.1669557992523762
0.38168937998596564, 0.0694425776262426, 0.11452653706811305
0.38387187818160096, 0.06593227248942558, 0.3800214139819401
0.38618026553028467, 0.06536426809728862, 0.3290437565017873
0.3820464351206835, 0.05999435043780307, 0.2623848899618045
0.39194385218305583, 0.07519493281057615, 0.32917484148885257
0.3903392491023213, 0.07162299919911737, 0.30119417244253327
0.39662382111825334, 0.0983925506664027, 0.2794161018238485
0.3989934044334737, 0.10684717511712762, 0.2982706155911572
0.4043185840953136, 0.1391460940244287, 0.29944093797873717
0.399267024119781, 0.10542883629746458, 0.31272239632638765
0.40752571410210875, 0.15052732653259562, 0.3406428472727055
0.40156378479171034, 0.11262032032424121, 0.33397008085427216
0.40204060207112136, 0.11421239028250377, 0.36765424946833003
0.38944953223134054, 0.11492774418780202, 0.07467775874065477
0.38623037911867275, 0.09335930151212858, 0.08241141569203836
0.39470469308824646, 0.12128916356516621, 0.15813282143091728
0.39289713815632027, 0.11219140894576082, 0.15439266454226847
0.3884061565774115, 0.09862861024017071, 0.11072990254706311
0.3869859217090902, 0.09053192612714986, 0.1090928019703491
0.39687014410676325, 0.16074412443691555, 0.05425981518568551
0.39502767081287443, 0.14694369501155696, 0.07780041682028166
0.39254275344190775, 0.09242827666443484, 0.21747634114095551
0.3930614133332272, 0.10239196641650071, 0.19233374723160482
0.39708661056336825, 0.1518995911451238, 0.11839830992587254
0.3979972028514861, 0.15070641460956583, 0.14172812422384373
0.3801180594628346, 0.08857288811119288, -0.04747671649526849
0.3832301322222317, 0.09136375641016856, 0.01522814377461167
0.3893211130044258, 0.13874356050084294, -0.03681252125859265
0.3900602397728059, 0.1448464982279496, -0.04516164686223149
0.38189450458661744, 0.08881835486460958, -0.006341982863155609
0.38571985424486216, 0.10105734339195514, 0.04173095863043979
0.38589388057000473, 0.10021301581735358, 0.04970678838827397
0.394462500406942, 0.1571718459951485, -0.00925341842458632
0.3955750323986115, 0.15775063149876478, 0.018109828443922373
0.37741612521882595, 0.10473974859200322, -0.21301789282740063
0.38064238520909177, 0.12046281769423982, -0.1877548923124267
0.3854618686887009, 0.1381887020924443, -0.1266658370263336
0.3746609526387663, 0.08055275091551206, -0.1504017919295176
0.377091812812681, 0.09826414363347828, -0.18008116579798178
0.37607909925129435, 0.08347588186966709, -0.11184351855097246
0.3755958488832809, 0.08325525388186883, -0.12281660789106083
0.3822235272377377, 0.11458377678342038, -0.10594633138197054
0.38028618209507126, 0.0958957749325168, -0.07108211839500332
0.38341116971769196, 0.12020810723095308, -0.10110105633577715
0.3737250817570823, 0.08187610162575765, -0.20387284036230335
0.3757944310789554, 0.09732149623002717, -0.23067527856414374
0.3784111425112743, 0.11605409093093463, -0.2522345119649659
0.38370315713516867, 0.14392024652041957, -0.20503125508816925
0.3763647399995648, 0.1059642923551318, -0.27747471662756695
0.3731666354418962, 0.08432290741806094, -0.2574796813694593
0.38059487649575807, 0.13281069899311734, -0.2604701926380353
0.37560939872118954, 0.10307382791945914, -0.30808254496075355
0.37811497901324836, 0.11960430621403838, -0.32044820949090214
0.380849231274639, 0.1420549513758262, -0.3312280203073829
0.37822265637870084, 0.12409584191335346, -0.3454104455868877
0.3783120249389357, 0.14492563449077916, -0.3764508812331196
0.32726899283765576, 0.13650075638538967, -0.39620147479587287
0.3330976746193606, 0.10236844781255709, -0.3822496000335362
0.28340081069112943, 0.09767807934953132, -0.37475829144949746
0.2885275216961524, 0.11906892520120621, -0.38560634371969327
0.27364726311930726, 0.10045467317757467, -0.3633145757452779
0.2714351577115504, 0.11638792179681745, -0.3358926349475229
0.2714114909553665, 0.14985075160896305, -0.32082976352570913
0.27094098966664854, 0.1259712143652226, -0.33982860723554575
0.27383778746602844, 0.1130849059298599, -0.24745795338612536
0.2744503046272623, 0.09810619519206562, -0.25102252185758256
0.27322923141011135, 0.1479745784848714, -0.2564610945141612
0.27270496812272094, 0.15171530628554034, -0.2743584282924709
0.2771852866841177, 0.11233923008629448, -0.10982704507856589
0.27740140419398196, 0.09071049413894229, -0.1355194981153601
0.2771268110877049, 0.158500066932759, -0.10902237310081725
0.27681591990047705, 0.10092306909351065, -0.14300626020719412
0.27643457487225526, 0.15388504815901, -0.1353307648180804
0.27671099813882477, 0.09051986579330532, -0.16581229013521162
0.27596562928742896, 0.1131770326024865, -0.15846383511838114
0.2758236306370615, 0.1617559340043595, -0.16067692665979103
0.2752237600104938, 0.15479561621018056, -0.18411870418020293
0.2748887672581461, 0.10442036093987837, -0.2204596414922802
0.27426519319173254, 0.15577525996873237, -0.220943354747776
0.2800109293045854, 0.0828967197739552, -0.051312582051885915
0.2791033563862678, 0.08313234854876536, -0.08152692761513487
0.28025915498438175, 0.09172299055402183, -0.0372281723371657
0.28131743578076457, 0.11127543555300728, 0.0014577916251043623
0.2815993936067775, 0.10503300125296586, 0.007939407034676693
0.27969016203991237, 0.12307422611773905, -0.038585802309345864
0.28798709893494673, 0.09931459952664923, 0.243123006774659
0.2874281037713279, 0.12993404580345946, 0.21816909814283786
0.2857172638172611, 0.14766607060825074, 0.12905501104961684
0.28614686078747814, 0.13929365936354612, 0.15650391388084306
0.28518534184640526, 0.09370483751359587, 0.13170077040501615
0.2847672215515181, 0.09997231676781515, 0.11444579958116576
0.28138411351211684, 0.09003846453990674, -0.0032428043088433027
0.28113517743668354, 0.08532164249674692, -0.014722118836837276
0.28332900646442466, 0.08993394913002929, 0.061218447904543984
0.2834753012203508, 0.08269039482906851, 0.06606728500045071
0.2818894838756744, 0.1351645614884944, 0.01188357160592635
0.2814876387834093, 0.12282713671935422, 0.0055606010096372095
0.28326446215671974, 0.11706526193982264, 0.059474616439730246
0.2854610240858769, 0.11965849084483374, 0.14037083265861103
0.2856754338251752, 0.11091176421948656, 0.14969938657887877
0.28630737249605154, 0.09802174830560859, 0.17609876924360002
0.28339615409598484, 0.15158866356327647, 0.039588568025542975
0.2836797234724301, 0.14115111367141858, 0.05873248933801513
0.288876636427627, 0.10485362712139945, 0.2783750469455396
0.29004336322038726, 0.12828838771795073, 0.3261165100748754
0.2901654095457422, 0.15816706007055611, 0.30059396976768354
0.29076922220715673, 0.1419577188106305, 0.34197827491249994
0.2895874575254443, 0.12660792929185444, 0.3070341569188131
0.2893619933524627, 0.09074972203792346, 0.3498480498691078
0.2906147082127183, 0.1405392716576523, 0.37114648693369073
0.2907091630773382, 0.1453343618156009, 0.38622998816938925
0.2984191223957398, 0.11518267544177199, 0.40738687872069407
0.36478752951076554, 0.09364663938008161, 0.4011842098890064
0.33430710940209396, 0.10600512142558102, 0.40768032292522743
0.36918845285412755, 0.10935179037040854, 0.40169193190809216
0.4155150230323983, 0.2509722764879651, 0.23608426777147454
0.4190392878424315, 0.2858359838917737, 0.22347062241907717
0.41947668836993895, 0.2674300928960042, 0.2901244770820302
0.41500620746483285, 0.21901926020266854, 0.3056533646011538
0.4084923736985989, 0.16969423660471336, 0.2977273734266074
0.4018502162628054, 0.13943424303943874, 0.2496997354486823
0.405802367168596, 0.1630695298628409, 0.2614138778373115
0.40867704314480163, 0.18179944098145623, 0.26876060355228165
0.40436901941096015, 0.1398965031422462, 0.2982814841766196
0.4111250545861571, 0.17952056818574696, 0.33515003669725607
0.41636597334073006, 0.23577918872780873, 0.2947964181699452
0.41918899979912533, 0.255751172642404, 0.3263286349943769
0.41086162987449515, 0.1918296677251844, 0.28785577226774256
0.41655556964431334, 0.2290589967499897, 0.3282566592705291
0.4169254876006082, 0.24360210729714366, 0.35717391599573817
0.4106735013167118, 0.17970825149468284, 0.3171467295197438
0.404475447016968, 0.1326515937038645, 0.3232032722333595
0.4056559762509543, 0.14527037497753464, 0.37486957383554215
0.4074195966617894, 0.1489767814212018, 0.34805305248585405
0.4176114287380036, 0.24110170960227456, 0.34620260795350793
0.41443397117124364, 0.22101283461511123, 0.3651075627061277
0.41226897568793386, 0.2194365155986045, 0.37523370943481227
0.39962702279922824, 0.18885817100441546, 0.05696600955279353
0.3952904000858057, 0.13860186149817544, 0.12065445759650362
0.39576634998012616, 0.13690166311092922, 0.13465590904101973
0.4037852316665524, 0.20207001505935268, 0.1122468170462006
0.40400818237420416, 0.20064743426905124, 0.12199828193880363
0.3986114925347837, 0.12966204009069976, 0.21331328030579239
0.39792696643539094, 0.13070371508052983, 0.19667533549436084
0.4100083172892905, 0.21935456325025338, 0.197460258237961
0.41511808038801046, 0.28182806661883936, 0.13492760741615792
0.41515191785492594, 0.27690228635425884, 0.15324174966951382
0.40689544385936427, 0.23903272260323544, 0.07183528413793068
0.40172349552467435, 0.1818399700549086, 0.12899076469795961
0.40038678525460714, 0.17111576818166027, 0.1328827673281013
0.40890531229166005, 0.24306618140270228, 0.1082670974177574
0.40719816905039585, 0.21523257360576706, 0.15133931263259962
0.4055073250226539, 0.18447962312073773, 0.19823950991294517
0.4106737525955251, 0.2633975530194888, 0.0789550024952296
0.40980522982897327, 0.25761662375391153, 0.07713289740499801
0.4056668544596294, 0.21230791227880538, 0.1245911386980054
0.3980567133729618, 0.1977864866014567, -0.04346259826021943
0.38761072528776847, 0.12826574709479222, -0.029289508891739743
0.38827434598599386, 0.12932105682502873, -0.01811511452387588
0.3992818119626163, 0.19413211150683568, 0.0013109721804062044
0.3940322570026098, 0.14470026910281547, 0.045605290511792795
0.3909658533706329, 0.12470686719694839, 0.06837319598503383
0.4029761480554124, 0.21047795312513046, 0.0659682719835676
0.4027156777133085, 0.21127101355322175, 0.05710037794019454
0.4077295711067904, 0.263207918974993, -0.006501418545225609
0.3976625470458768, 0.1830405130417292, -0.014624345252731652
0.39985123195570316, 0.2042557653100957, -0.027883464326830924
0.4036016694813306, 0.2331466582413692, -0.00472901483547455
0.4039604496911179, 0.23146199627323577, 0.01672362876292898
0.39701764130874945, 0.16277164921821524, 0.04175579952347255
0.4056681647055681, 0.25554957825313396, -0.0375350999070042
0.40006004983902943, 0.20261345665605895, -0.0014140695056830115
0.3999295193254745, 0.2021764313840573, -0.006468239287509749
0.3886836269805718, 0.17083414522053508, -0.172879272112919
0.3851802104314985, 0.15641649856938472, -0.2145671086282744
0.38722403781842546, 0.17314423910867213, -0.22656967228367975
0.3941210951192089, 0.21195612790321028, -0.19045174416520114
0.39774605428393434, 0.2393899474440518, -0.19782685824808688
0.4013208251317999, 0.2638658459415171, -0.18874211943747174
0.394127591520667, 0.19966202043673906, -0.14019612804582346
0.3924700964505561, 0.1988872282483777, -0.18367765980930179
0.3938079007285511, 0.19262198802160474, -0.11980449752416011
0.38717416496410956, 0.15964213780843975, -0.16791008879526842
0.38992790393388693, 0.15166766382319294, -0.0715570100757861
0.3850081229282371, 0.11835289570322534, -0.04371154235883519
0.38654371035274765, 0.13896350731836474, -0.1031674231016076
0.3952462448226642, 0.19092921155432202, -0.08015783391091831
0.38714429428761543, 0.1503373604392825, -0.1340372203839984
0.3970501363981326, 0.21792913357411453, -0.13435347500064054
0.4009684344103813, 0.24453013024805254, -0.1287896799937038
0.3936721911119073, 0.18752036842191122, -0.10654320598977353
0.3945528625371592, 0.1658858529594984, -0.036145325426661115
0.39940140197130586, 0.20713429870644404, -0.04735106698434139
0.39867688175377003, 0.2235958382828768, -0.11315161462556081
0.40544812720373963, 0.26175596772598714, -0.07349704420060191
0.3990730836323231, 0.21489878544208718, -0.08122592266327541
0.39159312170368, 0.1830699782950084, -0.1414567017548928
0.3864009875916737, 0.17697253981005914, -0.27519315221129304
0.3876340566256087, 0.17149618057702964, -0.2066384860082316
0.388735647700738, 0.18585348385096512, -0.23846966888827714
0.38497355978188547, 0.15915162855328555, -0.233808049822545
0.3914074834440772, 0.1993217651739821, -0.21657782218551985
0.3971524087495372, 0.24551947803744756, -0.24210804500986194
0.38619199961611816, 0.17169772641532322, -0.2542769414773002
0.39248214801331016, 0.21243890494028025, -0.24483910309887383
0.39145120095178154, 0.20967052622045496, -0.2679984952605027
0.3854291292544134, 0.18259962674268118, -0.34792916513282823
0.38095793991298904, 0.14144076059037045, -0.3181113129031919
0.3901578702989923, 0.20739762256957944, -0.30549574469718277
0.3932869797576679, 0.24000616653983728, -0.3355670010743932
0.38531953054191154, 0.17686088579212453, -0.32353550011446763
0.38997301022783915, 0.20765683286463404, -0.3119815924667587
0.38802314433924384, 0.19464563582933295, -0.3136566928344829
0.3789630338334786, 0.12739145381721678, -0.3321320703188807
0.38691346881593025, 0.21432925587415252, -0.37959144338260403
0.3853922480298061, 0.1923034481659371, -0.36877352682794934
0.380309922282929, 0.15278626812426369, -0.371496092834867
0.3798405899301198, 0.15406844200837203, -0.3764056316388289
0.34273583843315236, 0.19501199847438555, -0.41456548221336265
0.31990491257481435, 0.18034029221200432, -0.4103637031774319
0.34392463050437383, 0.15630193363836045, -0.40281731544582033
0.2994790655252888, 0.11563843468921373, -0.3863257806347463
0.2837891717526021, 0.2008413911037457, -0.4093071292375443
0.28422981620007637, 0.17738228651083338, -0.4030245041663698
0.2750476674642696, 0.19709681202263757, -0.398414195617944
0.2727270585323386, 0.16837734217298633, -0.35982765010130957
0.27249037097400863, 0.15910774157211263, -0.3740557753592679
0.2747533555142934, 0.21030444836612935, -0.3117813420706721
0.27311608560446987, 0.17497058907130042, -0.3424205085928389
0.27631753967708295, 0.2123249529950759, -0.3481283333921708
0.2732813944561786, 0.18273873526951828, -0.3118399488910593
0.27358426263017244, 0.18419300963703156, -0.32990139658602596
0.27307073132619036, 0.17928708266870197, -0.2934878708626297
0.2730999547327715, 0.13947638130860715, -0.26025063452566555
0.27572800431425604, 0.20893784450873323, -0.2319931559380658
0.2734734437172585, 0.18696767052858485, -0.2909779731769564
0.27498512110330875, 0.20381010115705045, -0.3281429498394368
0.2747309152716192, 0.2094745727372294, -0.2777559492175454
0.274267202850978, 0.17775117925974585, -0.2384675275418779
0.27679406476711543, 0.1469584398323759, -0.12019889432744371
0.2815945593582454, 0.2523422184623038, -0.1394119385188923
0.28027662099734074, 0.21460765657779335, -0.06670215696448026
0.27911030518878044, 0.1973472981321689, -0.07656034521494946
0.27766391536886437, 0.1901908857514305, -0.1180205987426268
0.2786011314530715, 0.2131605326075816, -0.12653363555283179
0.2797615993013795, 0.22583877456173918, -0.11255487402861544
0.27998459625496097, 0.24766355047403218, -0.18851631062130908
0.2760016524540841, 0.12433465637352986, -0.1498740127746826
0.2778090075320292, 0.1945641095422058, -0.11710818701512006
0.27811366727165276, 0.22744867997257312, -0.18506539868506625
0.2765942044898946, 0.19883999038052097, -0.17096366630771329
0.27507845036670736, 0.15847408577421945, -0.19019086488322026
0.27361874152092613, 0.13226994642519374, -0.24208259736058574
0.2753189610910067, 0.18814612692812108, -0.20935556378264955
0.2739853681223314, 0.16838640729342966, -0.23788709411814463
0.2778408884982109, 0.21574389891587614, -0.16464020915254332
0.2749351345168588, 0.20084339516403904, -0.24307995578671404
0.27596765439180915, 0.22770740941136808, -0.26526329800287546
0.2770065490710349, 0.21447567673422951, -0.19527180105075534
0.27577828232516544, 0.20224078517117605, -0.2128870833937449
0.2799484642679322, 0.15674590176294773, -0.03994503781804268
0.27946250509253023, 0.15189875622495738, -0.04850434273622508
0.27815409134318037, 0.12793727786919123, -0.07570815221475945
0.27817813769445804, 0.18945659723903033, -0.10039377605798555
0.28262323935644584, 0.1561046990055554, 0.018614702789041752
0.27976846313515563, 0.17409242905464029, -0.049619946017128866
0.279334198596147, 0.18871993730329745, -0.06462734631429519
0.28310458967575136, 0.2450645429821051, -0.027989107559008842
0.2837308722841054, 0.22533445897160764, 0.03715467999274974
0.27948211013246876, 0.21102320520095064, -0.08958463734430544
0.2813574321317336, 0.199746190935836, -0.02131051945641886
0.2829934595357157, 0.25788064167802977, -0.10428956633171438
0.2814912480133306, 0.2184460712490633, -0.04063955035116981
0.28264608563796556, 0.18578931482436992, 0.010267911860602578
0.2809276282336784, 0.2202833585440006, -0.05736524342958407
0.28599056868829975, 0.2627105516750092, 0.12611849451402718
0.286155235123732, 0.2671462874177148, 0.13157416440159528
0.2877651715473931, 0.24570256195136042, 0.19792796353342654
0.28864945198019415, 0.20848722902949116, 0.21895701147279417
0.2869336578611966, 0.21781628246343646, 0.15245974966939388
0.28575996589754415, 0.2204204065577382, 0.10893788757002776
0.28883889460750506, 0.1678056695261571, 0.23831202210422603
0.2879529071999458, 0.167037545378521, 0.20285252476941174
0.2862274985974583, 0.18635073883072725, 0.12154811944280036
0.28465224758661734, 0.1680113103066706, 0.06958677283547537
0.2848763949316686, 0.16174289264500707, 0.08285175514904411
0.28491517199742683, 0.14046910010921468, 0.10303297489797149
0.2819290677780535, 0.17568821059945539, -0.003194385532316265
0.2865868304193144, 0.16757230084792632, 0.14456290761373636
0.28600080244166404, 0.17141019246979186, 0.11514918559054942
0.28402207287340436, 0.19891103012195835, 0.046148441448323835
0.28385244182730884, 0.197995701583353, 0.040757752270152534
0.28611684391267805, 0.23915325766234174, 0.13131635943237194
0.28509416954778294, 0.2514230590499319, 0.08851945263379159
0.2852470798575007, 0.1895513307885562, 0.08628255244928497
0.28560256142928836, 0.19157010932781923, 0.0983793197005865
0.2827615962904158, 0.2283481370602929, -0.0024800054118063204
0.28414732778095386, 0.2614304055838076, -0.0032432234450225804
0.2854823374323057, 0.21708314427923558, 0.0966025764342581
0.2852724582840597, 0.2235741803292509, 0.09152702680050123
0.2869919180064061, 0.19839353479320007, 0.15258019161105385
0.28395435129974345, 0.2077799386416249, 0.04408406117073129
0.2898893376301178, 0.16265475477781993, 0.28519936108542004
0.28946099936233277, 0.14485571171849615, 0.2865178533014717
0.2906215771101942, 0.2166997775536987, 0.30051544143351105
0.29031402124193645, 0.2738330882597392, 0.2983753413435721
0.28897577982168543, 0.2743881232701415, 0.24415829880500142
0.2894402168761298, 0.2241943957831824, 0.25398135394154386
0.2897195360775183, 0.18463338166439536, 0.2601204959081227
0.290467328586959, 0.195417870567512, 0.29164003301356356
0.2902730700678559, 0.22709526628970128, 0.2897654934470662
0.29081272969553246, 0.23022114548454603, 0.3154694241281142
0.2906942996218636, 0.18271068182035333, 0.30027678437198896
0.29116213418626646, 0.24405957586662672, 0.33612091415195616
0.28991693453346074, 0.13467900089968, 0.3146624809108907
0.29151952778373824, 0.181758483879704, 0.3397359497744668
0.2917416772721887, 0.19793832886159993, 0.36118097746765343
0.2915086210562977, 0.2276010109459721, 0.34456321176466725
0.2916853871495149, 0.19456886533959933, 0.3543795849414779
0.2941048286629019, 0.26371369302384495, 0.3877107495338234
0.29252328006431083, 0.2000936122595193, 0.38904935488033454
0.2933543970113534, 0.23557033249460227, 0.3875000754396333
0.29032836124688155, 0.1349309797793369, 0.3726885786253654
0.3436068120091067, 0.26713796553340563, 0.42080492988417617
0.3926997823441784, 0.22575862313858402, 0.40736240778801647
0.3701786467779349, 0.23777224378188294, 0.41537882425895
0.38517443469546636, 0.1797009592998731, 0.40595986672549034
0.36404187965975315, 0.20609754362636085, 0.4143623793787154
0.3610362416604008, 0.1319049165519722, 0.4071561199460969
0.34719687644292013, 0.19704613942943724, 0.41640963688510707
0.341045074672021, 0.23006271088950078, 0.4195190294207872
0.31762830584394314, 0.20512901290700716, 0.4177406385101884
0.3173720285488821, 0.14371169856319257, 0.41320465989477473
0.30480037146780364, 0.16800215344782127, 0.412916826331279
0.3011319017326851, 0.19982966182565864, 0.4113745230957091
0.31774280879155004, 0.17013273616874847, 0.4153485034789412
0.3957793961837439, 0.363951891648715, -0.44798053639894886
0.3944497536002057, 0.33553236652908014, -0.4351904056888021
0.38891320312965166, 0.26098849133321056, -0.40970788541350217
0.3937898657778709, 0.3140580159539958, -0.42296780773060016
0.39138280929242364, 0.28516399022629196, -0.41456601406763743
0.3345302101478149, 0.47686013036208946, -0.4480434317349626
0.3485024154009484, 0.45311411525720025, -0.464960530162022
0.3542436841700931, 0.47519354623396126, -0.44826660900881665
0.3171936210165241, 0.4476819787495455, -0.46776116409418556
0.27448394004018123, 0.22481215975834246, -0.3964968404639016
0.2731546929718636, 0.2831539481623788, -0.38953562588318563
0.27159038621857146, 0.35198206429528844, -0.4337002196182815
0.27274624803000147, 0.33438382984094017, -0.4071067860895673
0.2730609452852141, 0.30841175921399955, -0.3973990155191093
0.34273202305617767, 0.08005438531518393, -0.3555715332129636
0.32919356136006966, 0.0732046512769329, -0.3245519474004182
0.2944368290199749, 0.08429611335493709, -0.35718276965825285
0.40993723321271325, 0.3230755049258861, -0.11336977857029534
0.40670664244551924, 0.28652004026611055, -0.11083807669774304
0.41219345128870044, 0.35658152721068176, -0.11332644107434656
0.4100780408044519, 0.31827972975396307, -0.09965519343043647
0.4025569312525271, 0.2690028008688824, -0.1708229690123111
0.40684694498943547, 0.3245603844128084, -0.19921101061650415
0.40707753362974086, 0.3115246429063435, -0.1648921238377787
0.4054370197962025, 0.28261646327162215, -0.13347126831262968
0.4085055659162148, 0.3538780962671818, -0.20610401035651843
0.4069841497425553, 0.3237123959054957, -0.19373173391663476
0.40919696963243296, 0.3324914367130084, -0.15285187924576163
0.4102219789352362, 0.3697583686176024, -0.1861565271704985
0.40834526898640683, 0.34129424846381345, -0.19089642338819962
0.4110305336013087, 0.40232931350035916, -0.2047485567205763
0.4111952956563167, 0.42990878710967406, -0.2274492238886737
0.4115527150895781, 0.37747269246010834, -0.1610160629951114
0.4130885239314511, 0.45508727351256917, -0.2047606079689587
0.4125669726037108, 0.4338649754534779, -0.19780881705940778
0.412902473940242, 0.43131305934121406, -0.18632527346913108
0.4151425092883247, 0.46901718025739075, -0.1692524799554691
0.4145392877548586, 0.4371252067744358, -0.15102507888052144
0.41033661914600206, 0.34148127283706964, -0.13867117001367169
0.41162854447279795, 0.38380350053198103, -0.16669191745402667
0.4121606789213633, 0.3744047908295979, -0.14140831265211223
0.4138794756129105, 0.4283220562491901, -0.15856325214792838
