-0.04688247405823545, 0.9581277966499329, 0.18529359614324206
0.145017838399245, 0.9581277966499328, 0.3967478453878377
-0.10158379657708616, 0.9581277966499329, 0.2739878633416304
-0.5309949332377235, 0.9581277966499329, 0.13855168230416512
-0.42584691477048486, 0.9581277966499329, -0.1563894987926378
0.0989596669860448, 0.9581277966499328, 0.0683145077810777
0.13398666507816337, 0.9581277966499328, 0.10614885224591128
-0.14296451557268247, 0.9581277966499329, 0.20363565279262227
0.019027358312639964, 0.9581277966499329, 0.08440541123305778
-0.2904199140124869, 0.9581277966499329, 0.1371278875185448
-0.020218126686019966, 0.9581277966499328, 0.31556100441855806
-0.07517927782151451, 0.9581277966499329, 0.28615252304417205
0.05433897070717869, 0.9581277966499329, 0.03967533498457487
0.427726091292928, 0.9581277966499329, 0.3925293229338825
-0.7425201610707154, 0.9581277966499329, 0.04472947861747925
-0.45083043894078, 0.9581277966499329, -0.10804995040593024
-0.5903813227869098, 0.9581277966499329, -0.27766078931208066
0.08838826303462988, 0.9581277966499329, 0.03366043179895717
0.5463222198469538, 0.9581277966499328, 0.38871072344072005
-0.7368802543716553, 0.9581277966499329, 0.14270129255529823
-0.5063605347264946, 0.9581277966499329, -0.23726775622326463
-0.8365486603254275, 0.9581277966499329, 0.13630198524866097
-0.057821876166850805, 0.9581277966499329, -0.049834275210728196
-0.34347851319394773, 0.9581277966499329, 0.045452974009909414
-0.4413045093790688, 0.9581277966499329, -0.16043695137728378
-0.3864733561291771, 0.9581277966499329, 0.26677699372457775
-0.6601427120085404, 0.9581277966499329, -0.35626589003871173
-0.5154082734532165, 0.9581277966499329, 0.17797516547491762
0.01741523095821501, 0.9581277966499329, 0.13004105888689196
-0.7930092928861072, 0.958127796649933, 0.24464687437499197
0.1362395684463344, 0.958127796649933, 0.09224794819501866
-0.760171279818436, 0.9581277966499329, -0.416624480291755
-0.38933770901616815, 0.9581277966499329, -0.13412875535420574
-0.3839801374015656, 0.9581277966499328, 0.3572496902678385
-0.7706160969648739, 0.9581277966499329, 0.042257039051938006
-0.6416340601186836, 0.9581277966499329, -0.236471010871789
-0.24321151728453902, 0.9581277966499329, 0.19633616631405681
-0.41513618001894576, 0.9581277966499329, 0.3446415580310317
0.31869177379730307, 0.9581277966499329, 0.2235649918918494
-0.06405955831297427, 0.9581277966499329, 0.3230027928470282
-0.7354397698999755, 0.9581277966499329, 0.08613827790096415
0.3421706262114479, 0.9581277966499329, 0.29496953875226245
-0.3329541109933203, 0.9581277966499329, -0.06319305952303819
0.4430606781070361, 0.9581277966499329, 0.2586666730090851
-0.5370895032466723, 0.9581277966499329, 0.01377047346623575
-0.6731705164425162, 0.9581277966499329, -0.22973865079842065
0.14521204982024816, 0.9581277966499329, 0.2230092256828771
-0.47862692674147556, 0.9581277966499329, -0.22994304421699593
-0.5819228694519469, 0.958127796649933, -0.23145615574865713
0.2542219934918596, 0.9581277966499329, 0.2937346740811727
-0.5327878078211097, 0.9581277966499329, 0.22358207932867225
-0.7642055556737554, 0.958127796649933, -0.2809727836466967
-0.6600975230387343, 0.958127796649933, 0.3695141131681216
-0.2927747906793065, 0.958127796649933, 0.22509038506022677
-0.6482072704220511, 0.9581277966499329, 0.24071999402120692
-0.087296253673813, 0.9581277966499329, 0.3055510607112763
-0.49301937831427123, 0.9581277966499329, -0.1636742782516327
-0.13280848100855447, 0.9581277966499328, 0.11609444504122701
-0.6625250833831315, 0.9581277966499329, 0.2789388012138456
0.6126890115048418, 0.958127796649933, 0.40360684825984744
-0.5847799343850847, 0.9581277966499328, -0.12337286250361165
0.028804004665115568, 0.9581277966499329, 0.3136581694880479
-0.2496181842612066, 0.9581277966499329, 0.07475619472209408
-0.4621082119879861, 0.958127796649933, 0.24078118622251576
-0.1819426896684545, 0.9581277966499329, -0.049180340162122416
-0.4901870819601781, 0.9581277966499329, -0.06504125239168235
0.43909026496371706, 0.9581277966499329, 0.3163510935514221
0.3917082767328177, 0.9581277966499329, 0.3826865624501769
-0.7757942098336628, 0.958127796649933, 0.17673184721196253
0.44916206148035864, 0.9581277966499328, 0.4070620453775192
-0.578387977401617, 0.9581277966499328, 0.1563791952322651
-0.6253081695640971, 0.9581277966499329, -0.025830264574693396
-0.3256752927586744, 0.9581277966499329, -0.14759173708251822
-0.3698774776954229, 0.9581277966499329, 0.25483349092720264
-0.3041890922821482, 0.9581277966499329, 0.06081398541456082
0.08734480904349616, 0.958127796649933, 0.42979062834672754
-0.2629418677509392, 0.9581277966499329, 0.2300784069123333
0.5008036685119899, 0.9581277966499329, 0.36412302465060153
-0.17768228065431713, 0.9581277966499329, 0.17596957844510627
-0.23809262818220667, 0.9581277966499328, 0.15602099779162107
-0.7955772988022108, 0.9581277966499329, -0.0746060877103305
-0.8417253404626488, 0.9581277966499329, -0.24782274793084047
0.10557372583516306, 0.9581277966499329, 0.13251622470197028
-0.5796288045891944, 0.9581277966499329, 0.293392152448879
-0.07135837705847695, 0.9581277966499329, 0.1770863910015703
-0.3319112952412826, 0.9581277966499329, 0.06340313884653137
-0.35899398011175687, 0.9581277966499328, 0.41666263002699017
-0.21111886462379192, 0.9581277966499329, 0.03649552924640026
0.13843714365672397, 0.9581277966499328, 0.21836363614979626
-0.6988833452076768, 0.9581277966499329, -0.029281766425309524
-0.23457734723688253, 0.9581277966499329, 0.026346111412074213
-0.5036264283703313, 0.9581277966499329, -0.2849375424667203
0.3283150752501459, 0.9581277966499328, 0.316334377912223
0.03428619690828957, 0.9581277966499329, 0.27748102362389115
-0.35988022715202334, 0.9581277966499328, 0.21521146403267088
-0.17726457491267553, 0.9581277966499329, 0.048985045531511645
0.1611117810624852, 0.9581277966499329, 0.126516142339773
-0.2667533680092603, 0.9581277966499329, 0.05122404225346899
-0.04853646695389796, 0.9581277966499328, 0.32709746076181734
-0.6130635420026875, 0.958127796649933, 0.21221671802550807
-0.8108729641776038, 0.9581277966499329, 0.09586924660660853
-0.14214167772720415, 0.9581277966499329, 0.08486356657761226
-0.14119287573370848, 0.958127796649933, 0.3229754410822197
-0.3056563652420863, 0.9581277966499329, 0.30548099885370017
-0.3845417733121389, 0.9581277966499329, 0.06873318572092349
-0.28169140716940727, 0.9581277966499329, -0.061699583306392636
-0.3895228202972227, 0.9581277966499329, -0.22569434332145447
-0.8096160268785273, 0.9581277966499329, -0.009477441121379993
-0.3061511777224449, 0.9581277966499329, 0.2573383088168487
-0.7606792588677399, 0.9581277966499329, 0.11958612118875428
-0.7552796215178788, 0.9581277966499329, -0.0068299396959480285
-0.19465207002874413, 0.9581277966499328, 0.23586520517840825
-0.28302486403291455, 0.9581277966499329, -0.12101347096467047
-0.3046307452527598, 0.9581277966499329, -0.159649049614055
0.5636920808640438, 0.958127796649933, 0.3445758790752519
-0.5091385518661474, 0.9581277966499329, 0.039400577386696306
-0.666021053572311, 0.9581277966499329, 0.40435846006805715
0.154527915104004, 0.9581277966499329, 0.1068507903244304
-0.623894591701709, 0.9581277966499329, -0.10978387664926392
0.35729563808785625, 0.9581277966499329, 0.40558697065083243
-0.003896349597390887, 0.9581277966499329, 0.3904948245366888
-0.4860723185521048, 0.9581277966499329, -0.2682693225081917
-0.603499930296431, 0.9581277966499329, 0.11026122597550617
-0.33172583694028857, 0.9581277966499329, -0.019410620320001792
-0.12315137401570542, 0.9581277966499329, 0.21062652645535396
-0.6541897998409041, 0.9581277966499329, 0.39547598561292724
-0.7457347371605891, 0.9581277966499329, -0.11539879913770051
-0.8389112566971382, 0.9581277966499329, 0.3190976523368012
0.21427077603686412, 0.9581277966499329, 0.13756053669895918
-0.742747172032534, 0.9581277966499329, -0.2130890883617764
0.00528535415972442, 0.9581277966499329, 0.12208417790709639
0.732032066297772, 0.9581277966499329, 0.39411418322544056
-0.1740004829280592, 0.9581277966499329, -0.04082963976917739
0.43105806622673276, 0.9581277966499328, 0.24426418010477308
-0.011990895254040488, 0.9581277966499329, 0.407319430563248
-0.6403828245683021, 0.9581277966499329, 0.2885441259135956
-0.15097221859606538, 0.9581277966499329, 0.05007754837282463
-0.759933943450564, 0.9581277966499329, -0.4134627656665582
0.012095984443084462, 0.9581277966499329, 0.08664697330498566
-0.20821999043865336, 0.9581277966499329, -0.12499131975739772
-0.49060557507759367, 0.9581277966499329, 0.41611619389491683
0.40169892142337393, 0.9581277966499329, 0.35212309465009217
-0.15432667035307046, 0.9581277966499329, 0.22698485982059685
0.3597190277265773, 0.9581277966499329, 0.2628111734223838
-0.6368247651962369, 0.9581277966499329, 0.3249832570535356
-0.8258951473523325, 0.9581277966499329, 0.16906263139843936
-0.7842701766668991, 0.9581277966499329, 0.2876800490878746
0.1938367929284257, 0.9581277966499329, 0.14764753350434084
-0.19156239345330459, 0.9581277966499329, 0.04856772878985033
-0.7129756028401704, 0.9581277966499329, 0.029916981423901062
-0.6060235739441299, 0.9581277966499329, 0.16621024912813012
-0.48899979390757, 0.9581277966499329, -0.07689381603560214
0.5708427570414838, 0.9581277966499328, 0.29390700925923574
0.3752909178222432, 0.9581277966499328, 0.3237956905703632
-0.5474261371703263, 0.9581277966499329, 0.0556518663220987
-0.4880640757550222, 0.9581277966499329, 0.3819801555088141
-0.5353845548498389, 0.9581277966499329, -0.20741654760300693
-0.7028271256305051, 0.9581277966499329, -0.004353178185682066
-0.47519595516763113, 0.9581277966499329, 0.13912874162303207
-0.1743265804596473, 0.9581277966499328, 0.3043883108410292
-0.28164110112984825, 0.9581277966499329, 0.12022411608196218
-0.23631599336333586, 0.9581277966499329, 0.012013987928304132
-0.576431838709935, 0.9581277966499329, 0.22163808293031634
-0.6605484907954496, 0.9581277966499329, 0.03784552528911184
-0.4174290866477567, 0.9581277966499329, 0.07060277601921733
-0.4064732593536753, 0.9581277966499329, -0.13818977385825368
-0.1311501874216518, 0.958127796649933, 0.008681278883734378
-0.35368041359818964, 0.9581277966499329, -0.16085956816663588
0.00487604560308269, 0.9581277966499329, 0.2968114961033319
-0.29394264938710546, 0.9581277966499328, 0.21689033592030807
0.48608954712882957, 0.958127796649933, 0.3018285681840696
-0.21100942404448902, 0.9581277966499329, 0.38518911804025313
0.3725628921042031, 0.9581277966499329, 0.1872809860464211
-0.6721564442916816, 0.958127796649933, 0.17969630883262686
0.14954918714125845, 0.9581277966499329, 0.2165804476775628
0.07361101822003152, 0.9581277966499329, 0.039887726306835625
-0.15793198337174477, 0.9581277966499329, 0.3711425771903529
0.44458571057815627, 0.958127796649933, 0.41916337344029364
-0.699409326495603, 0.9581277966499329, -0.37311043600975813
-0.18291683366229194, 0.9581277966499329, 0.1511828349793346
0.26721445367366115, 0.9581277966499329, 0.17383634530363146
-0.08066971981399179, 0.9581277966499329, -0.03837808152877892
-0.7610177134350056, 0.9581277966499329, -0.36119318561224634
0.3088012896558974, 0.9581277966499328, 0.34147234975959334
0.16545690610059524, 0.9581277966499329, 0.27689524799062926
-0.4695806846515087, 0.9581277966499329, 0.26578885874862873
-0.7329217653988704, 0.9581277966499329, -0.26203525543679185
-0.10749821820448072, 0.958127796649933, 0.2213200848465846
-0.19060122820876502, 0.9581277966499329, -0.013119944341975137
0.10116536953499794, 0.9581277966499329, 0.07797251354290652
-0.14140133441484576, 0.9581277966499329, 0.008749726524054369
-0.1898517086553253, 0.9581277966499329, 0.15224122811220905
-0.823703959165771, 0.9581277966499329, 0.07125937496746032
-0.5693770879496898, 0.958127796649933, -0.15394930210093133
-0.4085657294448797, 0.9581277966499328, 0.2738602516426412
-0.6517750141739709, 0.9581277966499329, 0.2248593312784342
-0.3356911044181542, 0.9581277966499329, 0.16398002041320578
-0.26795589592883307, 0.9581277966499329, 0.32148620054142724
0.010042713040088358, 0.9581277966499329, 0.21321040828097115
0.6666331080432575, 0.9581277966499329, 0.423241058756325
-0.20537371409916882, 0.9581277966499329, 0.4288571987641927
-0.19818764627846341, 0.9581277966499329, 0.34995802986085023
-0.043294407843909546, 0.9581277966499329, 0.35857298635296725
-0.7671184860945084, 0.9581277966499329, -0.13402127296960678
-0.3998111323343211, 0.9581277966499329, 0.16448037744518706
0.2834534200518268, 0.9581277966499329, 0.22186292821254583
0.3815234483723174, 0.9581277966499329, 0.07118269690095153
0.4269545132024294, 0.9581277966499329, -0.15438981423553635
0.7885934893997096, 0.9581277966499329, 0.25844519666907056
0.3717649965983918, 0.9581277966499329, 0.03671085945182287
0.7295003846153546, 0.9581277966499329, -0.3853076193816996
-0.3042206357906228, 0.958127796649933, -0.4422578804842736
0.20578906605665415, 0.9581277966499329, -0.10561722027822973
0.7478548208170699, 0.9581277966499329, -0.14750208847602442
0.5783708328866064, 0.9581277966499329, -0.2192874087575249
0.5013743087947314, 0.9581277966499329, -0.17378238792643452
0.21669399374134846, 0.958127796649933, -0.4613925202800956
0.7610455736188774, 0.9581277966499329, -0.4090012723523567
0.35480042215187285, 0.9581277966499329, -0.4235808225644167
0.17383349206106896, 0.9581277966499328, -0.3203500139827845
0.6916600094911154, 0.9581277966499329, 0.24955696644698921
0.1606908291597942, 0.9581277966499329, 0.010420454929450318
-0.0405273422323329, 0.9581277966499329, -0.06199135502632677
-0.3810218101456348, 0.9581277966499329, -0.27628181570754007
0.2572972493523191, 0.9581277966499329, 0.057373000660860374
0.14761825276021223, 0.9581277966499329, -0.017018049083267733
0.636064482545244, 0.958127796649933, 0.15022569490766716
0.22020697205423032, 0.9581277966499328, -0.4158868181700005
-0.19823280442158775, 0.9581277966499329, -0.42407269664670816
0.5821589674448605, 0.9581277966499328, -0.33461916988111384
0.6011782962696575, 0.9581277966499329, -0.0018336274957849452
-0.3802887603977328, 0.9581277966499329, -0.40403801110765736
-0.054922033314747154, 0.958127796649933, -0.08910267571603633
-0.05918720252281434, 0.9581277966499328, -0.08319517586423955
0.5256911058612598, 0.9581277966499329, -0.04831854503598168
-0.09143486898456271, 0.9581277966499328, -0.401536987001715
0.4751762947395001, 0.958127796649933, -0.46927782952681646
0.3651827821839877, 0.9581277966499329, 0.07947401212818928
-0.5450769890130138, 0.958127796649933, -0.39850818860226045
-0.4453182331092944, 0.9581277966499328, -0.34019756019443903
-0.6768233791162526, 0.9581277966499328, -0.41988025960852354
0.2282832218402643, 0.958127796649933, -0.4092341715434327
0.13070268710182312, 0.9581277966499329, -0.11941484284487827
0.6695674969262585, 0.9581277966499329, -0.10549972191505941
-0.010073789043355104, 0.9581277966499329, -0.45206265327907014
-0.12242225758149117, 0.9581277966499329, -0.2652056403217343
0.6957857634973739, 0.9581277966499329, -0.12025509746252161
0.5498685464901697, 0.9581277966499329, -0.29431762308370196
0.01812688813275659, 0.9581277966499329, -0.07388927905618828
0.2606275154608724, 0.9581277966499329, 0.017368541527672282
0.6924691590789988, 0.9581277966499329, 0.06685859833212107
-0.03419744846946454, 0.9581277966499329, -0.07281117779248059
0.6531033899129672, 0.9581277966499329, 0.1379193771473793
0.3350178440942613, 0.958127796649933, -0.07961403497612507
0.7288182703248804, 0.9581277966499329, -0.3837486181802382
-0.48080838249158925, 0.9581277966499329, -0.3799229524871391
0.7780277626852519, 0.9581277966499329, -0.43185193716256487
0.5455557249197066, 0.9581277966499329, -0.14285875910038762
0.698698470296327, 0.9581277966499328, 0.3428539330112705
0.20466944147090332, 0.9581277966499329, -0.4029112043183826
0.1956451366539631, 0.9581277966499329, -0.282053421382772
-0.5835365944331179, 0.9581277966499329, -0.43240467144621936
0.4695037093217962, 0.958127796649933, -0.4613950835007827
-0.024187705979753366, 0.9581277966499329, -0.31013806330984817
0.5317359481553252, 0.9581277966499329, 0.17689560986910896
0.599707288223752, 0.9581277966499329, -0.46174697156107697
0.6209144735651242, 0.9581277966499329, -0.07765228348716591
0.8397999395478906, 0.9581277966499329, 0.277682959251055
0.7375482732621284, 0.9581277966499329, -0.3249939896218688
-0.07502964839471266, 0.9581277966499329, -0.10930486942490578
-0.2038947398948475, 0.9581277966499329, -0.2599897781337529
0.06641899457665201, 0.9581277966499329, -0.22520856253949062
0.6168317384001044, 0.9581277966499329, -0.23202123214394899
0.33529991678572035, 0.9581277966499329, -0.314554831953138
0.6241040847284953, 0.9581277966499328, -0.2106251973173716
0.5653466471390947, 0.9581277966499329, -0.20903874627436383
0.14354201217613471, 0.9581277966499329, -0.4012831115834956
0.6125299375456125, 0.9581277966499329, 0.17475790493243432
-0.5898449732053186, 0.9581277966499329, -0.3993489563194736
0.41617097408714054, 0.9581277966499329, -0.09900335683883707
0.626720899064797, 0.9581277966499329, -0.25935399689595007
-0.020632066365960808, 0.9581277966499328, -0.41665458871161154
0.2796574113443106, 0.9581277966499328, 0.09528961547706244
-0.5158471338308632, 0.958127796649933, -0.4054457415686921
-0.6044566145881372, 0.9581277966499329, -0.40791728296969215
0.31644646660729525, 0.9581277966499329, 0.0678546294282561
0.13942093643282075, 0.9581277966499329, -0.4499806953862245
-0.3936309528622331, 0.9581277966499329, -0.3584955826426185
-0.45897016183875944, 0.9581277966499328, -0.4609689492093308
0.7260771489792534, 0.9581277966499328, -0.3627775523499727
0.34891937498586445, 0.958127796649933, -0.29254008715367524
-0.3913332382658133, 0.9581277966499329, -0.35800264545739485
0.7603697386616929, 0.9581277966499329, -0.2224357864080877
0.13920189409694217, 0.9581277966499329, -0.1785968085117035
0.012019344878365541, 0.9581277966499329, -0.4568528392639376
0.3327596802477996, 0.9581277966499329, -0.263689329679262
0.19038512685895265, 0.958127796649933, 0.040127199964392846
0.23561871679453522, 0.9581277966499329, -0.0482743187806039
-0.02018977942921457, 0.9581277966499329, -0.18310014653388923
-0.060557709205497356, 0.9581277966499329, -0.06033843068451994
0.7926501688070726, 0.9581277966499329, -0.37117169777676
0.4975485215919121, 0.9581277966499329, -0.200079116477577
0.3916619814369564, 0.9581277966499329, -0.31005751440017126
-0.08726369747551033, 0.9581277966499329, -0.08539840128602177
0.4574455794895187, 0.9581277966499329, 0.17387689896013167
0.7068696387210576, 0.9581277966499326, -0.4295075449612139
0.735101227136763, 0.9581277966499329, -0.1329434256328865
0.5151566461826911, 0.9581277966499329, 0.2090963875769094
0.4319528202727155, 0.9581277966499329, -0.3871594614638783
0.3698528921804327, 0.9581277966499329, -0.16640241307595802
-0.37384175503381817, 0.958127796649933, -0.4211820360292857
0.5357999791076536, 0.9581277966499329, -0.07757479661990732
0.6852351263896073, 0.9581277966499329, 0.10865884222826136
0.8418246139129273, 0.9581277966499328, -0.45507451359764867
0.81929836401473, 0.9581277966499329, -0.24788277418114565
0.5536953703083989, 0.9581277966499329, -0.4279360810484975
-0.18829655668373904, 0.9581277966499329, -0.2697957841835327
0.14945319595143655, 0.9581277966499329, -0.30912489907457724
0.6446788034891239, 0.9581277966499329, -0.3325265621441355
0.3484892253990368, 0.9581277966499329, -0.09996569934633764
0.2998014108828526, 0.9581277966499328, -0.33576088931379156
0.5936149795837059, 0.9581277966499329, 0.2282071798740027
-0.0655981632466821, 0.9581277966499329, -0.192362334468652
0.6815124020537637, 0.9581277966499329, -0.2730707089097627
0.23682182489651638, 0.9581277966499329, -0.18577845676076393
-0.18666067576505924, 0.9581277966499329, -0.15104176203174108
0.42848226918282745, 0.958127796649933, -0.455534916676119
-0.043405853416869755, 0.9581277966499329, -0.1618007724943385
0.14070299279824539, 0.9581277966499329, -0.4179950516649074
0.5445979586314031, 0.9581277966499329, -0.2111531813977417
0.5334767648112004, 0.9581277966499329, -0.05857534706622183
0.290305936503645, 0.9581277966499329, 0.10322606982696092
-0.040291510985510065, 0.9581277966499328, -0.31930699939070817
0.16479632437548886, 0.958127796649933, -0.4124807545897058
-0.13633415418719697, 0.9581277966499329, -0.27760199344780023
0.22787205509653613, 0.9581277966499329, -0.46432062065040924
-0.20582054465606944, 0.9581277966499329, -0.3185260018464023
0.08946726050296416, 0.9581277966499329, -0.007413473235433982
0.7481572055407213, 0.9581277966499329, 0.15256163889164887
-0.6636691978679974, 0.9581277966499329, -0.474515610041855
-0.03765593994182315, 0.9581277966499329, -0.05189857560142397
-0.24503549478962938, 0.9581277966499329, -0.23000065984571305
0.5039058332801774, 0.9581277966499329, -0.44692308950866955
0.23574438261405603, 0.9581277966499329, -0.14389736451050922
-0.2300730016262924, 0.958127796649933, -0.43577113708646453
0.45516140740894184, 0.9581277966499329, -0.13827521942739326
0.3233232251458693, 0.9581277966499329, -0.2789185157692067
-0.06750405458178965, 0.9581277966499329, -0.2896041291116547
0.6553903557455156, 0.9581277966499329, 0.31981237149977476
0.7566415414080006, 0.9581277966499329, 0.10835015966635447
0.776366045824668, 0.958127796649933, -0.16846023655812795
0.6030176014917803, 0.9581277966499329, -0.40791285627885254
0.28372603516966133, 0.958127796649933, -0.4471992870323907
0.4477857342984295, 0.9581277966499329, -0.10094591673859354
-0.06713316030003647, 0.9581277966499329, -0.39140452127824615
-0.20179448089838212, 0.9581277966499329, -0.3405993459848785
0.4113271611720864, 0.9581277966499329, -0.3797488305917923
0.006572884681862498, 0.9581277966499329, -0.4321797664713845
0.5691110491926659, 0.9581277966499329, -0.03649144717453587
0.04231439138575366, 0.9581277966499329, -0.391897695952242
0.8097490797232403, 0.9581277966499329, -0.24811808232309723
-0.26801813526025614, 0.9581277966499329, -0.18879795148397852
0.21901165972926107, 0.9581277966499329, -0.17043572859096887
0.6445717621362081, 0.9581277966499329, -0.11754722171452
0.8423518010053141, 0.9581277966499329, 0.12362508478170728
0.2816683035599855, 0.9581277966499329, -0.12354960489702804
-0.027169922204271446, 0.9581277966499329, -0.04436881930228842
0.7815395291719952, 0.9581277966499329, 0.035419553937235476
0.3926800129168848, 0.9581277966499329, 0.08004130760447839
0.6976291567125303, 0.9581277966499329, 0.16456955110347454
0.7721475991995093, 0.9581277966499329, 0.2335174315683698
0.31852570694632787, 0.9581277966499329, -0.06013035749535542
-0.13926297232845414, 0.9581277966499329, -0.10986791863663914
0.7411059752649876, 0.9581277966499329, -0.34110111023299783
0.20821756500412295, 0.958127796649933, -0.4158782907395447
0.7666905159588999, 0.9581277966499329, -0.03485458041551437
-0.5784192455291883, 0.9581277966499329, -0.4247453986247698
0.12190933588691083, 0.9581277966499329, -0.011655188249394183
0.6643522961238622, 0.9581277966499329, -0.33278662819963595
0.44494414195936705, 0.9581277966499329, -0.285527077457014
0.8285968705800133, 0.9581277966499329, -0.15408716381590418
-0.077412496119244, 0.9581277966499329, -0.15905312518215942
0.7174292497621109, 0.958127796649933, -0.29983804599709063
-0.19425521374359817, 0.958127796649933, -0.43167662774488064
-0.4075141060290169, 0.9581277966499329, -0.43584579730619594
0.22016407926850218, 0.9581277966499329, -0.35947028479104964
0.5914110235330882, 0.958127796649933, 0.23654853937221082
0.5560161623598576, 0.9581277966499329, 0.05211096768678983
-0.6603213493947874, 0.958127796649933, -0.4649273006086694
0.3676683516643483, 0.9581277966499328, 0.06290790520204681
0.5097092656492961, 0.9581277966499329, -0.3845193807770705
0.2452439405157757, 0.9581277966499329, -0.304519457473169
0.6793476946957715, 0.9581277966499329, -0.29999785606031415
0.623967000248114, 0.958127796649933, -0.31205083350759777
0.7591124209039065, 0.958127796649933, -0.3564486461172761
0.7882726887133162, 0.9581277966499329, 0.34666154867527366
-0.12614732457307073, 0.9581277966499329, -0.2602585844271738
-0.3843386769545753, 0.9581277966499329, -0.2680605101361586
-0.36947227477378086, 0.9581277966499329, -0.300824408933416
0.6775120200057445, 0.958127796649933, -0.002521137949506036
0.376567671837164, 0.9581277966499329, -0.1023399387320301
0.6787870771489546, 0.958127796649933, 0.05691920653824539
0.3671572661942174, 0.9581277966499329, -0.3494051779156378
-0.0926210441862415, 0.9581277966499329, -0.3804868490881511
0.8031756507362992, 0.9581277966499329, 0.17652360385041976
0.2616044591605904, 0.9581277966499329, -0.19876264917340522
-0.43836047812111656, 0.9581277966499329, -0.37373643375354576
-0.46872291655527865, 0.9581277966499329, -0.4340428157667037
0.65964327311237, 0.958127796649933, -0.42841273996501117
0.2805380494264949, 0.9581277966499329, -0.17047551283175028
0.31017927172399085, 0.958127796649933, -0.018027452473688838
-0.3122889673628314, 0.9581277966499329, -0.4217860076544524
-0.388256916381247, 0.9581277966499329, -0.34928693332977284
0.5443670241696946, 0.9581277966499329, -0.27103188623427876
0.4588907583978019, 0.9581277966499329, 0.06960344949929187
0.6127922747821543, 0.9581277966499329, -0.46247587397221057
0.27967867579225836, 0.9581277966499328, -0.3820414927570684
0.3076085725210778, 0.9581277966499329, -0.41467336903273927
0.6299901520997625, 0.9581277966499329, -0.19203689703135857
0.4487239754338358, 0.9581277966499329, 0.016696809236313337
-0.22152817164486807, 0.9581277966499329, -0.23721551484636055
0.7008553778556699, 0.9581277966499329, 0.3326936820139703
0.6327568653534926, 0.9581277966499329, 0.05773719562318674
-0.7741843391455026, 0.958127796649933, -0.4743675853755257
0.5584946956297916, 0.9581277966499329, -0.3546992429893082
0.2866510737198287, 0.9581277966499329, -0.2440266598061757
0.6700690982214251, 0.9581277966499329, -0.10366433744430104
0.3837997369699932, 0.9581277966499329, -0.3824933971022507
-0.27443579515390737, 0.9581277966499329, -0.40407937076218553
0.8039982308632293, 0.9581277966499328, -0.22613953896123884
0.5040313929807954, 0.9581277966499329, 0.21032916741107863
0.6879436815132665, 0.9581277966499329, -0.12106264043988796
0.5488299772115576, 0.9581277966499328, 0.02226087627630921
0.5341761041102671, 0.9581277966499329, -0.26419795055342954
0.13204924242374078, 0.9581277966499329, -0.3397106940731357
0.3996278195372954, 0.9581277966499328, -0.4091937521166907
-0.34369916397180267, 0.9581277966499329, -0.23122133019549002
0.0636999667171928, 0.9581277966499329, -0.03405439037222341
-0.3582872331783297, 0.9581277966499329, -0.28362355865561845
0.11813290374992656, 0.9581277966499328, -0.44961438879153826
0.5557667442052441, 0.9581277966499329, 0.16159352654527667
0.1776713332730255, 0.9581277966499329, -0.2596980487009721
0.7349772329526643, 0.9581277966499329, -0.02909349019663815
0.634536394578337, 0.9581277966499329, 0.1947766481302028
-0.4010218039120508, 0.958127796649933, -0.24895829813169804
0.7527461401820827, 0.9581277966499329, 0.24265179776591872
-0.28106853377847635, 0.9581277966499329, -0.19534812674283797
0.7901531414251882, 0.9581277966499329, -0.36113186392075763
-0.18004160611126288, 0.9581277966499329, -0.38774598596167453
0.6724087055162449, 0.9581277966499329, -0.26636897665838133
-0.10164692395573155, 0.9581277966499329, -0.17169775040252136
0.5312081337579794, 0.958127796649933, 0.25877329290924644
-0.08988593134517739, 0.9581277966499329, -0.3881018307974014
-0.5217085874168663, 0.9581277966499328, -0.3700083062145677
-0.1067581648391229, 0.9581277966499328, -0.43943752250958923
0.19974484079803048, 0.958127796649933, -0.007540186168765062
0.3419675830096591, 0.9581277966499329, -0.10833571496931088
0.6460319222031192, 0.9581277966499329, 0.05895435228584339
0.35162217442016713, 0.958127796649933, -0.3758886984017485
0.05271609896690285, 0.9581277966499329, -0.22098437226121825
0.8416283276986528, 0.9581277966499329, 0.1746756243853907
-0.42308280034533147, 0.958127796649933, -0.46119766002856827
0.7365136580702183, 0.9581277966499329, -0.03755558077668303
0.8411410022139434, 0.9581277966499329, -0.38815030627789665
0.3603642168860499, 0.9581277966499329, -0.19531769904738996
0.7035126258039757, 0.9581277966499329, 0.10116168028394062
0.7245670545376397, 0.958127796649933, -0.29080802908915654
-0.18645568218476177, 0.9581277966499329, -0.21430174172608302
0.18564342442764037, 0.9581277966499329, -0.4359337732103393
0.2674987111574296, 0.9581277966499329, -0.0764932832830951
0.4274947052423132, 0.9581277966499329, -0.22279167822541535
0.776782244876268, 0.9581277966499329, -0.43482895347208445
0.7946422586374546, 0.9581277966499329, 0.24652315513878797
0.4632297315963299, 0.9581277966499329, -0.07364609265965139
0.4975924230727925, 0.9581277966499329, -0.24205071929322414
-0.19545095716650468, 0.9581277966499329, -0.13794253887048627
0.742457297681776, 0.9581277966499328, 0.34359337009918844
0.10668741299015155, 0.9581277966499329, -0.28134242951626465
0.2816590614487232, 0.9581277966499329, 0.037451734471930564
-0.03919484692652677, 0.9581277966499329, -0.4719327062222414
0.5306905267309769, 0.9581277966499328, 0.07386008229446661
0.7832812548878133, 0.9581277966499329, 0.3006060036735563
0.4040321402953879, 0.9581277966499329, 0.03744492833871768
0.5499936551453942, 0.9581277966499329, -0.3572456356674574
0.4160539496060587, 0.9581277966499329, -0.011572051622036367
0.2747171771325688, 0.9581277966499329, -0.18802048971608495
-0.17693739852337625, 0.9581277966499329, -0.23412033382404177
0.26594637814034683, 0.9581277966499329, -0.04565604617438451
0.5889929010976407, 0.9581277966499328, -0.4327834580223301
-0.2878953178791095, 0.9581277966499329, -0.2729448089193217
0.5695125782894671, 0.9581277966499329, 0.2267347239240491
0.7273324296530694, 0.9581277966499329, -0.4568766345048343
0.28504622728229334, 0.9581277966499329, 0.004454736440531626
0.5894667492670758, 0.958127796649933, -0.24154618525059246
0.5229633775868128, 0.9581277966499329, 0.06832138578381991
-0.33919430946448315, 0.9581277966499329, -0.26917108654814326
0.7575910694408894, 0.9581277966499329, -0.38515012739062016
0.6069342419938738, 0.9581277966499329, -0.04484685132965255
0.22754261813918886, 0.9581277966499329, -0.1751463858697001
0.7699536266910373, 0.9581277966499329, 0.2760779978181913
0.10371292546756566, 0.9581277966499329, -0.09238361698886136
-0.43408013240361853, 0.9581277966499329, -0.4369583157951132
0.5385395566684366, 0.9581277966499328, -0.006245760811513124
0.23260567002533408, 0.9581277966499329, -0.44958142494300524
0.8157057837205328, 0.9581277966499329, 0.15689806521785443
-0.3053796716952333, 0.9581277966499329, -0.3355762153043469
0.33015070878098945, 0.9581277966499329, 0.029140094328091948
0.5112113538084133, 0.9581277966499329, -0.365876852964618
0.23128246440484707, 0.9581277966499329, -0.38194585055036784
-0.06653046283881625, 0.9581277966499329, -0.12264189324670349
0.0739817151826552, 0.9581277966499329, -0.40780369286335677
-0.47733695269815973, 0.9581277966499329, -0.31324814631557313
0.5536295286073976, 0.9581277966499329, 0.17685868896258577
0.6030973795304051, 0.9581277966499329, 0.13287099663666113
0.11594233717841577, 0.958127796649933, -0.3962318638098096
0.30546947859095186, 0.9581277966499329, -0.05234352469041817
0.27280025455018575, 0.9581277966499329, -0.24535430492168953
0.5582003400990764, 0.9581277966499329, -0.2342663798875156
0.339402964805131, 0.9581277966499329, -0.13968069485467693
0.2719050975670352, 0.9581277966499329, -0.2546440357716424
0.14604383446618552, 0.9581277966499329, -0.040910876558283904
0.5247196658859424, 0.958127796649933, -0.423701701698523
0.3991471729321694, 0.9581277966499329, -0.3381766166061325
0.8367474351297931, 0.9581277966499329, -0.0181605944533709
0.45732510206087007, 0.9581277966499329, -0.029155601805798403
0.17803379272544473, 0.9581277966499329, -0.27623320846555555
0.594218926819271, 0.9581277966499329, -0.1263808727267293
0.3653904699123349, 0.9581277966499329, -0.23370542576219072
-0.49319594862148575, 0.9581277966499329, -0.3196193341414699
0.4669857503430176, 0.9581277966499329, -0.20447908109804283
-0.11814786653156228, 0.9581277966499329, -0.19531063741646162
-0.32663490575252013, 0.958127796649933, -0.35968172450230457
0.7280711824907022, 0.9581277966499329, -0.15597269124505295
0.10849559296423739, 0.9581277966499329, -0.009032602235505865
0.644250996112887, 0.9581277966499329, 0.12318122477399879
0.7443202094616689, 0.958127796649933, 0.34683838743860895
0.7664890000310434, 0.9581277966499329, -0.4017245500179285
0.7811319312325418, 0.9581277966499329, -0.30524372122174076
0.10037580319522743, 0.9581277966499329, -0.10766567054113729
0.281861359739477, 0.9581277966499329, -0.295380599186357
0.39074772031191785, 0.9581277966499329, 0.018565047805838425
0.1159048129109434, 0.958127796649933, -0.24231027340862488
0.13389339176516282, 0.9581277966499329, -0.29763385100622325
0.672286965232678, 0.9581277966499328, -0.16473149586125274
0.009925307953131401, 0.9581277966499329, -0.07233623840315254
0.3451416775735281, 0.9581277966499328, -0.12590145808824765
0.6278193088537898, 0.9581277966499329, 0.20231627548038203
0.2912520195143165, 0.9581277966499328, -0.14599647823074408
0.8314536465012106, 0.9581277966499329, 0.2981475889713795
-0.15020351969079437, 0.958127796649933, -0.18593915004880107
0.4210446256033985, 0.9581277966499329, -0.07669242482944205
0.5914794349558293, 0.9581277966499329, 0.037802736994828556
0.3150454903807237, 0.9581277966499329, -0.23803810725497498
0.5210840041214334, 0.9581277966499328, 0.01165902091441684
0.638770759644851, 0.9581277966499329, -0.06530113257690842
0.48716065274262216, 0.9581277966499329, -0.004626330613910351
-0.14795184467060735, 0.958127796649933, -0.3513116804309712
-0.1962189026409365, 0.9581277966499329, -0.43461742980046364
0.27931208156488085, 0.9581277966499329, -0.4363420140987714
0.3460979832168741, 0.9581277966499329, -0.27469271346724145
0.7742347671442035, 0.9581277966499328, -0.44100238589206037
-0.28323821213672734, 0.9581277966499329, -0.3344663384162872
0.07915454998740429, 0.9581277966499329, -0.02034664966085628
0.48511951998900876, 0.9581277966499328, 0.03674135089335878
0.7705688497110568, 0.9581277966499329, 0.28452090992288426
0.5333840050476584, 0.9581277966499329, -0.26000645649559906
0.5961236878199937, 0.9581277966499329, -0.16395618298498985
0.02193144569380101, 0.9581277966499329, -0.05758075853024569
-0.21250355353633463, 0.958127796649933, -0.3235191768578216
0.739840317283224, 0.9581277966499329, 0.14034610806095388
0.5418668532144237, 0.9581277966499329, -0.12212616932051173
-0.5957368204192633, 0.9581277966499329, -0.37074608437592893
0.3343994359076555, 0.9581277966499329, -0.437727285771851
-0.29985030753627107, 0.9581277966499329, -0.31518002014808333
0.4590089297268335, 0.9581277966499329, -0.22760294335367431
0.27406525947732935, 0.9581277966499329, 0.10088179926776103
0.1989250822137722, 0.9581277966499329, -0.09472480904515199
0.7077933945417526, 0.9581277966499329, 0.037818321558352685
0.0909032023057454, 0.9581277966499329, -0.3873353431927226
0.7332444096178231, 0.9581277966499329, -0.09015270864691072
0.18428455935872062, 0.9581277966499329, 0.06036766495468157
0.26960174505559026, 0.9581277966499329, -0.2054521357842354
0.6853996612259317, 0.9581277966499329, 0.2728103383737901
0.6851508957335062, 0.9581277966499329, 0.13705223055564897
-0.15071544665497338, 0.9581277966499329, -0.11867919884951827
0.2093499173322918, 0.958127796649933, -0.20367255886257038
-0.13167356680252493, 0.9581277966499329, -0.45088211680774676
0.6648723257114068, 0.9581277966499329, 0.28101345567719904
0.4873447521651676, 0.9581277966499329, -0.09761043993366808
0.39852159742108306, 0.9581277966499329, -0.3122854621377529
0.47455763592149613, 0.9581277966499329, -0.2679823778845556
0.5842358714589267, 0.9581277966499329, -0.021617715836940637
-0.2109856375217894, 0.9581277966499329, -0.40278685847328294
-0.17505571520705093, 0.9581277966499329, -0.3679591092120818
0.6393164928507784, 0.9581277966499329, -0.004245819416970387
0.7415548753512649, 0.958127796649933, -0.34031278525104935
-0.38597675391681224, 0.9581277966499329, -0.2624937578771592
0.17911300899389085, 0.9581277966499329, -0.2495636582680844
0.748982868822132, 0.958127796649933, -0.07450348889778208
0.008665999184710005, 0.9581277966499329, -0.11839194626575555
-0.3169065440666833, 0.9581277966499329, -0.20962886131499436
0.4674868291694639, 0.9581277966499329, 0.07462940567387438
0.04060770233446595, 0.9581277966499329, -0.2722122008024669
-0.18191075423660383, 0.9581277966499329, -0.28372818685422735
0.6363930752290967, 0.9581277966499329, 0.018364286862823404
0.7423996843217773, 0.9581277966499329, -0.06247424661792131
0.7146351720892272, 0.958127796649933, -0.3899801043277313
-0.24361355487467323, 0.9581277966499329, -0.2561908242258543
0.3619147704947191, 0.9581277966499328, 0.14069038690516833
0.5853490494326294, 0.9581277966499329, 0.12836174525259725
-0.37038412317685276, 0.9581277966499328, -0.42323966070816516
0.34703608879207587, 0.958127796649933, -0.40737649427987926
0.4741810542085447, 0.9581277966499329, -0.40180720004710807
-0.3787833696634053, 0.9581277966499329, -0.23894867542779663
0.3387176280621932, 0.9581277966499329, -0.20947456785784074
0.8169438756976977, 0.9581277966499329, -0.022328891478013174
0.6593314656617668, 0.958127796649933, 0.047196698322289427
0.7536314721895785, 0.9581277966499329, 0.05316064732310216
0.07923941917964705, 0.9581277966499329, -0.16538112895572535
0.534924209740478, 0.9581277966499328, -0.15540534397229674
0.442888278261697, 0.958127796649933, 0.11831789777814541
-0.021047439106139, 0.9581277966499329, -0.4503007272499744
0.48084136732837546, 0.9581277966499329, -0.3895684490882554
0.8200081147615823, 0.9581277966499329, -0.09133335473195942
0.1956513039224413, 0.9581277966499329, 0.011161329787517715
0.04953687714773572, 0.9581277966499329, -0.3122442301429711
0.7389200145937809, 0.9581277966499329, 0.15270978364902907
0.5298549833738337, 0.958127796649933, -0.3325680999641415
-0.18398917063461817, 0.9581277966499329, -0.4470667331495841
0.40086271612435775, 0.9581277966499329, 0.007453975968216453
0.40987743737851534, 0.9581277966499329, -0.03545782219723148
0.42765727538940196, 0.9581277966499329, -0.42796442636785276
0.7491901314507701, 0.9581277966499329, -0.08815329345377898
-0.07876269438901781, 0.9581277966499329, -0.2396517767812217
0.04198552215710338, 0.9581277966499329, -0.3934006240704955
0.40396683323687044, 0.958127796649933, -0.1463452026569147
0.26156933833968643, 0.9581277966499329, -0.016603432931682705
0.26444918897181624, 0.9581277966499329, -0.2948286286255061
0.7247873578041308, 0.9581277966499329, -0.02801690926844
0.7840468426673438, 0.9581277966499329, 0.1686410074458069
0.14081550162314616, 0.958127796649933, -0.24369951160316422
0.6000664247433428, 0.9581277966499329, -0.33923760371225203
-0.6635653872091233, 0.9581277966499329, -0.45940076306636213
0.36938902815447117, 0.9581277966499328, -0.3575704505482358
0.3628912068165036, 0.9581277966499329, -0.016788663726021447
0.24877558196971147, 0.9581277966499329, -0.11898516382523336
0.2855189643776783, 0.9581277966499329, -0.2637826957209627
-0.6103225846456917, 0.9581277966499329, -0.4493530998156441
-0.5841175711601705, 0.9581277966499329, -0.3602111339198082
0.7867675405200591, 0.9581277966499329, -0.15420971833436886
0.7318713172921861, 0.9581277966499328, -0.3166531610299991
0.07636544493109743, 0.9581277966499329, -0.3306824090479235
0.3958127443584329, 0.9581277966499328, -0.40782796218686623
0.7875408805425398, 0.9581277966499329, 0.37641922375186393
0.8051375192238542, 0.9581277966499329, 0.16115360089638459
-0.18191127305784585, 0.9581277966499329, -0.2768262015548273
-0.2547461801141526, 0.9581277966499329, -0.43035970662962447
-0.03137801205661539, 0.9581277966499329, -0.28262474573217294
0.6751648837650615, 0.9581277966499329, -0.11311348068482474
0.5100847922186299, 0.9581277966499328, -0.3679431418354166
-0.6267356350529534, 0.9581277966499329, -0.4167589764371782
0.21727952585303498, 0.9581277966499329, -0.2711015497115151
0.31049484673003314, 0.9581277966499329, -0.2893587515658276
0.8138968020344592, 0.9581277966499329, 0.2509494797154538
0.11504802268042233, 0.9581277966499329, -0.2911734864313269
0.4911685628590006, 0.958127796649933, -0.4285713261278226
0.6733138876959637, 0.9581277966499329, 0.3096460663430186
-0.1632894732503134, 0.9581277966499329, -0.21941068453286244
0.05324001189677896, 0.9581277966499329, -0.03508136890013644
0.0881089981464384, 0.9581277966499329, -0.39933262155681765
-0.05641911061446428, 0.9581277966499329, -0.3476384209746336
0.7231380768292074, 0.958127796649933, -0.45589782010996116
0.4152857552756913, 0.9581277966499329, -0.14963045031350433
0.37049035721954926, 0.9581277966499329, -0.12432839385587086
0.6770201839104069, 0.9581277966499329, -0.07406391050247735
0.22380281697258808, 0.9581277966499329, -0.4469687028559868
0.43999841494148073, 0.9581277966499329, -0.0949522017654128
0.3072145396394875, 0.9581277966499329, 0.13451339777441623
0.18342356616134067, 0.9581277966499329, -0.305871961400264
-0.5272136993809515, 0.958127796649933, -0.4401686865381155
0.5483511656318366, 0.9581277966499329, -0.039647067062217906
0.3679890008081606, 0.9581277966499329, -0.23280201715689575
0.5788710617589206, 0.9581277966499329, -0.40384805288159203
0.7926083802046846, 0.9581277966499329, 0.26848475908407915
0.8276557242734761, 0.9581277966499329, -0.1697873967604087
0.016338167521086036, 0.9581277966499328, -0.43578437570376954
-0.3322796014040679, 0.9581277966499328, -0.3034858031646571
-0.2717179257539911, 0.9581277966499329, -0.3447686142088353
0.3796220975173439, 0.9581277966499329, -0.3772179594094941
-0.6888899350916395, 0.958127796649933, -0.4123373794915557
0.748765684764745, 0.9581277966499329, -0.3132955075841827
0.38996830357119816, 0.9581277966499329, -0.19772777500938937
0.31553833696092665, 0.9581277966499328, -0.40767457894462505
0.26066909853421893, 0.9581277966499329, -0.14276510789865432
0.13700054897769925, 0.9581277966499329, -0.3121277510375657
0.5393889664016454, 0.9581277966499329, -0.28131341112875086
0.22424874630038116, 0.9581277966499329, 0.03599016509594952
0.18446754940007135, 0.9581277966499329, -0.10702088405304341
0.19786139861439075, 0.9581277966499329, -0.22948653171877606
0.08397117469550766, 0.9581277966499329, -0.41745000534899057
0.07033623408140488, 0.9581277966499329, -0.007158880158713188
0.6622288426919571, 0.9581277966499329, -0.2896864005300196
0.141115686776188, 0.9581277966499329, -0.2885456156487449
0.49266849065380763, 0.9581277966499329, -0.4548127159014147
0.7664297634009545, 0.9581277966499329, 0.20680341068067962
-0.4564646682721427, 0.9581277966499329, -0.4399933406999556
0.34793455446972976, 0.9581277966499329, -0.021937086892616697
0.408935777846245, 0.9581277966499329, 0.0535827970636939
0.3245837638556258, 0.9581277966499328, -0.2484981158318767
0.425564945535629, 0.9581277966499329, 0.11780161579627008
0.24085648517958383, 0.9581277966499329, -0.1464146684208039
0.5788734708410475, 0.9581277966499329, -0.18839158046452345
0.37369066968790665, 0.9581277966499329, 0.02231724445093175
0.3965537001501399, 0.9581277966499329, 0.058075877777050894
0.15941121308070177, 0.9581277966499329, 0.04599037269708317
0.40807462171548287, 0.9581277966499329, 0.10135983269068002
-0.0478421527385761, 0.958127796649933, -0.4273247407152644
0.7073204749734449, 0.9581277966499329, -0.046426550862242205
0.722316906213383, 0.9581277966499329, 0.13991057486298536
0.5631342680436926, 0.9581277966499329, -0.08150713699632339
-0.10435934178753975, 0.9581277966499329, -0.1488149241304208
-0.08910902328429854, 0.9581277966499328, -0.07468250442884394
0.3012079674154004, 0.9581277966499329, -0.18723752372389604
0.4772169712588894, 0.9581277966499329, -0.23270853195403157
0.04690702527688005, 0.9581277966499329, -0.40199444865673367
0.6721282992107753, 0.9581277966499329, -0.08573196739360583
0.5571285053521138, 0.9581277966499329, -0.2783115268338458
0.25817694567811844, 0.9581277966499329, -0.3042657090395558
0.23090534625439724, 0.9581277966499329, -0.29782372503496385
0.6669854916282143, 0.9581277966499328, -0.45483859673798027
0.5214834617084232, 0.958127796649933, -0.30302435186062043
-0.2715036587062928, 0.9581277966499329, -0.29695636361145494
0.5758338506911096, 0.9581277966499329, -0.04650913082507935
-0.35670526726112584, 0.9581277966499328, -0.4166866073684117
0.16331464692932737, 0.9581277966499329, -0.07672558922898792
0.281370600828471, 0.9581277966499329, -0.013787088518460305
0.5717602934932249, 0.9581277966499329, -0.24088007106601372
0.22479204624104243, 0.9581277966499329, -0.195488674498722
0.8194429746043796, 0.9581277966499328, -0.2633918289860909
0.7928600481818953, 0.9581277966499329, -0.22720155177433246
0.3446563977769075, 0.9581277966499329, -0.1663272099720356
-0.32323496692538534, 0.9581277966499329, -0.3850805449655882
-0.11239841862305046, 0.9581277966499329, -0.364732859093991
0.695054663419739, 0.9581277966499329, -0.15641382623775166
0.49937125089340184, 0.958127796649933, -0.2414599856798162
0.07111741522713234, 0.9581277966499329, -0.47028803590904456
0.6394752195085284, 0.9581277966499329, -0.4614638617801079
0.3367597582455735, 0.9581277966499329, -0.3499792670974947
0.16762253710745623, 0.9581277966499329, -0.443509939548493
0.028971268934407907, 0.9581277966499329, -0.390195186788371
0.19629203603133394, 0.9581277966499329, -0.16844709649017287
0.5570529358840718, 0.958127796649933, -0.35419938086172414
0.007072066912110153, 0.9581277966499328, -0.07330060355983964
-0.14708390768667087, 0.9581277966499329, -0.30654944145367163
0.09205296697434656, 0.9581277966499329, -0.3314452385623833
0.7921240416694578, 0.958127796649933, 0.23212827262530425
0.689501870027737, 0.9581277966499329, -0.11211132204393018
0.4731364565789422, 0.9581277966499329, -0.1987767240235704
0.42482258064172196, 0.9581277966499329, -0.17820715087231734
0.4608805558421214, 0.9581277966499329, -0.282829480242408
0.2810018935223386, 0.9581277966499329, -0.011129357875206775
0.3613262827411569, 0.9581277966499329, 0.0015303025467335585
0.6676913794656993, 0.9581277966499329, -0.11262791838744923
-0.2611328483667327, 0.958127796649933, -0.334556559941545
0.7754203329620092, 0.9581277966499329, 0.2579096310686181
-0.4054662199817096, 0.9581277966499328, -0.26832060202428454
0.7504029033762512, 0.9581277966499329, -0.0008740062487996858
0.0593911470915405, 0.9581277966499329, -0.15264287543628205
0.7031877358526705, 0.9581277966499329, -0.21402727073057523
-0.4091935012756774, 0.9581277966499329, -0.3730164191012737
0.11286345213668803, 0.958127796649933, -0.15612652278194877
-0.06903163171307809, 0.9581277966499329, -0.38144353661034053
-0.3155596370624313, 0.958127796649933, -0.2742715794463627
0.02206814366398485, 0.9581277966499329, -0.13097648906442153
0.664718147421664, 0.9581277966499329, 0.0421706509769372
0.4172621355423924, 0.9581277966499329, 0.016329632744388284
0.8268065121416881, 0.9581277966499329, -0.25173113802753716
0.7868781505697, 0.9581277966499329, 0.25881645478783055
-0.6501960190685818, 0.9581277966499329, -0.39883289995457805
0.09756725028965385, 0.9581277966499329, -0.21054215139268342
0.10120658627947357, 0.9581277966499329, -0.32492972997691033
-0.716197722159867, 0.9581277966499329, -0.43007436823320055
0.6186918811187595, 0.9581277966499329, -0.05672134097730863
-0.32358511772279785, 0.9581277966499329, -0.2945558180559219
0.04076152614559678, 0.9581277966499328, -0.2655190317149862
0.6723854783873318, 0.9581277966499329, 0.16896125015709443
0.02921921647551773, 0.9581277966499329, -0.022519401717785437
