0.9500476299657088, 0.22349481269590898, -0.29491660688052496
0.9491781581584955, 0.2430428445769682, -0.40003440192544343
0.9490901982988541, 0.16363155722517214, -0.40119818236100835
0.949832545201605, 0.18467462845080318, -0.3567731574981131
0.9420365780467537, 0.13648831818554558, -0.4202446661459432
-0.8086967696375754, 0.6294047987320968, -0.31424665549109343
-0.8141353763708481, 0.5743351974813207, -0.288174502759173
-0.7996391802308982, 0.44171125354952095, -0.2370825899725923
-0.809101739004807, 0.31859258146428493, -0.21082111446682986
-0.810252627614703, 0.27366873692640353, -0.206206557907321
-0.8150578304060719, 0.11843473447844219, -0.257163547463623
-0.8053275921567893, 0.11764302527012693, -0.37159178764536804
-0.8088739049728227, 0.29790218750251407, -0.416986132914582
-0.8062657435171212, 0.20781783615172408, -0.4169852620115267
-0.7989448289916112, 0.4805073418460988, -0.41696828351286686
-0.7976493389048075, 0.572775846691838, -0.41703536534130853
-0.8168730541031359, 0.7124069338418694, -0.4005695924763196
-0.8176844981872695, 0.22630666065554175, -0.20939499984735832
-0.8167767118190155, 0.4355898829454617, -0.4164494723740231
-0.009523061809551543, 0.15268522784703814, -0.41659855276769236
-0.21431211385745483, 0.1560754710024923, -0.4166289026275428
-0.22119551852338426, 0.15285611642555647, -0.4166000827923035
-0.05739021776824015, 0.15028451343426336, -0.41657706148772533
-0.020148574265603507, 0.16541502960375085, -0.41671251067676895
-0.33309150528759435, 0.1370018595138552, -0.41594628473242384
-0.08046486443693368, 0.12712033131926656, -0.4138297762768273
-0.1725912684416775, 0.13539623780472027, -0.20752813678258736
-0.007007178008270852, 0.12752814581117924, -0.21262653790431418
-0.6526992462220349, 0.16603454865666048, -0.20415272648705363
-0.4785897424312572, 0.17702735999777808, -0.2038550058163945
-0.5422504114701345, 0.169228951441786, -0.20406622691227858
-0.5856455737702141, 0.17063574108612534, -0.20402810993324144
-0.629692373946278, 0.14984759583108853, -0.20459119179240762
-0.5194405579692629, 0.138982050946888, -0.20520457980045212
-0.7709713540719847, 0.1809014137987296, -0.20353757306443002
-0.739861020775602, 0.17382548702442055, -0.20378951623264718
-0.8225788423186655, 0.1473649734798979, -0.2632067296873444
-0.8231681968676032, 0.14022084439210855, -0.31506581814535173
-0.8230697042472501, 0.12819566680887454, -0.3717101424371476
-0.5620324430556739, 0.13355129662193882, -0.41520722449419784
-0.4715548521173707, 0.12687020896335197, -0.4137762247000378
-0.5903294029795241, 0.14189150221865685, -0.41650193515871564
-0.37814144716771947, 0.15528233496091098, -0.41662185434322785
-0.3974584159491861, 0.16566965830627334, -0.41671487630815135
-0.47454656269242684, 0.16276806759982582, -0.41668889166470297
-0.7078692137716719, 0.1434975750135682, -0.4165511745347087
-0.6676203734014147, 0.14732618476720116, -0.4165526556481382
-0.69392083265226, 0.613705663424322, -0.30655972794970826
-0.776240748830806, 0.6396538938005819, -0.31913324066540094
-0.7369968859263242, 0.623101333718902, -0.31110479541327013
-0.6885999396305443, 0.66156268737562, -0.3299787265741398
-0.7029139125092484, 0.6751922488535023, -0.3366976950621442
-0.772062650723942, 0.6502720467029481, -0.324358567072994
-0.705947485345629, 0.6521424551025052, -0.32532168687594665
-0.3943078498939091, 0.6137300445778154, -0.3065879606064358
-0.5447064323283671, 0.641001821833979, -0.3198534818818862
-0.5385463560042347, 0.6348276629449964, -0.3168502428218761
-0.41466038351581835, 0.6348791324844806, -0.3168753162491553
-0.3859942905681051, 0.6328859893143663, -0.3159058181212414
-0.49002856022334806, 0.6507420225435395, -0.32464980162926926
-0.588179692753941, 0.6688875369835823, -0.3336032904329218
-0.5584040493852949, 0.6481241322082603, -0.32335803853616113
-0.6301067920789056, 0.6445980763492427, -0.3216181594525167
-0.2530265032491737, 0.6331280933220805, -0.3160237145938073
-0.0166218286059512, 0.6046626131975111, -0.3021779247839345
-0.1086158978143959, 0.6263754709668687, -0.31273917575854693
-0.11598094705299807, 0.623658698753996, -0.3114177275130899
-0.0638687602462583, 0.5991640187918593, -0.2995033952637902
-0.2862233410813069, 0.6329552275995405, -0.31593963967116867
-0.22675028777443007, 0.6399034170930977, -0.31931925577574366
-0.1734822432471936, 0.630906265857146, -0.3149429894263934
-0.6276083327964657, 0.680000171143106, -0.3390870576482429
-0.4910641954572339, 0.6747679450523987, -0.3365066143585179
-0.4457113998016888, 0.6541293297945792, -0.3263214241375918
-0.5757071840705699, 0.6705559000897452, -0.3344267101911773
-0.6424359692091461, 0.6826015779089158, -0.3404706882613421
-0.5611529874113347, 0.6894519067881275, -0.34411935541919714
-0.15962327594205894, 0.6604241564499613, -0.3294289665456489
-0.08832808012383912, 0.6675396730075296, -0.3329392036000002
0.010778183668849948, 0.6600198221972098, -0.3292276731573982
-0.048681324297212156, 0.6619810119878848, -0.3301959985065038
-0.10165113197739513, 0.6767085336490035, -0.33746350078919685
-0.5187038730584331, 0.6766439538405848, -0.4166093768408101
-0.541508976662662, 0.666671091021443, -0.41669006644910356
-0.5429306312769393, 0.6741643580264947, -0.4166294390454743
-0.5063020587265831, 0.6676308212207807, -0.4166823013514324
-0.653243388128234, 0.6120589234940046, -0.4169262480113893
-0.6333199637182773, 0.6009428832307987, -0.41694082961730194
-0.6104360647876464, 0.6343508242780083, -0.41689700632958715
-0.5414634248037877, 0.6379163486629067, -0.4168923292080384
-0.6409330170076325, 0.6135840768640914, -0.4169242473722343
-0.2256364470183957, 0.6081940835394072, -0.41693122596991605
-0.2598180439586037, 0.60947650284116, -0.41692954718178454
-0.3344974871435478, 0.6149138600447422, -0.4169224292518471
-0.20427826002047014, 0.6098395909391909, -0.41692907187079314
-0.1940609516899557, 0.587823525805881, -0.41695789263853933
-0.36974426581233005, 0.6371454008872665, -0.4168933264093826
-0.11196925076273562, 0.6493459548344522, -0.41683019909693586
-0.2570750177352348, 0.6426525427034785, -0.4168843728079459
-0.10838658009707662, 0.6463014492666277, -0.41685482387304795
-0.2259240451061842, 0.6542755389221298, -0.41679035247040674
-0.1445939290382803, 0.6569667932537601, -0.41676856522088324
-0.5221194774487501, 0.6836025711590458, -0.41608389862837886
-0.6759580038130735, 0.6881363086949192, -0.41546353254290125
-0.4471517374567349, 0.6511444634631794, -0.41681569110859357
-0.5104238629019837, 0.6545010506530781, -0.4167885332392367
-0.5948088937333712, 0.6680370585118555, -0.41667901451910694
-0.5781019220337646, 0.6536256020158971, -0.4167956164217588
-0.7166545089210221, 0.5980521314861623, -0.416984195164839
-0.7681648834016588, 0.6234255650235921, -0.4169906774444593
-0.7076670078380156, 0.6684292320115874, -0.4167101381480458
-0.8120369715164152, 0.6952252272206558, -0.4146768734104497
-0.7419689988433356, 0.6591870414476755, -0.41681207536225795
-0.8219670140474675, 0.6377865965103846, -0.4033363486877758
-0.8224627732385363, 0.661618876840276, -0.3973716866458683
-0.8200630470610719, 0.7069576518198086, -0.39449732722473535
-0.8223199680468195, 0.6204593729119884, -0.33087642410447565
-0.013869358947905489, 0.11810252921428982, -0.34866146600033165
-0.008453439917736772, 0.11834622211785609, -0.3355978841448831
-0.03819049508140508, 0.11832543032406392, -0.33671244078457807
-0.16428511659371386, 0.11832391981553551, -0.3367933125039538
-0.035138210743778195, 0.11830284902012803, -0.33792295371668013
-0.41936742759226886, 0.11808646779905124, -0.349522593111363
-0.39762931789909206, 0.11810416195652877, -0.3485739979160706
-0.5067031637238462, 0.11821083748222769, -0.3428557046246147
-0.224296264192754, 0.7171103333554225, -0.38215300087151827
-0.11892629449513124, 0.7166678420997228, -0.3787169018912361
-0.4337355591868982, 0.7166946836040303, -0.3789799026092972
-0.8191339607670518, 0.40127299563705104, -0.412848555013998
-0.8243959092857491, 0.3914590157262948, -0.36848596307137915
-0.8242212729329258, 0.22333831781748092, -0.39202938891706807
-0.82150960780873, 0.15110502937036213, -0.4016811254575221
-0.7941744558933063, 0.11845730607443196, -0.3252138673153149
-0.744044953955385, 0.11833384643696027, -0.3032544149635482
-0.6551306532457345, 0.11820359348327708, -0.2857826402354945
-0.5995801138294439, 0.11843777247558193, -0.3082159097613599
-0.5831596708404461, 0.11821310225352151, -0.28669387410665637
-0.5304273827976957, 0.11824940073292267, -0.29017131491724346
-0.6943347016722613, 0.11840269859334608, -0.331425825740289
-0.7078621933721898, 0.11786423253198823, -0.3597609026803288
-0.5891819905644435, 0.7167296690243259, -0.389266539236668
-0.7591598401575964, 0.7159524941565677, -0.3729271795218676
-0.8235971847520911, 0.41992305061420127, -0.3349085709495563
-0.8237574687400072, 0.48703441550933535, -0.36018284291080427
-0.8232574287937603, 0.508256377983479, -0.325890573637571
-0.8233783291445587, 0.42508735113090035, -0.30883796716209266
-0.8232693865793486, 0.4988434682962096, -0.32368408488202977
-0.8226541037473769, 0.4368026977160049, -0.27625772299673695
-0.8232551464865697, 0.5393739311229422, -0.33971846256166294
-0.8227803165953096, 0.5873256244911154, -0.3268470962799358
-0.8227698923242198, 0.5607601566592775, -0.3190087635843007
-0.820283024636757, 0.2550676698654784, -0.22744226120097158
-0.8221461795798886, 0.3085876388670755, -0.24683353948847042
-0.8231128758643784, 0.2005665690101196, -0.26963979745607863
-0.8230415457894359, 0.29912524924060163, -0.27008196544860685
-0.819936932826103, 0.37581011315905566, -0.23723803349320632
-0.8169983374717174, 0.12240348923601355, -0.24224888008065207
-0.799638723710979, 0.11836121007828315, -0.2620286580022505
-0.7556085800330994, 0.1257036698364624, -0.21488973817144763
-0.7848691037414464, 0.11816241085368853, -0.2745647110738803
-0.7866853633605874, 0.11853092340798055, -0.24935867002958498
-0.4001705694581837, 0.12075909196221343, -0.23503095742906926
-0.4467305877545169, 0.12531189142161617, -0.21705367054428165
-0.4644492352606766, 0.12237117300369935, -0.22866546985387323
-0.7344006850042198, 0.1211956695283626, -0.23287675865822577
-0.623326143839358, 0.12840218271207893, -0.2120601940440707
-0.43970527684349736, 0.12870513948800194, -0.21186383546193693
-0.7007172954751605, 0.11816879744789918, -0.2784798277054455
-0.020977726539778866, 0.11842187090234818, -0.3066935314104631
-0.3282819539327135, 0.1181755154256421, -0.2830942583709952
-0.22095549266531891, 0.11816679692960158, -0.2822588628302861
-0.047008585765525586, 0.11827691602467137, -0.2928074971958958
-0.04662178108418336, 0.11844823473087857, -0.30921912566178567
-0.502270806275571, 0.11852492721269679, -0.3165656294847822
-0.5801944940228443, 0.11853596719986023, -0.3176226278315477
-0.40536642559257696, 0.11821368920018291, -0.2867509735076703
-0.5019553728372546, 0.11837819373051436, -0.30250913597963225
-0.3479883907182476, 0.11861138150051313, -0.25107587711393453
-0.19292802894606662, 0.11844226827932844, -0.26222745552532317
-0.3695718681046031, 0.11864649212379631, -0.2487606573037781
-0.28511096071312325, 0.11862361730342427, -0.2502692194976144
-0.29672039449351445, 0.11843397733044511, -0.2627738881838723
-0.7036837484722571, 0.11837755611958335, -0.3048634448234523
-0.5353194782830532, 0.11842147789403631, -0.2635984533872742
-0.6488439920486555, 0.11835946120401226, -0.2676881717932793
-0.5151865339509005, 0.11861025243861041, -0.2511507650860253
-0.5425232419317838, 0.11854307191583044, -0.25558068159870984
-0.6492409762957019, 0.11963288682620193, -0.23947800631275862
-0.6297598684409977, 0.12476979988719782, -0.21919423521279352
-0.33391543381259103, 0.12226647823370163, -0.22907886869571875
-0.3647387067368383, 0.12348279463544315, -0.22427607222543672
-0.11446771020531926, 0.12546700285568338, -0.21644133097573992
-0.2297196874894196, 0.1252395676352981, -0.21733931681236623
-0.38252873251888636, 0.11861248075261852, -0.25100337750863605
-0.4611159229080784, 0.1182870950857707, -0.2724592932210542
-0.5728807445331119, 0.11824775385428433, -0.2750537929183403
-0.4292045303091421, 0.11817556904284504, -0.27981311922534113
-0.2386124406385716, 0.6928301499671586, -0.34591955052501777
-0.18250177237674828, 0.6972414841742464, -0.3482650071700528
-0.52512480827232, 0.69934693057543, -0.3493885166505348
-0.5495544410362447, 0.7045357421830235, -0.35446594097203443
-0.05649668620653665, 0.7059215604560083, -0.3558076978995001
-0.4703632443542126, 0.7121589590881598, -0.36404932944286933
-0.44588151580529956, 0.7128282480875499, -0.3655210086296147
-0.024185073310627667, 0.7134622118845795, -0.36687843802137143
-0.7913391901323817, 0.7171884494911039, -0.38246035835588255
-0.49321038459514854, 0.7172847036152986, -0.38350766795899754
-0.5340118486270717, 0.696359416283007, -0.3477971595042523
-0.40099807215221994, 0.6957871489394434, -0.34749534229185725
-0.8003847692298578, 0.7026877317970714, -0.35252338878701217
-0.6669165177210656, 0.7051454101544565, -0.3550509764200588
-0.6612526968869783, 0.7121804738355484, -0.36407585938636505
-0.4434934447019012, 0.7025575290550559, -0.35253781489807406
-0.6752780477770872, 0.696052160823682, -0.34762619164856357
-0.7293002935473891, 0.7099935043913119, -0.35975780666038937
-0.10706472426674124, 0.4733192305643555, -0.2468261719498689
-0.32202984694500275, 0.4711458347868237, -0.2461640331501676
-0.3464529478001486, 0.4768953936321376, -0.247916059826946
0.011944324584282245, 0.4157781347261053, -0.22929211986661438
-0.10274969415404205, 0.45996660224157104, -0.2427573442385127
-0.07799480669521955, 0.46742172354928235, -0.24502905934082173
-0.03862599629240414, 0.46980586975838423, -0.2457555328178178
-0.14593384285632283, 0.44076615186600604, -0.23690659394318198
-0.19966642577602123, 0.4703303402877398, -0.24591545506404688
-0.23449449047722218, 0.5103844856885114, -0.26117976168572077
-0.09199806503431858, 0.538853094000909, -0.2726838288051083
-0.2864057001291915, 0.5079323466452864, -0.26018887240579475
-0.320499924828097, 0.5376034612908623, -0.272178922161096
-0.34526321038906194, 0.5232788702205518, -0.2663903901029301
-0.19118452609420505, 0.5241497582399401, -0.2667422687400249
-0.0970797518742049, 0.5356445493431092, -0.27138726365443044
-0.30593877597236235, 0.5060983200444369, -0.25944775159600486
-0.6049683059805087, 0.5103316635823919, -0.26115825341649856
-0.6149802312788694, 0.5141020140011023, -0.2626818421937174
-0.6043926192935969, 0.5195607851973261, -0.2648877473373987
-0.6206058681874892, 0.517613802455997, -0.26410095117002025
-0.5843559297741894, 0.48459141952861706, -0.250756630917361
-0.40399723917230584, 0.4809653270950007, -0.24929154014349322
-0.6529442288327786, 0.5876511653644511, -0.29390338434615615
-0.6365641141176609, 0.6340145089608695, -0.31645472547109393
-0.4398550972356752, 0.5950232090466514, -0.2974886308184547
-0.5000019977336084, 0.5952752564655291, -0.2976113849670503
-0.543183534259619, 0.5978646287919448, -0.29887098247426225
-0.3313889411106556, 0.5846116451561478, -0.2925657321321792
-0.14580839336693172, 0.5688983654569953, -0.2857371866604038
-0.23377311103225973, 0.5706484934573532, -0.2864976019404823
-0.2810681741108413, 0.556645319070623, -0.2804117750858336
-0.3522560172555789, 0.542667983624892, -0.2743371277895392
-0.16069478085565703, 0.5799036449575843, -0.290520009449932
-0.3488724579356289, 0.5608606672988464, -0.2822436081387084
-0.6647173442231555, 0.5862035386849448, -0.2932582073480171
-0.6237992112730261, 0.5532926039541477, -0.27895461643539476
-0.5633535060949307, 0.5627630430559706, -0.2830706629035452
-0.5829018727186176, 0.5409005646096317, -0.2735688660627584
-0.5851847591856845, 0.2960125486218988, -0.20835527383115332
-0.6583070169359443, 0.28051968993130205, -0.20660226821668165
-0.6019416874437351, 0.28792663065066604, -0.20744035272624883
-0.6575662371732887, 0.28129284974701996, -0.20668975141837742
-0.40480371393684333, 0.2823940228201918, -0.2068142857987018
-0.49557451342132547, 0.2929243097818741, -0.20800581554592232
-0.5925581041924204, 0.33047225296978117, -0.21225440709461504
-0.273003936032028, 0.3063396245136859, -0.2095237484575172
-0.31744593613182503, 0.3200068803070875, -0.21107020905536322
-0.2540218648813928, 0.34337617346892535, -0.21371446811688538
-0.25518825005215007, 0.3459301478035194, -0.21400345257141926
0.007559448725795864, 0.3465707204508808, -0.21407594413526693
-0.2844704846637093, 0.33134131782220666, -0.2123527121634258
-0.1477258618704624, 0.3447806107047909, -0.213873385579809
-0.194480100215327, 0.3364279691550214, -0.21292827484053067
-0.4150068648219938, 0.1689222099937131, -0.20407455299709293
-0.5097573307388189, 0.14075272468379993, -0.20483753964833462
-0.4863341373869907, 0.14429232356384145, -0.20474166758441475
-0.43636654426577515, 0.146077627727882, -0.20469331159812026
-0.049567697145715184, 0.15739702071643236, -0.2043867422541811
-0.05071274690170573, 0.16361607068783185, -0.20421828775675793
-0.2572686355725649, 0.180778036503237, -0.20375343198657558
-0.26841385648658755, 0.18274932833937782, -0.20370003631099415
-0.14604425172958843, 0.17468036261919023, -0.20391859451722644
-0.51047338970633, 0.19925743333245372, -0.20407916317079558
-0.6464539707335175, 0.22947320981899416, -0.20499184663206782
-0.5469691072885634, 0.21643777006068005, -0.2045981146140365
-0.48204123028247875, 0.21021970901990628, -0.20441030413549538
-0.6290498860834725, 0.23665590418454394, -0.2052088162664612
-0.5632510083629136, 0.2455843694683413, -0.20547853204365107
-0.6262874991474335, 0.18487627383899533, -0.20364472705404055
-0.5177431638477009, 0.18747688598605422, -0.2037233102954017
-0.6527277548974483, 0.2531923180001856, -0.20570832018484125
-0.05203461321337863, 0.2728767105678385, -0.20630286543560086
-0.3024622297197825, 0.27500413644637695, -0.20636711481981018
-0.2888602316646354, 0.22363919024470563, -0.20481563234965708
-0.2931047926886404, 0.23775318474052398, -0.20524194670707913
-0.3099362542247483, 0.2065136367820038, -0.20429835259025608
-0.16254997333551652, 0.27106836114522753, -0.20624823978590068
-0.265733375400702, 0.27646139292307814, -0.2064111328123795
-0.031836573346725294, 0.2751659806295982, -0.20637201383505122
-0.2689083819201347, 0.21915613337661652, -0.20468022197207858
-0.3009104833177886, 0.2591360367022368, -0.20588781744507742
-0.26265170535636884, 0.24601438344159898, -0.20549147816663876
-0.11022304434922738, 0.38848408652683164, -0.22275079255213653
-0.15308457923255206, 0.3896709837951459, -0.22299793502683263
-0.06558293020740107, 0.37547029149777705, -0.2200410358987081
-0.01000957005152031, 0.3701317003815303, -0.218929420171865
-0.31288294553830126, 0.40657145504438413, -0.22651699449440652
-0.18363291501819073, 0.4051872253693392, -0.22622875312492252
-0.1214585424721493, 0.3833871928468384, -0.2216895111932339
-0.12504066170213657, 0.3759599223670894, -0.22014299447379979
-0.572343095377231, 0.3541530837252904, -0.2156023491721924
-0.4873541955547064, 0.3548415506977833, -0.2157456905767304
-0.3717057921775162, 0.37588853696819086, -0.2201281283406717
-0.43816879917582013, 0.36723556524980094, -0.21832639534252452
-0.4500055856750208, 0.3751332469133879, -0.2199708718554369
-0.6561909848222323, 0.43098023649114237, -0.23392446742772216
-0.5937264403931901, 0.4480683393114202, -0.2391315698736571
-0.6445697558246911, 0.4307116685605301, -0.2338426323443885
-0.6000897342839491, 0.45001099710424197, -0.23972353494556622
-0.614143118379779, 0.4503468025987504, -0.23982585804478967
-0.563761512592411, 0.4526193390748088, -0.2405183580849211
-0.4852538019040872, 0.41805394775839194, -0.22998561193205816
-0.6487495448650786, 0.11779348354127674, -0.36587474006869786
-0.6643505734963469, 0.11749270344574204, -0.3843672853948749
-0.4799122875491725, 0.1175403246224799, -0.381439350873113
-0.2870662214207244, 0.11772642239575817, -0.3699970942595367
-0.2777571443465564, 0.11752779626292395, -0.3822093191590416
-0.3610977632382777, 0.11764387681335273, -0.3750723016517361
-0.3633240356232553, 0.12485363761456202, -0.4101290181823145
-0.12188984458713617, 0.11894992403442757, -0.3949534942072867
-0.043903883018564016, 0.11741164816554464, -0.390999354497745
-0.6155577149796472, 0.1381335776913985, -0.41618869078282567
-0.43433803509975083, 0.1349333916645815, -0.41550324285960877
-0.5322770076846377, 0.12194296807111026, -0.40264715805211115
-0.6193161334781984, 0.12010121696204404, -0.397912938048537
-0.562268081117099, 0.3130705134478111, -0.41688779221234507
-0.6553645360196351, 0.2925324638202748, -0.4168869962409383
-0.5262813260661576, 0.32531571809843923, -0.4168882628415811
-0.45007786015820495, 0.33751236881818936, -0.4168887397620299
-0.5735030760251378, 0.32889393268344325, -0.41688838869606976
-0.5768196220489693, 0.3272181676192157, -0.41688832461517855
-0.31720054157090416, 0.3543502137278616, -0.4168887497485392
-0.15715888043164944, 0.36806035277203986, -0.41688811453156976
-0.048863760918433904, 0.3810357410596529, -0.41688752005456986
-0.012560411941601018, 0.38201879576138065, -0.41688747065583137
-0.023720369077229464, 0.3610636030356129, -0.4168884053305819
0.009844716921250316, 0.3710642444914809, -0.4168879548858965
-0.020789032318450813, 0.3579826723995188, -0.4168885420415004
-0.07380582290927297, 0.43681231361699613, -0.4168791451826791
-0.01867697155951848, 0.4156138351993975, -0.4168842581002139
-0.15517718852340062, 0.4269655980707006, -0.41688156163137413
-0.10315691456830844, 0.43384761755496315, -0.4168798746202569
-0.05527064730466366, 0.42932682735904615, -0.4168809509884071
-0.1016292043083831, 0.44374556535626053, -0.41687747673144626
-0.18828358613755594, 0.43739373445001606, -0.41687904876346843
-0.08152257009466027, 0.42286298293594693, -0.41688252672237036
-0.04233979925266323, 0.4250810481859876, -0.41688197430643403
-0.4977205988766873, 0.4053374258349057, -0.4168864766052265
-0.6587957991742333, 0.39795677632455145, -0.41688668592706735
-0.5670734883356949, 0.3701857767326397, -0.41688803768356225
-0.6225585973218993, 0.37142188755508787, -0.4168879359584705
-0.6404190496660256, 0.38634622352412895, -0.41688723492634994
0.009711076339672305, 0.33270679619088583, -0.41688850106123865
0.013040851194469547, 0.3213794314349945, -0.4168880631259947
-0.30072947085960716, 0.2851044778988987, -0.41688658517291266
-0.12102040471708443, 0.3198173619494643, -0.41688797142841727
-0.16904647722199004, 0.29441421291740827, -0.41688697638500477
-0.20278303591215158, 0.2870489794463279, -0.41688668327756473
-0.3330302807944807, 0.28049784347182005, -0.41688639924045584
-0.07783131569053878, 0.289883278031761, -0.4168868221287703
-0.43663539761110065, 0.27356626351478586, -0.4168864026374871
-0.4517220487623249, 0.27189561546030067, -0.4168864128850389
-0.38062280026762063, 0.26712174079696577, -0.41688638445827486
-0.4270552176111859, 0.20733626683883344, -0.41688650183572107
-0.3706303290393764, 0.2128256139648219, -0.4168864647015665
-0.43335716898423415, 0.26170004612543996, -0.4168864196213635
-0.5619850912940286, 0.2501442317406768, -0.41688650276883576
-0.49073621852051386, 0.24301254431759892, -0.41688647797029615
-0.47146081051242605, 0.27820829911586287, -0.41688641294245365
-0.3025301145059238, 0.1954186865619179, -0.4168864921851169
-0.08803651248613918, 0.25403010286075667, -0.41688646423368503
-0.1786030404881812, 0.20153880546537406, -0.41688644988674534
-0.07917544185460866, 0.1965584262808902, -0.41688640662832044
-0.08735104121932116, 0.25287092835945457, -0.41688646287526526
-0.31482387540316403, 0.18943288313323411, -0.4168864913116444
-0.068278632068855, 0.21731966682017856, -0.41688642196983516
-0.31089523957081955, 0.196089812544044, -0.416886496062193
0.0002646699150690582, 0.22921904248740746, -0.4168864065998765
0.007350607801914636, 0.20814221823613516, -0.41688638398607264
-0.13058419021277676, 0.18931332680001522, -0.4168864197391893
-0.5402140051131846, 0.17674291522267443, -0.41681407662282094
-0.6438077394001263, 0.16540610276826978, -0.4167125608015745
-0.568594479136916, 0.1651565678504507, -0.4167103028396934
-0.4039175514668263, 0.18063980803426194, -0.4168489409384337
-0.5737845931086916, 0.563969162704529, -0.4169244140206466
-0.46759990505026955, 0.5787755047434299, -0.41694687341836967
-0.39027263904756976, 0.5862084069302554, -0.41695813607776294
-0.5798505240133405, 0.5530222203694583, -0.41690777225325043
-0.553751461988912, 0.5867761004828052, -0.4169590818607915
-0.08361263628176598, 0.5741915586945145, -0.4169398553246598
-0.023050959788309445, 0.5447637940899915, -0.4168951794394339
-0.3370185492969182, 0.5391590020455691, -0.4168865948272386
-0.07458724345319262, 0.5707471197860795, -0.41693462658544644
-0.09328061057685874, 0.5534256635277791, -0.41690831731020106
-0.09449307052189355, 0.5612128529601068, -0.4169201429086068
-0.5989811357478568, 0.538661138676672, -0.41688637367806786
-0.5906426030326615, 0.5092190608644964, -0.4168777936093458
-0.5326654418937372, 0.5172442071624201, -0.41688010187305413
-0.4119719925275933, 0.5369627186258799, -0.41688578448083274
-0.518817413767468, 0.5379590664079774, -0.41688612867782004
-0.006521294734575099, 0.5152585275644483, -0.41687955429536694
-0.0332570234645071, 0.5194160257319675, -0.4168807611754049
0.011757816301612295, 0.5052994438984639, -0.4168766632742518
-0.16604367207530682, 0.5038328065291126, -0.4168762375283432
-0.019693864879314085, 0.5148276148967625, -0.4168794292060986
-0.1900800573124351, 0.4975726799169752, -0.416874420277795
-0.22606874691066875, 0.48349571935353786, -0.41687033388011774
-0.5974187885123957, 0.4491777345037044, -0.41687607942901544
-0.6593881479862792, 0.47396290406597474, -0.4168701072664614
-0.6577886824560257, 0.4679712793405073, -0.4168715509912989
-0.5168145630619867, 0.4745841376041243, -0.4168699575723207
-0.599518217620888, 0.46628638395259525, -0.4168719569774873
-0.5509664425376055, 0.4785926802367169, -0.4168689916861046
-0.5692776353882243, 0.45759538739571803, -0.41687405113459713
-0.27062168759976424, 0.7157293810403521, -0.3961988237000647
-0.441140463743947, 0.7160763302208606, -0.3937838130610066
-0.08586553937333703, 0.711642351419647, -0.4035929788507315
-0.17432981240438908, 0.7102209106143913, -0.4059869863444713
-0.49488418139529694, 0.7124755845969704, -0.40218190816422755
-0.2920289338431056, 0.6983526760694934, -0.4131432414129358
-0.3359733353133569, 0.7047735456086238, -0.40986914061702473
-0.37433023524892584, 0.6997196064833687, -0.4124455646554814
-0.2196375581469851, 0.6826500572483163, -0.4162167922164641
-0.15719833819147058, 0.6859123059673082, -0.41576164722318915
-0.5470628572996195, 0.6934005783341298, -0.41471825559705067
-0.6335116581925607, 0.6837249508752556, -0.4160672113409035
-0.8182386574690702, 0.25997570580301993, -0.4141019032107137
-0.7629619995302566, 0.17034961290910547, -0.41683472134414434
-0.7804244958215218, 0.16460071041870844, -0.4167974178571897
-0.6861392630235971, 0.3163490726507677, -0.4169040497349473
-0.6918397355121966, 0.3014950716008036, -0.41690786943015834
-0.7252356587862363, 0.28031355351865694, -0.41693273828274063
-0.7062234769376458, 0.19295891490130906, -0.41691815206972227
-0.7372015788836982, 0.19094424107195443, -0.4169419429761526
-0.6856466347831408, 0.20441405298552762, -0.4169023397222708
-0.801909257200549, 0.17323857402472448, -0.4168916817193096
-0.48999431594693177, 0.2838721845642187, -0.41688659109422394
-0.6521486681816949, 0.281876501603777, -0.4168865912944567
-0.4566385487657415, 0.2817067167422791, -0.4168864855509369
-0.410820560195981, 0.2826716322905758, -0.41688650191851256
-0.3865029154185981, 0.29608754684044114, -0.4168870390929672
-0.3945366785291667, 0.32152903046750114, -0.41688808513336173
-0.6991696348690002, 0.2751944977279767, -0.41691267749602295
-0.7592403406301547, 0.24549073874735106, -0.4169588496959647
-0.7695347102628145, 0.24024864472590557, -0.41696676226644197
-0.7679611702303332, 0.26357684907554924, -0.4169655527949687
-0.42250046615911335, 0.1872222180492655, -0.4168865220644482
-0.4924680184899701, 0.18929233648347912, -0.4168865413257459
-0.5018085353176049, 0.18960559298645696, -0.41688654386230806
-0.6469903909953416, 0.24227911636140215, -0.4168865382317979
-0.4022747570085952, 0.191217181214463, -0.41688651216716366
-0.6363500310796208, 0.1963388156489489, -0.4168865783057429
-0.5558768406282184, 0.20187912260486546, -0.416886548686386
-0.6497806646404165, 0.2672781087574704, -0.41688651551558786
-0.5249187788660707, 0.2023093309047479, -0.4168865388951845
-0.7066780148981553, 0.44820257344858344, -0.41690833665138194
-0.74915883205172, 0.47860495294959277, -0.41693374692181806
-0.6678933275637471, 0.44091981092045773, -0.41688020380081103
-0.510430121160013, 0.4164177182012858, -0.4168840666284915
-0.3941501947267721, 0.458695865384137, -0.41687383313899373
-0.4616209852592928, 0.45408254108169366, -0.4168749055112082
-0.48529353041395823, 0.427759402830861, -0.416881316459616
-0.43428391454819193, 0.4570075407498697, -0.41687421310780826
-0.3792244407808645, 0.41443667690546104, -0.41688465662314
-0.804823218762849, 0.38940912837618824, -0.41698595472295935
-0.7900874934992949, 0.282013782294736, -0.41698265398386175
-0.7409786213269683, 0.3288433008431222, -0.4169467142521678
-0.7858749079519357, 0.3123510546375187, -0.41698061290264626
-0.7538584773490455, 0.3988293356577952, -0.4169550107254725
-0.7470789544469624, 0.39292963496360284, -0.4169500585460478
-0.4819824647078328, 0.3749550405454961, -0.41688786006225953
-0.386093117919723, 0.3889915039309649, -0.41688727535813547
-0.4316029343711376, 0.39283736259100605, -0.41688710064623186
-0.5430522332387163, 0.34778096614914356, -0.4168890172052445
-0.5582629860009977, 0.3545695664008122, -0.4168887219710061
-0.3976088305542107, 0.3933782566533432, -0.4168870842386494
-0.7469234564081042, 0.35307439472133184, -0.4169517072578438
-0.7661965375516364, 0.3938073187441103, -0.4169647470600347
-0.7651136931262492, 0.3584955734800167, -0.4169654669611666
-0.8223350721936941, 0.37781992340537457, -0.3999026685752402
-0.8231906184312807, 0.23866921537823904, -0.27412024725654593
-0.8231649157929448, 0.34183547578384377, -0.2791312052878002
-0.823483905766132, 0.2521714168130211, -0.2947439797672588
-0.8244191050537601, 0.33238555158643696, -0.3601605569078681
-0.8246025040441851, 0.2418103982407145, -0.3630703292894849
-0.8236579964224854, 0.15118361770053057, -0.3364118070761887
-0.8234771323741206, 0.26568161174571125, -0.29435890242615353
-0.8244345070154454, 0.16078744960001554, -0.36579232884437385
-0.8244789929380483, 0.25424160267617935, -0.35792089068382943
-0.8239562178733121, 0.24365958943197957, -0.3340188883239365
-0.8239042266372114, 0.2173705539857304, -0.33115338388753024
-0.8246882308595823, 0.30420904470134463, -0.3698173426218736
-0.8238216852634306, 0.3648349895384615, -0.3366484345734684
-0.8230407251724197, 0.438450636618496, -0.2926973544626254
-0.8241499346179223, 0.2883963510477245, -0.34423269334593065
-0.8243300051048195, 0.37887310554119297, -0.362578526696947
-0.8233729557089637, 0.3636506987079501, -0.2923830587871424
-0.8235757448129615, 0.35305650983837866, -0.3158395810039734
-0.4270412315045061, 0.20339654865444515, -0.20420421266921393
-0.3975197414423295, 0.22846405869326142, -0.20496137169285034
-0.4229818253013267, 0.26730382143706516, -0.20613453678722235
-0.5955146479504991, 0.26809742935530145, -0.206158551378297
-0.5180976401651637, 0.2723227150598303, -0.20628615696854138
-0.38443632955417095, 0.19277785615431753, -0.20388346330644727
-0.4963225750974324, 0.2747624242382653, -0.2063598431107655
-0.4728513904786124, 0.25947474392136943, -0.20589807136895336
-0.6168233377697967, 0.27833043787327244, -0.20646764573994908
-0.7977584887668316, 0.22779901768742894, -0.20473440380889601
-0.7574592935839385, 0.25538975452832574, -0.20560193679569966
-0.7162168909427234, 0.2775319351008225, -0.2063479413580348
-0.6720394232927578, 0.19946073293190983, -0.20407232543916448
-0.6706038326491921, 0.2167713162813532, -0.20459790634121006
-0.7669309802122618, 0.309429769609387, -0.20969383697137361
-0.7784703914229039, 0.29069593373866764, -0.2075513129348179
-0.7666556720810944, 0.31541557780073, -0.21037260532719848
-0.7639878296149236, 0.18559785463805797, -0.2034782124634351
-0.7646593911717785, 0.20666983321612548, -0.2041144128166843
-0.7265416369811462, 0.19208245747696978, -0.20374572262655516
-0.7375042924357289, 0.14616255471979098, -0.20453962898068245
-0.6833636080864366, 0.16332096440307137, -0.20418808071328898
-0.821410002323384, 0.20210022857463766, -0.23578427848914957
-0.8177001686868122, 0.2227147622034818, -0.21154369003093687
-0.8224401183536031, 0.38844149768884406, -0.25976029969798664
-0.7475281968854339, 0.4415843623444631, -0.2370470248076617
-0.7149952545181673, 0.41390981862324294, -0.22865078016290885
-0.7522989759075327, 0.41778091225147934, -0.22977592199094674
-0.8090559702904652, 0.3778229220608233, -0.22047621408640766
-0.8025311605011607, 0.41722839200785683, -0.22963724570636404
-0.6677661488800545, 0.3556182735937422, -0.21590342997759163
-0.6907873375594399, 0.4002258393939251, -0.22515677928539757
-0.7542894049861872, 0.28756021566070616, -0.20723921101006085
-0.7077554595048549, 0.3233775808133632, -0.21137530529775284
-0.7521583100907397, 0.29842153503098084, -0.20847199111424822
-0.38669319762569987, 0.3371009571694356, -0.21300441972171713
-0.39383931269588335, 0.31666981651272375, -0.21069261880985157
-0.5824757919152911, 0.33002467868275415, -0.21220376210623354
-0.5801047342566461, 0.3457884150403754, -0.21398744273528808
-0.44831276337438936, 0.29922751184837854, -0.2087190145608752
-0.4620847460011669, 0.3102134314980482, -0.20996208336671582
-0.5829973327873286, 0.3819243623157596, -0.22138491856151088
-0.6614989431041625, 0.379052084081577, -0.22078683161276313
-0.6415079120444541, 0.4009383301102091, -0.22534400103493674
-0.650421789715884, 0.36018740996306386, -0.21685882315440155
-0.5033805177961171, 0.3922938884455679, -0.22354408625092842
-0.5013896417106456, 0.40272029820136807, -0.2257150786636195
-0.7001455323943254, 0.357727792913764, -0.21629189325103307
-0.7658823612562842, 0.34868805715358353, -0.21429805801913576
-0.7963068015136534, 0.6270059149813224, -0.4170051001830066
-0.7463252594568406, 0.5647550534238375, -0.4169878359813275
-0.7801213531727416, 0.5824965988155482, -0.41704026581060233
-0.6762210721812296, 0.6049698022447905, -0.4169441056481505
-0.705582179814592, 0.6170967599382764, -0.416950840809337
-0.4908375069338975, 0.6016040791928666, -0.4169399137522567
-0.39431993236337687, 0.5915174950389138, -0.4169530691177783
-0.448092203976427, 0.6240675381700317, -0.4169104857117621
-0.42451670489020593, 0.6301208559297584, -0.4169025495282944
-0.5658603752593157, 0.6006264407787641, -0.4169412314666383
-0.39754740426287466, 0.4907783991403022, -0.416872430119993
-0.5726039429435292, 0.48548041425906857, -0.4168709000230538
-0.5050363413658454, 0.4960659663111916, -0.41687395719998444
-0.4882322619494349, 0.4997361161761296, -0.41687501716316794
-0.4687298926622505, 0.4944830889868772, -0.41687350005597557
-0.5865637836927587, 0.49201995368106644, -0.4168727886833476
-0.7383170000069816, 0.554257122793066, -0.4169658594582797
-0.6804664909388183, 0.5672538566447376, -0.4169412283882611
-0.755137151880075, 0.4493162213288892, -0.4169454093128861
-0.723782686930314, 0.4254891361674443, -0.4169269873251821
-0.7441745797185513, 0.420922769263855, -0.41694379812413346
-0.7212695869251398, 0.48609327137914304, -0.4169143494676895
-0.6876447309163073, 0.5214874171398238, -0.4168987549153866
-0.5061729153972958, 0.5598309949819864, -0.41691808777985584
-0.39751601745743337, 0.5752091009984086, -0.416941415300139
-0.5810581096331979, 0.5396133825034827, -0.4168873847420098
-0.48363269088480826, 0.557710153013465, -0.4169148516598897
-0.7303660647756101, 0.5246453962264026, -0.4169325172854709
-0.7597812662199513, 0.5271175089456498, -0.4169558293357939
-0.7894030484257966, 0.48652652179146166, -0.4169669386347823
-0.7959653083684114, 0.5884184814775598, -0.2941922730079582
-0.7204344593766466, 0.5583517099892408, -0.2810956249950166
-0.7028759506552777, 0.5625325422419069, -0.2829310084530074
-0.4029841224135215, 0.5724884105166632, -0.287297020767256
-0.6007145175654893, 0.5825199294218503, -0.2916571831914471
-0.47635365211563774, 0.5784462145216163, -0.2898864464239634
-0.37832720926762564, 0.5509106611941065, -0.2779193480200153
-0.4570224973148185, 0.5574507266037653, -0.28076183583753306
-0.7327103550677209, 0.6081388794613602, -0.3038239409502591
-0.7647498356217239, 0.597989962979024, -0.29885317197315464
-0.615001520987954, 0.4694426197372687, -0.24564474340217404
-0.4321587780107625, 0.42691724205910836, -0.23268646613778404
-0.43505235739150383, 0.47647881001229164, -0.2477890486734735
-0.39249404021814427, 0.454245516825068, -0.2410140865367844
-0.4568217444237117, 0.45785119614430986, -0.24211274712528869
-0.53762135562574, 0.4662441090349457, -0.24467017206701694
-0.6041276328239078, 0.4720231632284737, -0.24643110900148998
-0.7946373822339375, 0.4962491855662433, -0.25532879639955564
-0.7727583417101097, 0.5667247726795462, -0.2846929109336375
-0.749418591263325, 0.5693780713751904, -0.2858664939325885
-0.4696279178103647, 0.514512286365299, -0.2628477696027251
-0.3998286137240824, 0.503673385697881, -0.25846783895905046
-0.5014425044041784, 0.5148595702050671, -0.26298808443730304
-0.5657391685214769, 0.526152816882001, -0.26755161920523435
-0.38225143747715357, 0.49033723526040685, -0.25307873861271013
-0.43751868408958783, 0.49541567508758894, -0.25513088823902375
-0.756823684157898, 0.4963362799854024, -0.2553837297455629
-0.7489456139897951, 0.4801130910674538, -0.2488381456261188
-0.7561425527620428, 0.4978019017716402, -0.25597755228634633
-0.7610340543528926, 0.5106803194396099, -0.2611844337717845
-0.7239543477466708, 0.5161423102753792, -0.26343266974817886
-0.7220530627693954, 0.4657180965696961, -0.24443843317790354
-0.7360564215294298, 0.4535381295562345, -0.24070940257037438
-0.7276587586668721, 0.45673482133012977, -0.24169402367463558
-0.8209824702959556, 0.4182254701053162, -0.2548543980621331
-0.8202723614170905, 0.12385295568741389, -0.3440785884125714
-0.3791854778742126, 0.11776684024454839, -0.36751211121716676
-0.37744593227045525, 0.11747214619385656, -0.3856309233655212
-0.48576913933635213, 0.11783291126434398, -0.36345016571851585
-0.41010834854011297, 0.1185137124116268, -0.32661914009900517
-0.5017607826751109, 0.11832953647939007, -0.33649258222045064
-0.62845120538594, 0.11839310502137927, -0.3330853472165468
-0.7424534222058113, 0.11772035023902687, -0.36689562809236453
-0.6656694153999791, 0.11764512893914073, -0.3749713433888908
-0.7077021529299325, 0.11845199746500015, -0.32831310320350315
-0.7677419699199506, 0.11742267429518555, -0.3829714935379762
-0.4476899285482308, 0.12311900557313905, -0.4056701476187687
-0.5138208128419482, 0.11888947076817695, -0.3947980754822059
-0.8065913872389399, 0.12132231569110655, -0.40165412458301447
-0.7173764753777998, 0.12016375693556375, -0.3982354130075458
-0.7828651007023872, 0.12383959700849645, -0.40793992448635263
-0.6860669946728888, 0.7015940775471731, -0.41152569996423904
-0.7339485905549344, 0.716977764785554, -0.3877439832474625
-0.6333717876373566, 0.7105882558942367, -0.4053719778885547
-0.6287636698454188, 0.6962732156040133, -0.4142062170827968
-0.6535953027146654, 0.7054670010043333, -0.4095216566176369
-0.7454229954045513, 0.7083636815721224, -0.40814882647852413
-0.8202658193459916, 0.7044885966766725, -0.40009717434822445
-0.823717974859942, 0.5398176401348745, -0.3762341268542477
-0.8233504837590724, 0.5318773495429904, -0.3509360782046729
-0.8240213084183939, 0.4834827043314476, -0.37594058328256075
-0.8241987145818095, 0.47956548406987115, -0.3931014535357833
-0.8235700189309227, 0.41436772762549556, -0.39517347993856533
0.8118455050133538, 0.6183974863469819, -0.308911159292233
0.7961706354352054, 0.5300075604788709, -0.2690042703925244
0.801999517008884, 0.43480116690002657, -0.23499629804236266
0.79534287752836, 0.3167927791402162, -0.2105060004056502
0.8034927780481839, 0.21799763868366587, -0.20447669727094003
0.800253375731051, 0.11839134206070186, -0.2601168070797396
0.7963616289956305, 0.12551950135221837, -0.41238540789810735
0.8079662279835361, 0.2501377957202327, -0.41698534852373675
0.8037956258835062, 0.39792469164346367, -0.41698552026691327
0.8082536811134207, 0.47050194931195777, -0.4169706670387798
0.796060968423075, 0.6111525524888333, -0.41702559559481983
0.7933831749301324, 0.7174305069052996, -0.3846901884692865
0.817457250887474, 0.1961023718167603, -0.20953362190268127
0.8164096636597081, 0.5021176207266805, -0.4167751639406822
0.18505916775465475, 0.14131045341983278, -0.4164967287038599
0.22811962514298942, 0.15331459605762426, -0.416604214132538
0.27891663680586054, 0.16932023028482993, -0.4167475290287442
0.27931560693800506, 0.1713573847662532, -0.4167657697669065
0.22430681353695792, 0.1519424554821381, -0.4165919279474758
0.4882548326328069, 0.1316129757807238, -0.41479204407545084
0.026808478402325142, 0.12681284427563158, -0.41376391685052544
0.6339045534301269, 0.15515903964527045, -0.41662072970345954
0.51661839284653, 0.15773791114531888, -0.41664382068692063
0.5621237138873909, 0.1399068298209577, -0.4164841610519925
0.4795552785713988, 0.1417059437973008, -0.4165002701550288
0.435315366746585, 0.1464609288150872, -0.4165428462534433
-0.34575317211902135, 0.16070088166096433, -0.20429723515596895
-0.23151169645200415, 0.15346068356627418, -0.20449335300309412
-0.3404062469647533, 0.1695175450266653, -0.20405843138191213
-0.2876699088702637, 0.15477902549491485, -0.204457638599005
-0.0707267148813445, 0.14875238035221994, -0.2046208982956191
0.1542820492441242, 0.1347088123372874, -0.2079735896808068
0.24167610114073082, 0.13348238556390196, -0.20876829316007706
0.045997999191692986, 0.1766142529603965, -0.2038662039461884
0.06407199540705995, 0.1744260292824537, -0.203925475297178
0.19969602294519057, 0.14503499534257097, -0.20472158044755479
0.08931948449201565, 0.15135230780071124, -0.20455046892166873
0.2132794408482586, 0.1518067747469114, -0.20453815362961955
0.5649794463802936, 0.13673366513997598, -0.20666152224209738
0.5029149425616387, 0.15408485451321757, -0.20447646629264032
0.40564207480654707, 0.17183081564131433, -0.20399577495609017
0.4476106064903598, 0.14891913729651107, -0.20461637925150097
0.3848458461450462, 0.17049278170907223, -0.20403201449396952
0.7588181171414135, 0.13316985318782493, -0.20866465751584812
0.6901102712060432, 0.14847765160098056, -0.20457196365264751
0.7062171131103414, 0.15943106043928504, -0.20424220826889122
0.8231325752529639, 0.17846958523757803, -0.27516938038747796
0.8233828120365521, 0.1767913221200456, -0.29637598700732476
0.8219965989379487, 0.1277091735753727, -0.34881889985027537
0.7464194913681834, 0.13530935767917388, -0.4156802059869542
0.6864794720731424, 0.14731442234632838, -0.4165688646712253
0.7420755806775743, 0.14694617762290055, -0.4166100355921859
0.7679410959170283, 0.6730371820472295, -0.33560572207622325
0.7085215136236104, 0.6527675107357698, -0.32562795869625355
0.7251365853716938, 0.6847648971327069, -0.3415895728838679
-0.08634308556896621, 0.6476535590090132, -0.32312637256864796
-0.23485541526974868, 0.6611408398085542, -0.3297827986716025
-0.1667398496211898, 0.6469130974025207, -0.322760950501465
-0.21401493143176809, 0.6487705915504443, -0.3236776924972852
-0.32072831797331997, 0.6578669875164875, -0.32816707097252507
0.31751749172711174, 0.6749571018966553, -0.3365981520799388
0.3479645147937122, 0.6720164452563113, -0.33514715521792426
0.3535659342179215, 0.667267637226509, -0.3328039582063738
0.3251304566319991, 0.6499700709852766, -0.32426883449842236
0.3208271622620681, 0.6597316678098051, -0.32908548596075027
-0.1745895305105821, 0.6863596594639539, -0.34247392850337594
-0.3229251469076588, 0.6841574893586673, -0.3413041958639461
0.7186731483612989, 0.6697583783925831, -0.3340089737782826
0.668861546114039, 0.6642188496870617, -0.3312969350687686
0.684705078088638, 0.6416747339677727, -0.3201677032872298
0.7023395604421774, 0.6408834767795204, -0.3197722498662679
0.6999384834858948, 0.6315084150466539, -0.315207413080138
0.5744706928673844, 0.6261040788879234, -0.31260713234993054
0.5557104250758669, 0.6078662403299564, -0.30373615781658986
0.6499283145884134, 0.6368387904228563, -0.31782854893098417
0.6186007879456489, 0.615879600501865, -0.30763389568643373
0.6357035218218077, 0.5990558290006807, -0.29945073033669156
0.1881677302111922, 0.6608895101265263, -0.329656766759831
0.03867470574066388, 0.6677778555938485, -0.33305565810844284
0.3132748123225355, 0.6476939267283561, -0.32314571784907403
0.2341832673624831, 0.6521325471592503, -0.32533585024790723
0.09059690418366877, 0.6488997729879535, -0.32374071420036693
0.37740578323364943, 0.6648691808001752, -0.33162049462523435
0.37078612226424745, 0.6679505104415951, -0.3331409112674385
0.5472265664012377, 0.6742254548143584, -0.33623714924373566
0.41518064663067755, 0.656558782104999, -0.3275199049610675
0.20170220100535613, 0.6160238818991022, -0.30770408875742555
0.2994477679511196, 0.6252384611793101, -0.3121861006678646
0.24531442287078487, 0.6149949136020822, -0.30720359404980346
0.338126461199573, 0.6079199624405417, -0.3037623066716688
0.2797052460461705, 0.6138393980218773, -0.30664154618677175
0.18277133313695934, 0.5929713271594037, -0.2964912246897945
0.331195672999724, 0.6816343956196622, -0.33995483028062917
0.14309419090266395, 0.6872169121694083, -0.34292512710213546
0.04466543547002115, 0.6948643202284979, -0.346994133579202
0.5240048932392147, 0.6843288998428656, -0.3413885309513901
0.48184885049584725, 0.6869914194250702, -0.3428052038185574
0.6362857300890128, 0.6614915079427, -0.3299538537195051
0.534619111443779, 0.6517735040773397, -0.3251587111916549
0.4752804844430037, 0.653634941168812, -0.32607719777428046
0.5417341667371475, 0.6538721029031396, -0.3261942201930826
0.6008926196368527, 0.6643654186496323, -0.41670872145358
0.6505656523227484, 0.6466588521722094, -0.41685198381857946
0.6056236761148344, 0.6444522761702098, -0.41686983704252334
0.0154032281181981, 0.6398289894386116, -0.41688972847426475
0.02465568300806144, 0.6412702824334903, -0.4168878417200286
0.061224120165448606, 0.5960321109294293, -0.4169471441205965
0.10625652245281607, 0.6242564723029083, -0.4169101621106066
0.1359384190021689, 0.6373449738523775, -0.4168930146374572
0.09063784109337991, 0.629846604464561, -0.41690283124706046
-0.25244567518581607, 0.6692933688846454, -0.4166688498157801
-0.28373119661432156, 0.6730005875540217, -0.41663885501612086
-0.2761371630465363, 0.654204300241949, -0.41679093422227126
-0.309120319627058, 0.6577912858036626, -0.4167619122187425
-0.2800087261581623, 0.664084861299972, -0.41671099141989354
-0.16746571670436994, 0.6899656586039021, -0.41519664223314423
-0.06889262417191597, 0.6938474349575267, -0.41465676318933414
0.3075399541929577, 0.681432987836421, -0.4163868959426073
0.30911486431776347, 0.6720229479059545, -0.4166467500279123
0.26231732857513, 0.6464790562844176, -0.4168534117432784
0.3393139389401587, 0.6702066286783425, -0.4166614533307582
0.31238181071452437, 0.6446696468691463, -0.4168680641481326
0.1499022727559937, 0.6468374040173699, -0.41685048403784175
0.5456129576201122, 0.6892523241817639, -0.41529765472525365
0.059630104239811396, 0.6755696293671136, -0.41661805850818945
0.11811507349347447, 0.6712549581830547, -0.4166529579054481
0.259654505841547, 0.6716359573335208, -0.4166498761779792
0.14402933540920795, 0.6688346947219057, -0.4166725343070783
0.8087678554768739, 0.6609853464017281, -0.41684968031944475
0.5918269593475166, 0.6783468987321641, -0.41659559845452937
