0.6923783442467052, 0.29157629462341184, -0.8317400280276255
0.8135223632245837, 0.2931922428004897, -0.8604258257819055
0.6210900209015724, 0.2910479795073083, -0.7479365503432089
0.7166441802298846, 0.2918497337260609, -0.8536096099786983
0.638862803276374, 0.29194759477364884, -0.8649388429265613
0.5165696354157115, 0.29308058494054484, -0.9002991327863029
0.6344389096915485, 0.2939651256177335, -0.5421314483827911
0.5741047543111346, 0.2906875092940191, -0.6846304170273622
0.6671616517241857, 0.29194192598581586, -0.7246102017778786
0.5978626719597798, 0.290745179301979, -0.7797014198155865
0.5014134218023097, 0.29052989746297697, -0.7797239465889481
0.5350231544617843, 0.2912460809112914, -0.5664931791474209
0.5989177527262695, 0.2921715874510593, -0.5942671898891156
0.5084513796915056, 0.2906732193911977, -0.6365648077888327
0.6057408526982246, 0.29079912936177105, -0.7789622734456674
0.5944767540225474, 0.5638895844149818, -1.0435468547805637
0.6156409381373573, 0.5279324499818567, -1.0477075825295332
0.7315661126767695, 0.5741384299262211, -1.041889710979711
0.5299332200947459, 0.4364235818759742, -1.0498074777704525
0.7138976211962214, 0.3659696047839153, -1.0390208519384299
0.6466969162543001, 0.5040686202238831, -1.048612940024475
0.732784716506206, 0.4684916314474332, -1.048639300903151
0.5703989078646887, 0.4172785624843033, -1.0485540547813157
0.5944368400469653, 0.5073461009491715, -1.0493597992246373
0.6356366441998589, 0.408007456857765, -1.0475549142220506
0.562362574975231, 0.4879208749189534, -1.0499834511549768
0.820253422072864, 0.36167258537408636, -1.0380042235236597
0.7817120384297773, 0.5309029450114874, -1.046728811287763
0.772725563836604, 0.43514083204672555, -1.0477189507397053
0.8225544464789797, 0.46378894539103965, -1.0483113015245005
0.7595723194263667, 0.5378884071667042, -1.046041382165972
0.885193442458378, 0.5519871460805227, -1.0432389321080993
0.7834931388605214, 0.43614865594185254, -1.0477406350580432
0.9402988998498731, 0.36666004020711324, -1.0363588307758276
0.8916283682736622, 0.5257545452193233, -1.0459579531259573
0.74203302070437, 0.46203725138394386, -1.0486885093841494
0.900740601159917, 0.45875201484043004, -1.0471146998261645
0.9081034055739, 0.5140485869144458, -1.0463381907103066
0.9715699293810521, 0.46745479637670584, -1.040668269367354
0.9454978849718041, 0.5095613105737726, -1.0447946875696066
0.9220594477112873, 0.6451041784688866, -0.9833750644362087
0.9107530320478576, 0.6106978546140099, -1.030980512680377
0.9783247728246782, 0.6287781026411479, -0.9226811890991541
0.9719728364874899, 0.6373318196418387, -0.8253637423861941
0.9638294131961738, 0.642412445163425, -0.6498166334791365
0.9433829717715065, 0.6504736037070677, -0.6961941041850451
0.8938778612027378, 0.6579026681969018, -0.6088545413722719
0.9308995476064293, 0.6530539723194914, -0.8445552288645158
0.9331358837922437, 0.6444224065961763, -0.978320137097004
0.9485836898534925, 0.6482324014860824, -0.8615764271477528
0.9149121923069065, 0.6555860786256424, -0.8280703859778858
0.8562430924975334, 0.6574953644953984, -0.9138727333527681
0.8422935217765839, 0.6601202408077946, -0.8694675542814017
0.8712323685578058, 0.6607072572593806, -0.7395824282340049
0.8452036833350544, 0.6630940400838856, -0.6734947463311841
0.7947441087342365, 0.6638083143098984, -0.6348273794134597
0.848458714557221, 0.6609119541493337, -0.8430225286508808
0.7728374014836502, 0.6647353433056303, -0.7216635998077197
0.7980716921590597, 0.6623545209626988, -0.8278941623312968
0.7361304319187417, 0.6630161494489106, -0.8445483692271528
0.6851336648399227, 0.6630691762665739, -0.8379020666310714
0.6739365299596735, 0.6643876746599666, -0.7684169736840523
0.7500416652332447, 0.664110929522977, -0.7949405809305579
0.7158887668785769, 0.664562137442438, -0.7786605489261094
0.6217940753996599, 0.6636402534959848, -0.7594121373528311
0.7067599851990164, 0.6649917044249851, -0.6533224155079962
0.642205612621281, 0.6642225484218162, -0.6532428178385945
0.5844692083970948, 0.6633685480371702, -0.6572695857719759
0.5221464400620174, 0.6629564241984213, -0.5949073390979365
0.5059234796154588, 0.6627016176843561, -0.7345682112038963
0.656350913160822, 0.6643492538573139, -0.7469333076505023
0.6093120664098546, 0.6633101170142466, -0.7736944416529357
0.757245027140628, 0.657541698653185, -0.933379186560269
0.7366991415154425, 0.6613516276170663, -0.883390752313862
0.7287203739874929, 0.6615341732692986, -0.8800206383391652
0.6247415798300396, 0.6560058805864319, -0.9486793021375246
0.6491980458188695, 0.6617225168666206, -0.8702254038567124
0.5684827012809048, 0.6619920349657522, -0.8424735794442776
0.5724356932984935, 0.6596433978250693, -0.9130184965235633
0.5776028118167573, 0.6571982292742651, -0.9365389068707132
0.7752741039643993, 0.6266369300925114, -1.0236572805638415
0.8111137259467203, 0.6585472846743984, -0.9156948403648757
0.8412192970305786, 0.6436809298029412, -1.0017855457325329
0.7705701242726294, 0.647210379111185, -0.9932919386311911
0.6744481090649305, 0.6393661103946344, -1.0125629392425601
0.6068359678533304, 0.6592120043938664, -0.9181437509140602
0.5783937587281612, 0.6481473176410062, -0.9912527863682739
0.6937153315954643, 0.6057955708600827, -1.0341439904996848
0.6973878711922656, 0.6377862089262785, -1.014130487749846
0.5508469351430227, 0.6429108806657181, -1.0055485607513077
0.5042039514779062, 0.5901620377423433, -1.0398421522771644
0.9822019024986497, 0.6238105495685263, -0.5782874564137651
0.9762169599380356, 0.6327752993411805, -0.6611453273340488
0.9848076245422066, 0.6189611199687017, -0.3347291109355516
0.9789728511763978, 0.6299674540348541, 0.009550719656200949
0.9730554229271347, 0.6362594702719138, -0.29346705874519435
0.941943197189711, 0.6504597021356985, -0.26746226470076334
0.941103231640638, 0.6506659739780308, -0.10586117469028161
0.9009097542623129, 0.656686967789678, -0.010135928878646868
0.9476490017386014, 0.6489799507294148, -0.24816042856432594
0.9184375044660363, 0.6552557562013408, -0.1529013747974097
0.8956303709146094, 0.6571064001737381, -0.19198079682368013
0.9392066592843967, 0.6511459557637196, -0.3814834513552729
0.9270058833035637, 0.6542920480941352, -0.4639849320966024
0.9215965764484695, 0.6550018152714108, -0.3334279796685455
0.8902158432166217, 0.6575453981701139, -0.3669242044605761
0.9432388258054982, 0.6500741383946373, -0.47632849977811254
0.9501564769095336, 0.6482870853691891, -0.5657906307881009
0.8539652720594054, 0.660594221759269, -0.5054330661382608
0.9840163481025841, 0.6204995094172974, 0.31540375674114607
0.9761943875338184, 0.6328655870669238, 0.22545872073436823
0.9657531082107791, 0.6412305765572519, 0.2648123156574886
0.9755945296702978, 0.6335196728994802, 0.5876882467337298
0.9785950036294135, 0.630446487775993, 0.5541235645741925
0.9602550169064961, 0.6443356294256355, 0.4175063861294998
0.9418660654562815, 0.6504717871772181, 0.5936229721584229
0.9425921219269031, 0.6502844695582896, 0.5752747971938301
0.8519691024690298, 0.6598352128755067, 0.5134413210671294
0.910710753614733, 0.655762041879857, 0.45352114411046235
0.9576880123128304, 0.6457781833163381, -0.03643351250088529
0.9543375079098686, 0.6472268665617446, 0.37985790015312654
0.8922484592890269, 0.6573909676882816, 0.3471381595817245
0.9312901954885979, 0.6532175359688844, 0.3035922583175439
0.917330940930065, 0.6553592554698658, 0.2766528724800745
0.9372930665275012, 0.6516532322453064, 0.024592363798844795
0.9104298828021291, 0.6559344040246149, 0.17896853877224406
0.9203744504145154, 0.6551077254431197, 0.04345433816184426
0.8896811282010045, 0.6576361124591035, 0.21849761231851672
0.7807013804567601, 0.6623599053950961, 0.27943963169881414
0.8636276548840036, 0.6597428506466231, 0.30430707394305034
0.8572834090958962, 0.660243950302516, 0.03984195161573909
0.9177853993724243, 0.6553239802860464, 0.11873222728406321
0.7448046825846177, 0.6629590520105086, 0.18007663480882563
0.8912281768789774, 0.6574061639826847, 0.6428553861675121
0.7618819518541545, 0.6622791399485314, 0.6066799768717596
0.9031735981806819, 0.6563173268924198, 0.38572087722268367
0.7393466754975473, 0.6630111843323354, 0.3353665402967162
0.9210948177424744, 0.6549989982759854, 0.5090093492634202
0.7753710102942419, 0.6616384712247172, 0.4548362952701628
0.9125720386707984, 0.6556184209617977, 0.5528042148312731
0.735954355879911, 0.6624393438200887, 0.4875494905188347
0.7991947150640026, 0.6610698876482156, 0.47123995248944395
0.7032861833306522, 0.6630383692484748, 0.44173616898224527
0.7313459594487226, 0.6624963151938926, 0.47649377577235685
0.8354971107826873, 0.6606032909682313, 0.5618008566236531
0.8258594006286533, 0.661228748612408, 0.6209679061455871
0.6978169730961491, 0.663081269411699, 0.613494804512571
0.7003055474083126, 0.6632061227474959, 0.6398499723719093
0.7208726179045104, 0.6625883220924386, 0.48269162068040955
0.7214856586176734, 0.6625593199636368, 0.548060734331262
0.571490401366992, 0.6636632302128291, 0.682797362642165
0.5307612688834602, 0.6636439786504025, 0.6827257051582705
0.6401396954938874, 0.6632802548265964, 0.48850577709858245
0.6476865929806637, 0.6641143808091122, 0.3840040188751741
0.5955674398044078, 0.66344961460106, 0.49143142435640225
0.5017106868120835, 0.6638984200492818, 0.4795096639559981
0.5635399949653703, 0.6643365506996918, 0.414989795259136
0.7454944110100493, 0.6627052435599037, 0.08634774720306321
0.8262919904739178, 0.6614353800010329, 0.1877813286784034
0.6966930182712832, 0.6630085642467981, 0.09773283455397813
0.7327166920296988, 0.6632081390997655, 0.19755759492708888
0.6475878731703554, 0.6632406273539723, 0.08558365400727481
0.8340944131877421, 0.661297566583376, 0.27870939408354806
0.8094729815847937, 0.661780457475692, 0.25624305490257454
0.6912578310619656, 0.6641032158344535, 0.2709945521698246
0.8009738233088592, 0.6617730997757071, 0.3198952131532527
0.7891507974164124, 0.6615249147172597, 0.4169075532591917
0.8381342091202388, 0.6603909037111042, 0.42245510092948935
0.6538507408471748, 0.6637987545226642, 0.4094928437830994
0.6322801453355615, 0.6648140979949094, 0.3427760347541297
0.7299506871665853, 0.6633879667635956, 0.2995242878437827
0.7217964800528059, 0.6634224292532733, 0.2575688563575881
0.5930857402401379, 0.664170868683034, 0.4141178095413406
0.6401403785003622, 0.6648503139584601, 0.2424758516353217
0.5959504227996676, 0.6652434287359882, 0.33077823465085093
0.5579207176751347, 0.6645189022530197, 0.402260075381468
0.5343154620402126, 0.6647530079806638, 0.37213245439984555
0.5746538166399765, 0.6654614856343117, 0.21697047543886633
0.6233966908950825, 0.6647528603520478, 0.1712659152544217
0.5716555398947485, 0.66540100671265, 0.1983374790604846
0.5885723870635137, 0.6647616673962115, 0.12820543847427415
0.574089624648271, 0.6646432216447191, 0.03356357956343176
0.52401590298314, 0.6661114178683165, 0.08829032182274825
0.8845867342793517, 0.6579875334746185, -0.47200399323493747
0.8296419575186604, 0.6612484086689775, -0.38197300347684937
0.8601003642851505, 0.6610696698545595, -0.5861134187222411
0.8429729662424732, 0.6611653990818525, -0.48524445878092887
0.8902043977612912, 0.6585644287777996, -0.6596206214998971
0.8455151869099002, 0.661650966255649, -0.5388844781808428
0.8025442451660971, 0.6617900194270606, 0.09821861194074279
0.7655918702796598, 0.662407281494509, 0.09880989983887106
0.8715574431456931, 0.6590720445374005, -0.025769103007363
0.8515147576179297, 0.6606947936235117, -0.09074967938458832
0.8342981375653984, 0.661196802252014, -0.04421257146855745
0.874807202438973, 0.658781318069153, -0.41908168888593156
0.7805796733179544, 0.6620113257510155, -0.27867684923581265
0.8942012271076096, 0.6572197632520416, -0.22380140559765951
0.7938749924848156, 0.6618117996626569, -0.11262861577055887
0.8567763692358985, 0.6602644953814933, -0.30997164745764716
0.7511508861544237, 0.6624711500782595, -0.16764855157670902
0.8455543910417643, 0.6610161656559416, -0.23414218169506723
0.8155907257983567, 0.6614759389752335, -0.32153169449475494
0.7311055681098517, 0.6627280069133953, -0.19398233498067347
0.6292595462231403, 0.6630018340261016, -0.25489631776867305
0.7361541074030526, 0.6626925408208428, -0.24020538653968748
0.7526734025371564, 0.6624467873351003, -0.14694940536683432
0.7469931441137818, 0.6625343055823618, -0.15038567324492494
0.6947125453896759, 0.6628427016558035, -0.08742370421805662
0.795869311178039, 0.6617863282972242, -0.037164790400168055
0.669583412810393, 0.662889819090837, -0.032445208358700614
0.6880815828427403, 0.6628422433957037, 0.0308937051502719
0.7033586275793944, 0.6628352765953425, -0.1511940164861139
0.6498812284473707, 0.6630311124270944, -0.16793776350665204
0.6261298334287086, 0.6631307360807095, -0.1090437572245826
0.6989399730727393, 0.6628226657617082, -0.05672908837389316
0.573345867563513, 0.663754470403039, -0.08075999206585072
0.5701597340254736, 0.6639723533615922, -0.04178673387238583
0.5834005273232851, 0.6648100989913122, 0.09204917576501126
0.5098498513241811, 0.6655214733049981, -0.008554605214202019
0.5862172535130005, 0.6636328224873467, -0.05407991546616866
0.6401952716154728, 0.6629979104809667, -0.21601733797893133
0.5913834955967103, 0.6630549378877842, -0.2719917139883264
0.5858533503647964, 0.6631883908268595, -0.1857551310791985
0.5088452041989129, 0.6632308049352177, -0.16599191897837337
0.5265679905495121, 0.6629738956660425, -0.2635334366230808
0.6032355985353899, 0.663071066026274, -0.23307260183768572
0.66946154101501, 0.6644034634615779, -0.6240416755640996
0.7378617931383609, 0.6653240589486035, -0.6580097435632807
0.6395903126540161, 0.663968077300354, -0.6068358010326529
0.7312768789962173, 0.6642088238073134, -0.5363553993766743
0.669056264078322, 0.663821568103857, -0.5195813677940175
0.7575112475952154, 0.6638914926201868, -0.5517726573225336
0.7403583998979273, 0.6633029525755042, -0.44160363302337774
0.7600791840798509, 0.6630201406025102, -0.46673702624254304
0.7130481855053141, 0.6629405053861138, -0.3621921084114172
0.7649710105854577, 0.662343265355851, -0.37806523463014274
0.7288763509371191, 0.6627232681527626, -0.26520974204645187
0.6884932704747292, 0.6632716234412993, -0.40027183895986157
0.7134739491662181, 0.6635809906224774, -0.46642273214599184
0.6232439513914679, 0.66338939959032, -0.4301491763081391
0.66813110109275, 0.6630089517791649, -0.2869357980789691
0.6454534845198452, 0.6634333342891134, -0.41484353256379347
0.512898167842859, 0.6629616203809544, -0.37920208013087847
0.5589305987189103, 0.6631391681277048, -0.4237537776739372
0.5259360786896687, 0.6630071891469953, -0.43496328611636476
0.6508010384182012, 0.6639117300411812, -0.5678486439000924
0.6034922438796708, 0.6635928823272234, -0.5993478384580748
0.5999186440823896, 0.6634228916455933, -0.5106406980409877
0.5163762724921311, 0.6629639989503648, -0.5057789258804235
0.9824496246666647, 0.6233933532794355, 0.8152354996853589
0.9703804092374542, 0.6385149387592024, 0.7707321572171437
0.8743943781338989, 0.6570514401024874, 0.9153473605765297
0.9344777163720056, 0.6523879800462877, 0.732720833152491
0.9261724544387879, 0.654528182332298, 0.8578740211400022
0.8701448747248457, 0.6589310478371839, 0.8386709655430998
0.8862774714630889, 0.6577257735032966, 0.7961622216625921
0.8750221257129771, 0.6587722794497846, 0.6590840216504574
0.9740737877990502, 0.6288241147699125, 1.0071497064722097
0.9015093762573604, 0.6312481055305047, 1.0489015210682686
0.9275635707584704, 0.6472341908593165, 0.9934014006038729
0.877624651322945, 0.6547448170880866, 0.9531822054811556
0.7833227682238104, 0.6509039270537524, 1.01041819221141
0.8368027716562145, 0.6246906573320526, 1.056419779639966
0.6816470645697299, 0.640514544561548, 1.0406180370411309
0.6835715900375706, 0.6329453004230008, 1.0508139661103828
0.7038183709247541, 0.6512212095791703, 1.0118218703264863
0.5590194286882001, 0.6495014459892456, 1.0173457432277595
0.5927311558907442, 0.6515680659165197, 1.0105112230973878
0.8003856483548581, 0.661833953273083, 0.8442430322291448
0.7825538593796524, 0.6622756334503678, 0.6741525009506977
0.9201756693567984, 0.6551414071292043, 0.6986445331617646
0.7885539632912977, 0.6623847153960896, 0.7445450245848058
0.7616345269523849, 0.6630046120466585, 0.7909336271089875
0.7685878562979263, 0.6587986194718944, 0.9432794787350841
0.7982230128661033, 0.6615549386375803, 0.8688406231661819
0.7437352541750057, 0.6609337841321183, 0.9133906360095272
0.9212745513856253, 0.6514712776426681, 0.956772939229652
0.7103704117760784, 0.661503106691993, 0.914330321833284
0.8374520201484801, 0.6542797513201319, 0.9833958967690399
0.7057997645387672, 0.6554708844657551, 0.9848196450459752
0.5955320244035002, 0.6608059216624746, 0.9348526499211551
0.6572230791047311, 0.6598317849170301, 0.9436430853451687
0.5198303998593725, 0.663786038903124, 0.9241738321171444
0.841583860628293, 0.6612708685814963, 0.6968177438472904
0.8439207313648891, 0.6610145213896328, 0.7869825770640726
0.7131846598252132, 0.6634975825195565, 0.7138343018807161
0.6145611313597796, 0.6641193526717072, 0.7359661850269106
0.722409905156696, 0.663832874744664, 0.7961555347183198
0.7887498848555341, 0.6618464613458493, 0.8641962882429105
0.802910717915716, 0.6602247969999502, 0.905197258268184
0.6921860838235773, 0.6641788400284203, 0.8057161222232965
0.625503218502911, 0.6651030501105731, 0.8378164457914224
0.6533874351221481, 0.664386452064591, 0.8636531560888724
0.5144536208374489, 0.6668824568049359, 0.8576554771959858
0.661341806453114, 0.6639489467917945, 0.7234744837822202
0.6165772889489045, 0.663606248694897, 0.6715811663276884
0.5815065496904466, 0.6646587315316212, 0.7744756148183864
0.5957587314260563, 0.6634186057341982, 0.6264499107921213
0.5224091878072743, 0.6655814644970882, 0.7977824535642658
0.9628238345202095, 0.5763466234123257, 1.0659619238048093
0.8700181106320657, 0.43733371217883554, 1.0828079106819126
0.8539595950456493, 0.47594740507946265, 1.0836256444612578
0.9588279710779511, 0.4530697483719199, 1.0758316579225091
0.9315472328581631, 0.5479619464856501, 1.0764180861391004
0.9483136046594994, 0.5989172619694821, 1.0639352224688376
0.7926478660430991, 0.40668652497390567, 1.0805907249691735
0.8192017603530765, 0.3805245016893188, 1.0752383663677705
0.7184765445974014, 0.39733108600248335, 1.0768641413574578
0.5581677506343881, 0.4132844714938453, 1.0791595345329827
0.5623844088486422, 0.5111459461666437, 1.080489059242662
0.7884676632253063, 0.43860087862712416, 1.0826590949849506
0.7405413182556692, 0.4923190458239457, 1.0810119552589852
0.6978720606482164, 0.4333479602694372, 1.0803877343714252
0.6180071581370797, 0.5117717842902634, 1.0807835146290456
0.6831905391824546, 0.5456354032525408, 1.0777665691603109
0.6207339366686919, 0.5543321175824548, 1.0766811955273732
0.5699897811166288, 0.5617974955626905, 1.075564883391603
0.5133349325507792, 0.583673418787565, 1.071867952781104
0.6078031838249587, 0.6036074197376554, 1.0665516491946658
0.5949250483114374, 0.5464156826385619, 1.077493835197442
0.874741835943996, 0.5174524589925265, 1.081165922825077
0.7560340005956049, 0.4535690675202562, 1.0819824914363607
0.6977046672264604, 0.47672671298810065, 1.0811992622408837
0.7375968540918201, 0.5645980991772466, 1.0754871778670358
0.7788147586506369, 0.5342867516482008, 1.0791115751898916
0.7105112216904379, 0.5894300898426291, 1.070629787327348
0.7335462437719098, 0.5314006589687088, 1.0793850921802148
0.9837590903562128, 0.3655399030715273, 1.047048127285442
0.9283459130980478, 0.3138769139203019, 1.0306453604712393
0.918744079313081, 0.30877972576604507, 1.0189367558572862
0.9919498688112296, 0.34837398847201384, 0.9679536799251749
0.9912731607810545, 0.34614654900427383, 0.8800617333101252
0.99142459156917, 0.3544288153930545, 0.7454142277688737
0.9618915279790111, 0.30961879670295167, 0.7560377852659033
0.9394048621049891, 0.3020318462095285, 0.6407396510544002
0.9516600924218722, 0.3054237667158185, 0.7403400205502971
0.9109339358576596, 0.297337374412069, 0.709525536751838
0.8964348817632288, 0.2961616269362676, 0.751480696373209
0.9065456995551003, 0.2972774526871192, 0.8220939586488106
0.9471697913965679, 0.3045315564572858, 0.9176189256518164
0.8969971708942717, 0.2973420293360972, 0.8898925299640024
0.8329430778583004, 0.29360235140986607, 0.8981358614562884
0.7884864594845614, 0.2951832966525206, 0.9476715004514431
0.7784598232491353, 0.2919957071248792, 0.749167300539241
0.736666461174504, 0.29188476889929277, 0.7447836562804376
0.8833489505224987, 0.29505173674645024, 0.7276298817154451
0.8120738805157123, 0.29294331234313986, 0.8719640639081196
0.8511329677039168, 0.29293745479438366, 0.8454758690330154
0.7466668737418356, 0.2919140439151568, 0.8049098608009785
0.815055368661333, 0.2922290982728974, 0.8146390183033411
0.7317609388451869, 0.2919588074603009, 0.8155771440717181
0.781820272474171, 0.29202910210305094, 0.7926329912422625
0.7130248789195491, 0.29262670275431363, 0.7551670913580059
0.8299538373802953, 0.2920870539993844, 0.6630430000112066
0.6738859177199642, 0.2940163671214672, 0.6891474669827572
0.6221776801548408, 0.2952730454499838, 0.6199280455737473
0.681985904235638, 0.2937120304021922, 0.6758183128697206
0.7212344004576065, 0.2923338569552264, 0.7019073372915108
0.5874299654137669, 0.2948218568148457, 0.6420795018366727
0.588093769989497, 0.294715505647642, 0.7597062933489018
0.5965292343776951, 0.29487874719930524, 0.7453447890940916
0.6624991542576564, 0.29324581187058746, 0.8454622176523328
0.5605150184890164, 0.29404963543153206, 0.8103668818731857
0.5366037640604815, 0.2940610074789202, 0.8067119346812673
0.691282127290956, 0.293674608025693, 0.9312290415100511
0.7668603192172514, 0.2935264602816273, 0.9227049180758631
0.709838157034734, 0.29273612369733465, 0.9022226220907739
0.5721589623552444, 0.2941781409527592, 0.8871156804692424
0.5655382844778616, 0.2960713346971948, 0.9579386278924382
0.593482548471393, 0.2943282145921799, 0.9232999991968932
0.7771880265023874, 0.32345276892578856, 1.0539963520821125
0.8225870556301305, 0.30115182530574813, 1.0026744521135758
0.7620821730107928, 0.2985100558245969, 0.9883289341533211
0.7962149244503312, 0.29617831275686, 0.9627413795360467
0.7419412672614853, 0.3093738327667895, 1.0327291663414682
0.6301471120859605, 0.2973888828090546, 0.9829321686958135
0.5704445524215254, 0.2995187559602053, 0.9957910758194494
0.6557476254830649, 0.29807346735675255, 0.9874396845398676
0.7122880401030158, 0.3404604254521969, 1.0640810308534407
0.7228899586011005, 0.31769268630774766, 1.0475474724261213
0.5842978587876434, 0.30773834471417616, 1.02856875201995
0.567864291425338, 0.3246742514078925, 1.0548931108190482
-0.7259869160776888, 0.5734420880838763, 1.0805552752921814
-0.5572655313099203, 0.5618351741632522, 1.0777327631566842
-0.5969942305049837, 0.5821331403281923, 1.074505677977984
-0.6853258803400563, 0.5865474984083074, 1.0755248788406513
-0.5621360390818787, 0.3778935758644537, 1.0748845448468558
-0.6077880583758681, 0.43428770789507176, 1.0815719753380293
-0.6611005143736381, 0.4841764452829777, 1.0832859131968442
-0.6685790403403797, 0.5115451473816892, 1.0823404968511552
-0.5153135806146606, 0.48243048662647664, 1.0837531669552842
-0.6220174765746865, 0.45498958028760883, 1.0832405455785206
-0.5796074764644681, 0.5654811416478447, 1.077502718939309
-0.7168485361042876, 0.3656567051617295, 1.0720447852907367
-0.7745486930914649, 0.3676273642316702, 1.0722476918665205
-0.7862439351634689, 0.44882257120113456, 1.0816479029332458
-0.7378074537334417, 0.4873253234344712, 1.0813902695918447
-0.7404150474850564, 0.4936204384598158, 1.0815612503616177
-0.85905966914814, 0.5344076868087826, 1.0823654198474286
-0.7726759576668574, 0.4977791525051839, 1.0829331223202776
-0.8480572969793774, 0.4312207739006616, 1.079875831973478
-0.9029021820970916, 0.5740795217422381, 1.0742247972991859
-0.9680539581268407, 0.5909470030493997, 1.0608444913102493
-0.9177575288022057, 0.4473257639266822, 1.079872668261877
-0.9504660435333093, 0.5227023325934985, 1.076697506924783
-0.9087794371075254, 0.5035330059354342, 1.0807760106372175
-0.9758627541684721, 0.3837679010355435, 1.0618063757375007
-0.9869795085711633, 0.619510010013955, 0.7320627208537303
-0.9677831653198095, 0.6442895023413369, 0.7111247872007633
-0.9552682315329903, 0.6482922627227131, 0.81184065413733
-0.9637371657999063, 0.6439090029594994, 0.9197557134766023
-0.9824920820721719, 0.6280219688174992, 0.9061559844658682
-0.9288518914242149, 0.6553995146609167, 0.7356945422824526
-0.8162765475368429, 0.6695841246097405, 0.719129832121351
-0.7336366923125801, 0.6818951045478082, 0.7466895583530804
-0.7812370610151899, 0.6692170511202404, 0.8764942627145126
-0.9086055810347975, 0.6600987182563194, 0.8202786025674322
-0.8602637784114275, 0.6665636891275672, 0.832303429645429
-0.844290325180861, 0.6647921833675202, 0.8842999073348222
-0.7468151103192251, 0.678434351123902, 0.7942706444821187
-0.6362097237419089, 0.6894928242643721, 0.6912798472307997
-0.5110211971899052, 0.6755593301855546, 0.7735527191326474
-0.560356059250001, 0.678801759978443, 0.7787036004660459
-0.5808174926863354, 0.6804420402471215, 0.7758848134205883
-0.7289604750967482, 0.6748164180806313, 0.8406222819005748
-0.6283942442818018, 0.6855873691854141, 0.7598389466308803
-0.6564076978990149, 0.6754392638937867, 0.8350132147310533
-0.63545435866239, 0.6705434794347893, 0.8561634755350638
-0.661518213829003, 0.6717353679866889, 0.8588984260737116
-0.5543218394330796, 0.6641063576179159, 0.9621332629982564
-0.6059749078178351, 0.6623291310508219, 0.9076965912126052
-0.8716461831087806, 0.6636686138209658, 0.8696393796260959
-0.8087192734257969, 0.668690076201813, 0.8672362813525338
-0.6990814537702368, 0.6737134691285915, 0.8523191692040126
-0.7263464867377223, 0.6686369007623079, 0.8915237229456312
-0.9282554739938049, 0.6520053260043991, 0.9550673303025832
-0.7892132850189797, 0.662101288400444, 0.9408117321241144
-0.8085594360298836, 0.6613266005494591, 0.946246629389712
-0.8259524303431303, 0.6427587876289658, 1.0371030265642396
-0.6832158259320098, 0.6575899634471127, 0.9957468504942978
-0.6085880240795257, 0.6598527928948311, 0.9780786536563941
-0.5662216599426483, 0.6615589711499041, 0.991859760856329
-0.6798632522540932, 0.6512689072710524, 1.0316682551846583
-0.6433812043363576, 0.6583776146036018, 0.9874976731367312
-0.5223039899890821, 0.6437167908517436, 1.0452016662383612
-0.6370170316520336, 0.6403437956903966, 1.0501687192494844
-0.6179677494785814, 0.599780629753949, 1.0702306666446686
-0.8671566435084833, 0.6313702526749548, 1.0532396844853813
-0.7091347865960854, 0.6298208454513383, 1.06635595020566
-0.7770385314072611, 0.5896072438854234, 1.0809681621277425
-0.9716402301296957, 0.6357750978022446, 0.9883968402484686
-0.9013893247490106, 0.6507023361060883, 1.0084548232381785
-0.9053099694218937, 0.6466729730027416, 1.0208347247784288
-0.8970515624801554, 0.6427873012736609, 1.0323178257414016
-0.8403041694362078, 0.6119410383938704, 1.07057043506491
-0.9465816243081419, 0.634782772533583, 1.0395092509432993
-0.9751220528164928, 0.6404572443708884, -0.4022468774200692
-0.969209085519785, 0.6430363728652692, -0.48888604325429863
-0.9655541713694111, 0.644956259127413, -0.4911576206261139
-0.9165720585995798, 0.657717156382481, -0.3156465719252954
-0.9489239119810126, 0.6519478620372908, -0.13875668584708542
-0.9479277059227074, 0.6519382982907393, -0.03943344924480985
-0.9786866980672051, 0.6357305801787939, -0.3006810738444257
-0.9701454756406851, 0.6437860235922117, -0.22588182971059081
-0.9871820396817783, 0.6198549890937985, -0.16783774526493447
-0.986753467647256, 0.6203169767026009, -0.08148451286620492
-0.7871989845292676, 0.6638509643780646, -0.34916224595662443
-0.8082189484701905, 0.6634743650902606, -0.450858380018447
-0.8446293151698454, 0.6619940431115408, -0.4745302865438499
-0.9335790746689272, 0.6534409045500231, -0.5515376554254394
-0.8659627837982775, 0.6616965012891085, -0.579772693419633
-0.8438931980801903, 0.662474763952333, -0.3688161576112353
-0.8948610899546783, 0.6598096926636202, -0.4840262856382742
-0.5383184964266507, 0.6643327974758566, -0.5682002961814058
-0.5697202353757675, 0.6651639192068841, -0.4287888528792191
-0.733337818085976, 0.6636594193109843, -0.4247795762407199
-0.6691049678908956, 0.6639383488804298, -0.46112013654332007
-0.5661376086661886, 0.6650594898661601, -0.4599220577886501
-0.5709636461930085, 0.6642095730544505, -0.583283958251262
-0.5751825611685619, 0.665322505896777, -0.3825311946564181
-0.7162219527096483, 0.6644674314727272, -0.36388212826262945
-0.6157562069221645, 0.6654116806326076, -0.37205522149342624
-0.6196570708921759, 0.6642956232720857, -0.5017841548541333
-0.6704835210499014, 0.6657551410528731, -0.22615545475027315
-0.6896398597773011, 0.6654711031778777, -0.296025644208719
-0.6230455442712486, 0.6657495890266354, -0.3441961159428736
-0.5910262636076529, 0.6650712581800552, -0.2595415233774201
-0.5923791178432766, 0.6654914949427072, -0.3700873907719317
-0.5800568206774707, 0.6656690457791168, -0.31779928707804805
-0.5554492376352632, 0.6642030674376458, -0.21796557304890427
-0.522787040323618, 0.6637180686342393, -0.213977750570485
-0.5303767072824188, 0.6645190571180781, -0.13276569319003415
-0.5032414531193861, 0.6683314998672405, -0.07133885534536365
-0.6098833193898578, 0.6652268059247366, -0.08487682108779196
-0.6011573566348117, 0.6648947504788911, -0.22342115312070945
-0.6057013997227647, 0.6649388694854678, -0.11594777616814207
-0.5893796361114287, 0.6660457145055909, -0.05840300420452661
-0.612375723790666, 0.6656226683906594, -0.060548506425294656
-0.6651156602752277, 0.6675307357572129, 0.007028822130938974
-0.9102030878589049, 0.6594386633507758, -0.2861584157688721
-0.898116233962739, 0.6618789511189979, -0.4172001735176197
-0.8762349999874182, 0.6623573651943397, -0.26002923556789415
-0.8122901426896939, 0.6634348621945848, -0.35825710406574407
-0.7066320808941293, 0.6639700222064473, -0.40469240201153545
-0.7519049815822061, 0.664648928868462, -0.3278072336932085
-0.7294605471331904, 0.6637499368813524, -0.4097709068961839
-0.7396984909293364, 0.6657248047371427, -0.2085226609784361
-0.7954919239851335, 0.6643954342034358, -0.2976272815381025
-0.8377336751088708, 0.6637562104873796, -0.16839791351883335
-0.6965393207065951, 0.6657074997115141, -0.21708033848819425
-0.7404356112472879, 0.6658401081121798, -0.22917604312328685
-0.75262734083774, 0.6659356966867758, 0.004812418782292163
-0.7534491765173503, 0.6648722499596744, -0.13472244008998818
-0.7798709254608583, 0.6652320329821586, -0.0024270568321821794
-0.7733798835279306, 0.6647263390939003, -0.13734848348515633
-0.8084394229477063, 0.6648457043935923, -0.22824790807965262
-0.8539930234135605, 0.6622358915003159, -0.11945008942805484
-0.8745384785905655, 0.6621231271638454, -0.21779548795041223
-0.9145051162308082, 0.6581513632500977, -0.13457120714927903
-0.8870009920699933, 0.6602737404504916, -0.07299879126280483
-0.8778629013359687, 0.6613476495773691, 0.014205729006495308
-0.7909937152735427, 0.6637590660331596, -0.06124188648074069
-0.786017176366618, 0.667928277534277, 0.11319792478511857
-0.7290524676963228, 0.6642614259164276, -0.07047698691370216
-0.851245165855105, 0.6649627106516152, 0.16563698735793794
-0.8936357152871099, 0.6610748423835247, 0.054203885485506614
-0.7713427107043758, 0.6666834369713418, 0.19268167427240235
-0.7545768434248802, 0.6677741080083863, 0.14537678161865614
-0.8148543924094479, 0.6661508837484704, 0.21929153310139776
-0.7481103842965485, 0.6674638463319368, 0.2986710531183763
-0.783589998572814, 0.6663495602039763, 0.2393947675606009
-0.842460091026596, 0.6642620262910075, 0.250192352111688
-0.8247535912344799, 0.6641795046228903, 0.3118370193277134
-0.7052810918650445, 0.667431047995013, 0.030510326138808674
-0.6875508047558544, 0.6654469542086743, -0.04203365690715565
-0.7363042555502853, 0.6669955235746157, 0.18168606932092468
-0.6746581166766674, 0.6681769929999224, 0.11252873646820134
-0.6366560098347935, 0.6680241571247892, 0.03210813444944063
-0.6385237580849321, 0.6681515473651641, 0.09655236856284155
-0.58492389881065, 0.6672156819813715, -0.009278474627711392
-0.5827608301090351, 0.6686792478578203, 0.09087432169258469
-0.5265846105791163, 0.6704735556498991, 0.13386056391156873
-0.5629609150583925, 0.6706588961660198, 0.153819364908253
-0.5980469528884579, 0.6680948497147061, 0.04332070768133668
-0.5960294547300033, 0.6698761559672651, 0.15287944791669378
-0.5674090198780296, 0.6697960617519779, 0.33016805325300685
-0.6746036538644676, 0.6704830468093633, 0.2718343786002479
-0.6969592195482863, 0.6674272630123181, 0.15869027316739012
-0.6375326953551262, 0.6682924786221607, 0.12201153697004258
-0.6606080280452821, 0.668904847546933, 0.2099005524668301
-0.5766320707380288, 0.6718707346748214, 0.2239019779117974
-0.7137839544036699, 0.6687039825122494, 0.2704050193662655
-0.6959601667359543, 0.6696984802391223, 0.3223723759267506
-0.7050167990345408, 0.6701407251126346, 0.3778869318364582
-0.6298362390919044, 0.6700656213577073, 0.41463748142870616
-0.6174803786967346, 0.6704159697675058, 0.41382532516689985
-0.5846855237653117, 0.6702286813357188, 0.31212097300325303
-0.5598999018574206, 0.6724597079582965, 0.4039926965711607
-0.5080442824836453, 0.6784483404436699, 0.4154739410207795
-0.6114089267761272, 0.6761049175138933, 0.5212488153364965
-0.5567477677141455, 0.6802810365683696, 0.4954514353963886
-0.6057039786783172, 0.6733800645202948, 0.4754905887343654
-0.5242495735014832, 0.6930455200846146, 0.6422559109775163
-0.5767404647832322, 0.6906230623999038, 0.6152970504970645
-0.6207187604227759, 0.6800953313068534, 0.5689372926118513
-0.664976340997628, 0.6771658513418262, 0.5909726559852535
-0.6421870007727123, 0.6820932497672325, 0.6052123897488966
-0.5548173092180164, 0.6929268430131829, 0.6191463815011456
-0.6326584554759263, 0.6856408126089526, 0.6318709410455816
-0.8201245646922715, 0.6649245059928373, 0.3250724544297279
-0.7813488184214912, 0.668718291073391, 0.4284571221665253
-0.7203851411323697, 0.669969255020496, 0.3764741335606571
-0.7409002163154331, 0.6695393192167067, 0.5293325739417688
-0.8346174373440316, 0.6667355441349571, 0.4969509910820797
-0.8560323896590534, 0.6645024384450472, 0.44729286037366633
-0.7526480192566548, 0.6696212473897898, 0.38505216210154003
-0.7621854680538908, 0.6695019621239727, 0.5241313647673961
-0.7061396432440068, 0.6694187579897973, 0.5310188011755501
-0.7410050825946988, 0.6746534429986815, 0.662705103618449
-0.6828776294197237, 0.6784428144724648, 0.622389384140063
-0.7331075978947414, 0.6789521876507179, 0.6942401386883637
-0.7934189709561033, 0.6680588256681439, 0.6574182398207895
-0.8144392660492769, 0.6681136299514593, 0.49782234005517795
-0.8431045959424486, 0.6672111457992519, 0.7372182606836686
-0.819889861469158, 0.6660475561668968, 0.6191472891873343
-0.8186545216557051, 0.6679833009928839, 0.5670275344792975
-0.9755335164730734, 0.6380521044939028, 0.0068897250136220785
-0.9792705948322838, 0.6350192350126491, 0.28848539553853936
-0.969734853647227, 0.642472234663727, 0.061415812276477105
-0.8282637315825248, 0.6653187637053666, 0.06200797577968427
-0.8518038841395449, 0.6618813768122639, -0.058813049680916385
-0.9282431584810611, 0.6554283218619295, -0.03386144593087306
-0.937886763858056, 0.6544147801470515, 0.06833331278234075
-0.8559845175026806, 0.664558138578567, 0.12249198646220696
-0.9298918873410231, 0.6568799776054073, 0.19839474253812495
-0.851912503235368, 0.6642440334171108, 0.23223351272915366
-0.9114441188141307, 0.6589006931571643, 0.3317837671242308
-0.9528101358855445, 0.6513682361371773, 0.26294311430292494
-0.913673571466151, 0.6598954038145474, 0.2197017970739514
-0.8683647849889564, 0.6620260774376967, 0.30702448100998236
-0.821789018770216, 0.6670129221883621, 0.43701147748684005
-0.9356011736783827, 0.654758730741984, 0.33611453811920533
-0.9216140041447956, 0.6578514285522069, 0.47392920339335864
-0.89231282305333, 0.6622158087171328, 0.47657479647397877
-0.9131459403045593, 0.6607671607486503, 0.5775403979909903
-0.8640736384019281, 0.6660908402924219, 0.5787851918036262
-0.9278555320989254, 0.6570615089299984, 0.6734310606656302
-0.9477259342838975, 0.6519174225472805, 0.7290863406769235
-0.9369733969498175, 0.6566910687094187, 0.5976489346280092
-0.9801240908758335, 0.6327256774656325, 0.36945986044033097
-0.9742731568856514, 0.6391770533640926, 0.47942733551369454
-0.9837892721090225, 0.6287225619975132, 0.6027707949946571
-0.9813495152683339, 0.6315019669542387, 0.5765438492715422
-0.9689511873718311, 0.6138466317675733, -1.0142171496413561
-0.5053051276068579, 0.6147427865814731, -1.0316648333048588
-0.6527414356284175, 0.6338564501653543, -1.0195178182420628
-0.6445388868817972, 0.6404642426691511, -1.0113150988281367
-0.6893600784618729, 0.6353965209171024, -1.0184351884510923
-0.8698387889799907, 0.641970619196275, -1.0070970429165464
-0.7841669464369184, 0.6579274178073907, -0.9341372631864281
-0.7330400222395512, 0.6566840568511116, -0.9629951289549423
-0.7802921678459049, 0.660572306638751, -0.8747659497302693
-0.7156007701881064, 0.6575154370720476, -0.9556524738323178
-0.5853114150825953, 0.6493440466052517, -0.989206900359895
-0.562197749580908, 0.6573547058654454, -0.9460105616279633
-0.5254687415485304, 0.6573048938015219, -0.9439823672515051
-0.6620424451033187, 0.6603242328391563, -0.9287238157170767
-0.599838075798472, 0.6602623167115395, -0.9268009882888781
-0.659603766108882, 0.6619730942642705, -0.8765754207650513
-0.5483966196406135, 0.6620447894267047, -0.88965837181799
-0.543782684590707, 0.6627859173415906, -0.8100054119760232
-0.49881540581205563, 0.6628823030555104, -0.7005769974031768
-0.5452178120342162, 0.6628005279808374, -0.7822612242124385
-0.554252672886093, 0.6639926888357167, -0.6027481707705952
-0.6008484114278391, 0.6625491420665897, -0.7929209191805056
-0.6498680115872906, 0.6621671677699449, -0.8358047325450528
-0.694452748941657, 0.6625650382451242, -0.8055742112558518
-0.5770465011574976, 0.663743350448613, -0.6773349332502208
-0.6522684388299108, 0.6648869870680929, -0.602261547172094
-0.6260938860650709, 0.6644623838149011, -0.7134357375470184
-0.626260327647653, 0.6646847532683138, -0.6779405312027581
-0.6850864620792799, 0.6653745714195913, -0.602525230714174
-0.6906815510670583, 0.6655283525364042, -0.7223740005236702
-0.8296375533475555, 0.6638553704117713, -0.8119257837270918
-0.744397813017682, 0.6615277448412336, -0.8549612283477739
-0.7201206163285787, 0.6623722035451203, -0.8204672817252259
-0.8142833753173225, 0.6664963935241764, -0.7120021142089944
-0.6810464794303247, 0.6643546559223134, -0.7487957419246265
-0.7165477708270904, 0.6644600426354472, -0.7591056132135605
-0.7276939978356292, 0.665993581007547, -0.6140104696268236
-0.7292432464421971, 0.6649602049122063, -0.5556294801126075
-0.738636894410633, 0.6645975671918306, -0.7608247286892694
-0.8073055197828787, 0.665342691253805, -0.5896391192716769
-0.8461192751785922, 0.6650324996344549, -0.7400338684710039
-0.8082660740320737, 0.6652698952279421, -0.7738075079252571
-0.8166949215786383, 0.6663661496454155, -0.6714326346914117
-0.7799805941920754, 0.6650617333704025, -0.5661369481317384
-0.8605907363035081, 0.6626024808434128, -0.60067471099879
-0.9789252073516552, 0.6291080320065979, -0.9460009777349887
-0.8460820503554217, 0.653753928153687, -0.9619808327372057
-0.8385054471065673, 0.6583817988661922, -0.9015499074072058
-0.9149925455829386, 0.6564379111386448, -0.874035566076094
-0.9063491445157573, 0.6606179697678976, -0.8291280195739517
-0.9149694186744688, 0.6607772593642934, -0.8022927736218674
-0.8359829988719774, 0.6649393848537508, -0.6220744613771911
-0.8818950079095438, 0.6634458164155816, -0.7941347001608947
-0.9466786317963088, 0.6560047190259012, -0.7035158231375681
-0.9176977469044766, 0.6606775369356418, -0.74720048139797
-0.9169046701074377, 0.6593874423144417, -0.6613743574642049
-0.9621965325884652, 0.6463768808079636, -0.6255017967453071
-0.9696778423506224, 0.6464939722746083, -0.7104982996703966
-0.9658629586600302, 0.648161215018223, -0.7008090919048471
-0.9824857667114523, 0.6301332804872724, -0.6306706812558904
-0.9887372882971946, 0.6159883127415888, -0.5165513005428684
-0.794731977651461, 0.3963828461334483, -1.0459665850595503
-0.7691497112351731, 0.5075559986293644, -1.0508025774437528
-0.8545327366014931, 0.4831239070330597, -1.0483213799718627
-0.8961836713417903, 0.43905729478736566, -1.046923725026665
-0.7126138162928135, 0.39451305389705893, -1.0448841211585354
-0.6604759794186562, 0.37047239300512025, -1.039836591129963
-0.5670584398852304, 0.47424281615973496, -1.0485381738124548
-0.6777340776340863, 0.48086125593142054, -1.0487275857711464
-0.6278113858478809, 0.47961932144188857, -1.0484970028081833
-0.6873493203282687, 0.5761954212287834, -1.0420463942796174
-0.5854817782270126, 0.4842607878015435, -1.0484234856154577
-0.5046879793263181, 0.45481944617146725, -1.0487609872815316
-0.5888211912735833, 0.6298066171403734, -1.0222343188302276
-0.6883216289259735, 0.612323199848283, -1.0327899529066333
-0.6245556464728401, 0.6048428357204466, -1.0344433070125514
-0.8095576222432908, 0.48796607369826034, -1.0492499847566035
-0.7746819611054889, 0.5592633786046162, -1.0449075369017313
-0.6981100939570222, 0.47433877071882413, -1.048989447408891
-0.7840701845484275, 0.5910228040313068, -1.0388023249256513
-0.7051101911499287, 0.5560305940835809, -1.0445040123373976
-0.8188579110459666, 0.5840192015593902, -1.0401177546238234
-0.8526718210468864, 0.4306020123009276, -1.046812911687772
-0.9680228482996213, 0.4065104005322059, -1.036948075834764
-0.9537793872351609, 0.4932845578033922, -1.0452234053233782
-0.9482121957115955, 0.570709414740131, -1.0394928092275808
-0.8666305892974254, 0.5500860921322702, -1.0447868398047417
-0.9495588647531419, 0.5631601467000618, -1.0402753567436203
-0.9856219873102027, 0.5148525355167262, -1.0319828982819872
-0.9857468765812369, 0.4299834262340455, -1.031446396837317
-0.9842919643924244, 0.32971399312511307, -0.7743162455006258
-0.9805662715537398, 0.32465884407060863, -0.7190361278888651
-0.9422687186344485, 0.30331043213219333, -0.6484291301859395
-0.9601381240557557, 0.30788260744644536, -0.8400114844876188
-0.9463154007650185, 0.30363321002945004, -0.8118627403204131
-0.9845730278953722, 0.32580825653977563, -0.8615090784908596
-0.982885232043641, 0.3298668242194186, -0.937140816950764
-0.8641447684681158, 0.29466881668411626, -0.6099573795742993
-0.9125564265308115, 0.2990878414063749, -0.7758258725619671
-0.8461542249203374, 0.2953781655171082, -0.7709146338710474
-0.7691777695157315, 0.29301754648560796, -0.7744081601731555
-0.743659849129582, 0.2925078691193489, -0.6007454353511616
-0.7564647299201033, 0.2934170273624087, -0.7038080854196194
-0.8998356632078156, 0.2979913548759151, -0.7354724902069729
-0.8038723302899295, 0.29418598591013423, -0.747174475785164
-0.6930983219458929, 0.2923392862497423, -0.6412155825214536
-0.7201498904051977, 0.29152293130137336, -0.7966173893181011
-0.6868264613739239, 0.2915842721482553, -0.7660274821035022
-0.5351064015008891, 0.2909551225849143, -0.6252146373904779
-0.5011632190143143, 0.2905508328592326, -0.7450511406154722
-0.6322036902189079, 0.2911762282706606, -0.7488337445547774
-0.5630751380952426, 0.29084208505619336, -0.7598991745488779
-0.5913099793700367, 0.2909464267337345, -0.7654557915817432
-0.6600634827323185, 0.29108776480293075, -0.7751417162371517
-0.6966650465833979, 0.2919530197098746, -0.7514233383594745
-0.7016570841175478, 0.29121754593377785, -0.7976871266804284
-0.6497355957798445, 0.2913813466917463, -0.8493513657864651
-0.5259886432436222, 0.29094980804395465, -0.8098840690899847
-0.5816258739248563, 0.29806923069052876, -0.9486676660099175
-0.6392130617493427, 0.30030446568177704, -0.9671347178275185
-0.6648441100940039, 0.3002635200277063, -0.9655190308527355
-0.8755632738041529, 0.29676425562365877, -0.8313522467005633
-0.8590987810360822, 0.29590722399743913, -0.9103397824653985
-0.7854574631795553, 0.29283621052151365, -0.8173581282302965
-0.7710621841139245, 0.2934258126135839, -0.8985525566873888
-0.7197999742972716, 0.2981196251267847, -0.9473373848979335
-0.8461034644614782, 0.2945474720641627, -0.861416224941747
-0.8509046865168786, 0.3008542324737681, -0.9633849511533783
-0.8571829324164388, 0.30539942145028115, -0.9850875195398715
-0.7946193716693748, 0.3016800785033771, -0.9743219980577735
-0.6979034397948027, 0.30707252512289274, -0.9938329636454915
-0.6067998290241814, 0.2979399842605742, -0.9461198698205499
-0.5488631235829949, 0.3030452681205271, -0.9831928670274549
-0.6654116298539754, 0.3129711176631622, -1.0086461909496753
-0.5167993010865524, 0.3252438253699158, -1.023915471050813
-0.610918072387874, 0.3365221331718065, -1.030683923106904
-0.6637189794211615, 0.3231917344259537, -1.0220167949182668
-0.8900025290391148, 0.3334155047192054, -1.0268785934811642
-0.9507183534397918, 0.3147931861535007, -0.9902960695936792
-0.8972163194798999, 0.30152567394939916, -0.9561214966720988
-0.9339820085894854, 0.31709543006338897, -1.0054995562281843
-0.9554926026015529, 0.34218101211991814, -1.025564601112547
-0.9774135297121685, 0.3151520765013245, 0.596615752309572
-0.9847022896106608, 0.32937316429402524, 0.48418984847158186
-0.9473033306169422, 0.30072978954976104, 0.6523655509184689
-0.9506504551494078, 0.3040238514968007, 0.47313663152594065
-0.9686057212106843, 0.3124728766737153, 0.38755715250666306
-0.9400937180746715, 0.30204278683626595, 0.4209130379189659
-0.9609188812889142, 0.3096390477283564, 0.2407253596452535
-0.9308992016394659, 0.30222436965980676, 0.19031697732763367
-0.9926421432258119, 0.3464890886982977, 0.3091662568120626
-0.982361914493127, 0.3239295224797778, 0.22466052289759839
-0.957252309843294, 0.3068780233581263, 0.4659072947932363
-0.9527156476924206, 0.3063904716989036, 0.17464415065414787
-0.9832927147079463, 0.3266311518856952, 0.13350710233376356
-0.993758804733453, 0.3563302582190705, 0.12227382561981677
-0.9309154263774009, 0.29962366655283285, 0.5701284982799242
-0.8431904149169243, 0.296107517535798, 0.5627199534325015
-0.7815197491462171, 0.29796422559238667, 0.5647721139498774
-0.8052760454169043, 0.2953282555149486, 0.48364383259494936
-0.7479072380295022, 0.29860096204425324, 0.5256128330036047
-0.8170680811709169, 0.2971395879272996, 0.6179970928975871
-0.8562930354269687, 0.29554988003489335, 0.5287725512513504
-0.8928927120338739, 0.29572019118156656, 0.5277188915714407
-0.8094335765369296, 0.29529105716398374, 0.49050045395729924
-0.9332649254878694, 0.3005706975788395, 0.48350611014470846
-0.8335143643204224, 0.29369813786810317, 0.41078616340965135
-0.686926508406611, 0.3032566569797767, 0.6665756067216881
-0.6771644307203771, 0.30300288395525876, 0.5903087912220822
-0.5190324433034267, 0.30805462618506896, 0.5852077684023054
-0.569436901998545, 0.3071165286476323, 0.6036804067636596
-0.53134278986791, 0.30604636241902916, 0.5179519397970507
-0.5067424711191485, 0.30421652846216896, 0.4226695802888283
-0.5636935394139144, 0.3024974014939984, 0.41666330697418485
-0.710402377886153, 0.30186601481154995, 0.6062867952401629
-0.6210470488430591, 0.3028173233374999, 0.47928201525261294
-0.6418070676059099, 0.3042422471791964, 0.5712293284819805
-0.740634273863291, 0.29557634287886614, 0.3917427477087457
-0.7028514443104601, 0.30004087715308964, 0.504951109210676
-0.6501892988876259, 0.3020295174976979, 0.498170820558455
-0.6533856369426895, 0.2994512495172645, 0.4185739332609011
-0.6576299120439485, 0.2970023823611957, 0.33769860201873636
-0.5929331129770707, 0.3026981740737251, 0.4459126345947029
-0.5800910489399917, 0.2987524750279991, 0.3142376057081822
-0.6131396454027465, 0.2960389666117207, 0.21157051949580208
-0.5629015133594806, 0.2982856902340152, 0.27123016710586917
