0.16105880309289908, 0.2850501544623329, 0.05065149844749943
0.12215273294541173, 0.24181581409261582, 0.05052556476864391
0.1514319546296236, 0.2865816870941584, 0.050620340891054605
0.10973879489733761, 0.232699252941109, 0.0504853837753075
0.12100554017318933, 0.24350277117632219, 0.050521852247652335
0.14224957990783416, 0.2858148735212967, 0.050590621294308205
0.1207768463279094, 0.2628269317940384, 0.05052111719642676
0.10487797740853481, 0.2514600163398998, 0.0504696563847854
0.14143007730908957, 0.26608558841608354, 0.05058796367739621
0.13690990914939324, 0.2569080357986567, 0.0505733314019717
0.12170130457360469, 0.26467512388198766, 0.05052410976055973
0.20586502962282993, 0.3738204448193433, 0.05054929111842446
0.2362479906986672, 0.35595214043478196, 0.05081784466308309
0.2523972920646525, 0.36782509637630234, 0.05075977725999181
0.2516517462061036, 0.36099716769178364, 0.05082146713489252
0.20898809647191108, 0.3722684373877759, 0.050574220746886736
0.18340456645187292, 0.34104029106497513, 0.05073007296059859
0.18058285291207926, 0.3378354898064375, 0.0507205720757736
0.17635236935648455, 0.2937877049856352, 0.05070168265687545
0.21451220465476747, 0.3346083069076658, 0.050829870908786025
0.18086360042765767, 0.32812781702540333, 0.05072033054706661
0.17565428414750817, 0.3186935109027619, 0.050702374065569183
0.1811349977657069, 0.3349672851950826, 0.05072201744812008
0.18684073220938488, 0.3351518278401774, 0.05074048378487517
0.23102012886418308, 0.33403696512692693, 0.050883167188236135
0.19758474173226964, 0.31093899486362303, 0.050772349095847616
0.20078776320564704, 0.3428028677961309, 0.05078647492862269
0.18848430774643946, 0.30412148700639985, 0.050742123840485424
0.304958375760259, 0.22226765584725633, 0.05112481234811729
0.29694375418982927, 0.2175573973386772, 0.051098027826214226
0.331362762481407, 0.21944392030137266, 0.051215185251716665
0.32635841434462054, 0.2410368962434341, 0.051195611070309704
0.3056142413216441, 0.21984462914754066, 0.051127330454709484
0.2806469582111922, 0.22784723755293318, 0.051041256822762775
0.30275039626498423, 0.2425004857145324, 0.05111493240681582
0.33941929585291614, 0.24138552634547883, 0.051240111118430395
0.33213976626213987, 0.26455596676535625, 0.05121259481891463
0.34161082641707713, 0.2818466099283736, 0.05124288479353844
0.33350279094995483, 0.2686032977935885, 0.05121677290404898
0.3343440454648513, 0.2763432143623952, 0.05121874270678155
0.33883202473941376, 0.24978021669340936, 0.05123713326917194
0.3040213216179253, 0.23232344473740155, 0.0511204487077311
0.12890993388414995, 0.09901369947283663, 0.05054743017002531
0.10761474534814726, 0.14032756352349204, 0.0504785051170291
0.14834546671354393, 0.14204036942213644, 0.05061033617003611
0.1270217492334711, 0.12316170922827513, 0.05054131877885849
0.12225789829820012, 0.08274699680012844, 0.05052589986497453
0.14296930457404144, 0.11761876654373123, 0.05059293541963867
0.12349508201602374, 0.08283988207663967, 0.0505299041945522
0.142043485654054, 0.13778613731611244, 0.0505899388686564
0.14039363334507288, 0.1054265546707405, 0.05058459887565093
0.12152401572220792, 0.10246396604546973, 0.050523524544589
0.12161453441037876, 0.13012265875585555, 0.05052381752182039
0.1158982130719435, 0.08166579356764217, 0.050505315795454885
0.12042787409649622, 0.12385978730326846, 0.05051997671877305
0.13566825885793612, 0.11203061940907846, 0.05056930449652852
0.1305786634189151, 0.13261405775773774, 0.0505528312619868
0.11615206638230265, 0.1409921968480779, 0.050506137429545614
0.22818327535234068, 0.1369654939465354, 0.05086858666023767
0.18287094490417988, 0.06844201663719227, 0.050722040373222435
0.20963467547061027, 0.1403325570606355, 0.05080860393741406
0.1738955912257909, 0.054386563244095236, 0.050693012757282864
0.21886854380435508, 0.10541666198614896, 0.05083845821155772
0.19695726441656733, 0.12487429740755399, 0.05076760416065598
0.1904999556208331, 0.12856219374539085, 0.05074672290453602
0.1785181406353707, 0.06521846240560089, 0.050707963448207896
0.2028762636255721, 0.14391473913258573, 0.050786748939440296
0.202155593323774, 0.08727687096816678, 0.05078440759963761
0.19871035384453123, 0.0941941117307073, 0.05077326753570264
0.19173057595834833, 0.076839231361718, 0.050750692680655345
0.219502706462265, 0.10645485443087904, 0.05084050919560971
0.2281485935145329, 0.14424964508749827, 0.05086847589354503
0.1900307482125015, 0.13372295667925155, 0.05074520654296764
0.19601606660020696, 0.1165687694197671, 0.05076455888545177
0.19909049525742822, 0.13051234000340978, 0.05077450378156127
0.19293003541053522, 0.10948743296660567, 0.05075457777716885
0.21131535480955296, 0.20049134654345205, 0.05081402549573091
0.21818273587602652, 0.1932596821818744, 0.05083623547092699
0.24978007486164355, 0.21226798523090562, 0.050938411564703565
0.2470785893040648, 0.18278855595270133, 0.05092968307791147
0.2546658888973873, 0.17990423271189104, 0.05095422002443227
0.21642776906186323, 0.1989016042437287, 0.05083055869456961
0.25203157930585274, 0.194189501416948, 0.05094569732353013
0.24058586703560733, 0.18661766045948555, 0.050908685583507196
0.18793434858281008, 0.20433399291279555, 0.05073841381393587
0.22886451538695282, 0.1706442554487257, 0.05087078466525863
0.2546730213635177, 0.1708184694910227, 0.05095424546707175
0.18479291717691496, 0.21343714723585505, 0.05072825251286336
0.21608837031055328, 0.21448855128077732, 0.0508294570514208
0.2037421771247527, 0.21293425657674037, 0.050789531716323236
0.32079175666603166, 0.17102670168575085, 0.05117837206346748
0.29103377904787675, 0.15418492027840766, 0.05107719516715238
0.3138447441405432, 0.152425794716761, 0.05115415880123233
0.2997051406129836, 0.14939539740120417, 0.05110628541139116
0.3258264270792982, 0.1529686302515298, 0.05119464404803087
0.34320266494186136, 0.18884123049791257, 0.05125477656091537
0.2958271397723002, 0.14608013944994674, 0.0510930549072091
0.340026449942061, 0.18625083044750856, 0.05124394538005575
0.3241625655852899, 0.19509368962274998, 0.05119072928708572
0.33480565130533857, 0.19070316145578275, 0.05122649437388897
0.3199474920765325, 0.16208276871267124, 0.05117515905585788
0.32874585171188814, 0.1872185988411465, 0.05120588887779767
0.3278636047250463, 0.15737465030017264, 0.051201702045912276
0.3198365096471647, 0.1942435309135425, 0.05117608538891196
0.21385307280680627, 0.23074281490216286, 0.050822227871767905
0.2501194492191835, 0.22259820662697227, 0.050939507907665
0.21550962561648768, 0.22309387874423425, 0.050827584915735455
0.24626823159324546, 0.2545411091218377, 0.050927053646001745
0.22402350379862043, 0.24931518247744872, 0.05085511752410719
0.23485217568719857, 0.2554110377800343, 0.05089013582903431
0.24522545061111758, 0.23711684589234708, 0.050923681448304746
0.2358736015815665, 0.22892389746750447, 0.050893438967572216
0.19612991059028337, 0.22868782926013326, 0.05076491381653039
0.25071800077401235, 0.27215273385757194, 0.05094144353385049
0.216437224222566, 0.2186149520054622, 0.050830584630859516
0.24977214457262784, 0.22907279972445488, 0.050938384776394535
0.22401284858386294, 0.2373531455582636, 0.05085508306673668
0.17749139647499335, 0.19124715566912445, 0.05070464633683116
0.17383613221392608, 0.18195135448513125, 0.05069282821653088
0.23136321148884578, 0.14850337376567224, 0.05087887090462894
0.23373867766192916, 0.15874512479217276, 0.0508865501021618
0.2222255512522579, 0.170803419296985, 0.050849315214140385
0.19596318141303454, 0.14627672135060132, 0.05076439315180867
0.2116384732991267, 0.17482914271665, 0.0508150771447355
0.19409826114377207, 0.19448030280546064, 0.05075834957142014
0.19239067247847222, 0.17617184189910162, 0.05075283231572804
0.19261733809036868, 0.1522731733064293, 0.05075357161968834
0.17787649727394336, 0.14646023953805726, 0.05070590350408651
0.22626477586635985, 0.1689225542359373, 0.050862377951212796
0.22532633330874327, 0.15707467151442187, 0.05085934629408805
0.21552227112310188, 0.1696077896338857, 0.050827638135920505
0.12216794224036241, 0.19443657650606633, 0.050525603875768516
0.13969973082964093, 0.18747281603785315, 0.050582343305424535
0.14532159187747187, 0.20344150592953525, 0.05060053775192012
0.1201762810871222, 0.18255902242570202, 0.05051915811483959
0.1071456962145674, 0.21509395187960334, 0.05047698626511712
0.10483092639490407, 0.16111046470557155, 0.05046949480361085
0.1237716786026155, 0.20616179683728852, 0.05053079416688168
0.11793896273106776, 0.16577213885571251, 0.05051191731525802
0.13891343386446958, 0.20199549713299686, 0.05057979855415077
0.14403107129190418, 0.20620721369916828, 0.050596361144290405
0.1324664465920322, 0.186120297661715, 0.050558933690364904
0.27634918440233924, -0.20381004929042357, 0.051026032968599117
0.33352331245178096, -0.15951192877373, 0.051215748873588686
0.3391955525457735, -0.12936621388237027, 0.05123459927229481
0.2699618945557375, -0.21226568171310917, 0.05100483467520841
0.3360075198117866, -0.14815058856905328, 0.05122400251906886
0.27155666377387055, -0.20672974600711522, 0.05101013125127729
0.2785834860739861, -0.20241406316067395, 0.05103344648275311
0.3349877250472343, -0.11894604669333002, 0.051220652054143445
0.3276800941465957, -0.13001818819199557, 0.051196397752097354
0.31288993897148343, -0.1818973110978289, 0.05114727582447204
0.2956183228184038, -0.18065719069658862, 0.05108998122938918
0.32600165917608326, -0.16310182089487263, 0.05119079292404371
0.3231414935055051, -0.20016023527182772, 0.05118126345280072
0.3415415949669316, -0.13361029721895357, 0.05124237718332252
0.27463130116113615, -0.20700466621057573, 0.05102033058989253
0.31940428294236584, -0.1435220556952116, 0.051168928947864144
0.2843089548697246, -0.17975242188095666, 0.05105246511820567
0.32745504124354996, -0.19938150258623497, 0.05119557386369225
0.29695997739454505, -0.20694787904427178, 0.05109440266327155
0.2732630456373415, -0.19330696538884304, 0.051015806875776934
0.27857920325942204, -0.21202090082869804, 0.05103342156779027
0.29689648127904206, -0.1965861941876872, 0.051094203573194205
0.3431410094784927, -0.10551733879729643, 0.051247714310548434
0.13045369611230798, -0.12868379663476714, 0.05055242678666524
0.13635988059432044, -0.1351052612612758, 0.05057154303340519
0.1538978910260703, -0.11699034037248734, 0.05062830741923878
0.11341383027079441, -0.11543812625893832, 0.05049727472007569
0.14336448887782627, -0.0994319496354767, 0.05059421449256331
0.11825312590970612, -0.10719184008567445, 0.050512937821992454
0.12841455458073034, -0.1015187199209602, 0.0505458268010444
0.12765298103367984, -0.12822034927634693, 0.05054336185470207
0.1109625064037264, -0.19440060655644986, 0.05048934064486602
0.11970470784092038, -0.10314194708371768, 0.05051763608335644
0.17059990705494546, -0.09771493094174505, 0.05068236598453335
0.12582287675760054, -0.16038040233623788, 0.05053743844932793
0.11642653670206402, -0.1464492303654563, 0.05050702579366145
0.110951238155654, -0.13311474075484006, 0.05048930417350095
0.13062391609358787, -0.15750481154676227, 0.050552977729015944
0.1631282961462261, -0.10316601604855956, 0.050658183001744544
0.12940677887026925, -0.1271386319343661, 0.05054903828290684
0.14859023025837279, -0.11815713100702221, 0.05061112838374534
0.24373650173372088, -0.18834297958098384, 0.0509188731428995
0.2417838685953662, -0.14721806298649237, 0.05091256544196374
0.2246387090546028, -0.20833633426572332, 0.050857114943629045
0.22074130345875598, -0.17946977152424215, 0.050844516675851555
0.2534382156757734, -0.2077244103515099, 0.05095024183822274
0.23851305469521317, -0.18592407397645272, 0.05090198285025359
0.25014700908700727, -0.20539881264946175, 0.05093959967178768
0.23581706461815455, -0.1889917988291815, 0.05089326455373409
0.2037578964933401, -0.20444994700105631, 0.0507895948328293
0.23718687610939077, -0.1305877559308058, 0.05089770307373942
0.24710528444087898, -0.11039117683883061, 0.050929778619419726
0.23288586331106903, -0.15764550082884704, 0.05088379101295632
0.25302206572395136, -0.1687346259670599, 0.0509489022161209
0.24494608208068921, -0.16686204306217434, 0.05092278780550614
0.2401024324937243, -0.12074071825060967, 0.0509071324173838
0.2327804424076137, -0.20280577540913158, 0.05088344311301029
0.25016404467549386, -0.1333556455211567, 0.050939665938664905
0.20818360302346695, -0.17693515378165248, 0.050803910177287435
0.21524430940205042, -0.18413420532257765, 0.050826740735532706
0.20728094178000184, -0.19306525402840388, 0.05080098880629508
0.19483090696204966, -0.20982611480272806, 0.05076072746353351
0.22552428530767982, -0.17682698482273368, 0.05085998345483449
0.22965281780710917, -0.21020806575455236, 0.050873328399710385
0.22019690714086954, -0.2663029374753442, 0.05084274927802204
0.21665709685523513, -0.2706617911182915, 0.050831301487333405
0.21715864121409872, -0.25511216635253076, 0.0508329261893067
0.2393936830141245, -0.28510444074217234, 0.05090482421349872
0.21960335561501154, -0.27930095996294435, 0.05084082750580945
0.25386390880273485, -0.2877955738446783, 0.050951617394254474
0.23939045569732853, -0.2830594645877748, 0.05090481414697727
0.19681033246586221, -0.27667702162913155, 0.050767120136243266
0.20700911989643103, -0.2747175501004625, 0.05080010122480012
0.18356470220163829, -0.24987371044406784, 0.050724291401888555
0.2451707527627157, -0.2848926281305643, 0.05092350608065633
0.20136260614930102, -0.2793958352281728, 0.05078184074030102
0.2266389979563394, -0.26933955535510695, 0.050863581095826914
0.19397671167446834, -0.2827376840558622, 0.05075795570602824
0.19393190828835496, -0.1712504734701945, 0.050757824540354775
0.17365019660288084, -0.11850188436127357, 0.0506922365541259
0.22500158935970066, -0.09646880335843658, 0.05085829918696472
0.1753888338347595, -0.1806910348704567, 0.05069785904381464
0.21759653415609648, -0.13136585316057728, 0.05083435235909093
0.2104270793293349, -0.10217904452251249, 0.05081116742718092
0.18049409860871832, -0.09737166888839659, 0.05071436869748105
0.23889752391235908, -0.09423375164806833, 0.05090323653634682
0.17897484353659837, -0.13085470873112698, 0.050709455656496455
0.1894818376896844, -0.1197318697273996, 0.0507434336854965
0.21101632106938878, -0.11242970012920223, 0.050813072945794506
0.20157222252097523, -0.09587698577828824, 0.05078253216032515
0.1966370163206662, -0.1695046833855362, 0.050766572450349864
0.19169109131859982, -0.1291144756151633, 0.05075057807739184
0.22338410468567388, -0.11958322552411622, 0.05085306848631328
0.20431685012147427, -0.14099074106928666, 0.050791407870623
0.20586793150930563, -0.12085781990088591, 0.05079642383309612
0.1787292188195356, -0.10522477393045156, 0.05070866134333345
0.20858511695870335, -0.12813753411050965, 0.05080521079963031
0.2212015109086124, -0.13586811656990314, 0.05084601030834423
0.17820178933471625, -0.18391303402457945, 0.05070695571619884
0.20924550515378135, -0.12195452217999289, 0.0508073463951124
0.20710846107146103, -0.12578091969103516, 0.05080043551796281
0.22830124158550857, -0.04459135090663282, 0.0508689634926688
0.2551304026750342, -0.01860918270188058, 0.0509557309913477
0.22507746208908083, -0.02453733517361239, 0.05085853755045376
0.19981637314371814, 0.04035163946491664, 0.050776841313497995
0.24645095683613266, -0.030798018608356587, 0.05092766101916901
0.24964888920883238, 0.007878851417995058, 0.050938003369867105
0.2465850857840991, -0.054819979764668375, 0.05092809480214407
0.24234837215709887, 0.009255187508644416, 0.050914392955753604
0.24990828808050444, -0.08061197843008236, 0.05093884228507507
0.24234699747495625, -0.054688253658604566, 0.050914388509929506
0.2540193773457423, -0.050534003400649834, 0.05095213785295363
0.22932469671194491, 0.040813972474035405, 0.0508722734225259
0.23292136325442528, 0.011290436499084011, 0.05088390530912987
0.25143651669291617, 0.01593995674652967, 0.05094378468985867
0.23827477084471568, 0.0410067388372314, 0.05090121862669758
0.24792336538328327, -0.02192289884865551, 0.05093242289771764
0.23881982705331664, -0.057363849178452844, 0.05090298137893951
0.23930671989618346, -0.004770029787602308, 0.05090455602653879
0.2544916697635474, 0.01725527373052616, 0.05095366528169437
0.2548805827477223, -0.06810196455348771, 0.050954923055156906
0.1972882411209067, 0.035290989569788205, 0.05076866514685539
0.20410350783919248, -0.0025272190356990594, 0.05079070622536702
0.24577032928330247, -0.07473456994508139, 0.050925459819135446
0.1847889777929342, 0.04203839237341605, 0.05072824160134541
0.24941371920686017, 0.04215465071113908, 0.05093724281262243
0.22158327267281003, 0.015460371870545567, 0.050847237082483544
0.34333885621162663, -0.023353574207475285, 0.0512526748580055
0.3335494705793476, -0.026107362069191717, 0.05122000989811991
0.30693830242686315, -0.08277174508824595, 0.051128305168788996
0.3293302537882124, -0.010294159988891964, 0.05120693701592697
0.33380898504523593, -0.05935571358646028, 0.05121890462112152
0.26388775480224563, -0.08908605884474463, 0.05098499812991359
0.32620630206980433, -0.0763018231731489, 0.05119266021605647
0.33751395486086844, -0.0929339622707604, 0.05122921919446962
0.2910663323650339, -0.08177470183096348, 0.0510756671170028
0.32326942001016623, -0.046871314843653, 0.05118465042420953
0.3368216409593524, -0.03734260319001308, 0.051230209283369424
0.3119195537296303, -0.028360539146785418, 0.051148062427446433
0.3020727700650611, -0.09418847416712914, 0.051111475570861875
0.2871658569477681, -0.04613732711276976, 0.051064825252625325
0.3143483933485936, -0.02589862014038786, 0.05115627213713713
0.3166230103152543, -0.09318436223248758, 0.051159843689226034
0.266953126222576, -0.07719775646083626, 0.05099587885324957
0.34087578491932913, -0.019793368616896425, 0.051244707750273635
0.32897137093053586, 0.010606715125860835, 0.0512069819272392
0.25890858797164856, -0.08990697200537678, 0.05096841807569586
0.2729550254707065, -0.09043747068739227, 0.05101502271827223
0.3238438600594537, -0.0775514191944802, 0.05118474267354483
0.32401609237926204, -0.017291214014499446, 0.05118887936861773
0.33429827101037857, -0.03951610884448237, 0.051221702782410075
0.34142573590728753, -0.0336529102935844, 0.05124571376014392
0.314699279875357, -0.02866360442795806, 0.05115727355631806
0.30962743469185544, -0.01964295764095917, 0.051140968002756935
0.30205971221614347, -0.07044294755029484, 0.051112836950148566
-0.13576272245500337, 0.29582057966967545, 0.052030932140081636
-0.14985044190030747, 0.3127873976669174, 0.051985347205040826
-0.1309422550498154, 0.2953766012700307, 0.052046528047603555
-0.13378033576541024, 0.29699344425169755, 0.052037345321287606
-0.1572016373833685, 0.325924412485077, 0.05196155856584478
-0.15599645244882301, 0.2912223192879593, 0.0519654714668695
-0.16148506520242442, 0.2943628866866534, 0.05194771283022192
-0.16648939031854834, 0.3064788570201643, 0.05193151746098151
-0.02496596219448237, 0.2793590544987261, 0.05238941730525366
-0.03489724687623116, 0.2673472640363136, 0.052357284038470245
-0.06901791603671209, 0.27300570997260204, 0.052246884564570564
-0.03229863730108421, 0.24335277018431228, 0.05236569199776276
-0.011610462716574533, 0.23255971994570146, 0.05243262982950284
-0.03797535538426796, 0.2581303293162566, 0.05234732463437753
-0.047091790133015704, 0.26215137429256874, 0.0523178278621266
-0.040699891689656834, 0.2505191779179634, 0.05233850923423786
-0.02393081905199185, 0.2640995291714112, 0.05239276657431227
-0.012455377299764968, 0.23247908573337944, 0.05242989605765316
-0.03186524014454133, 0.24902023520573482, 0.0523670942798059
-0.01729684907166574, 0.27621727561947373, 0.05241423118142356
-0.07253533796869803, 0.2650051324882759, 0.05223550373541956
-0.016844837939342442, 0.2562829490804233, 0.05241569369224797
-0.01543537783521235, 0.23592375911360297, 0.05242025408673453
-0.02661640821390641, 0.2536904312609792, 0.052384077190227835
-0.04100281437715643, 0.2534813033638284, 0.05233752910944897
-0.35090513230535025, 0.30963654584652606, 0.05134208176803822
-0.35767068644830896, 0.3282625455248954, 0.05133104161094219
-0.35947805381109244, 0.3477300350531335, 0.05132809231526089
-0.3699024845406547, 0.290320908460755, 0.051249016734218195
-0.34703136563205117, 0.2696564601674859, 0.05134840305255135
-0.35233637095535814, 0.25537966882565993, 0.05133974624618677
-0.35388156788827185, 0.26510561173067876, 0.051337224765089555
-0.36779073815096036, 0.29561757193268484, 0.051304872722257346
-0.37197305223635324, 0.344866661231167, 0.051194249928407806
-0.37632398813869267, 0.3463324065061506, 0.051058869472387525
-0.3721557541868815, 0.2847208057183909, 0.051189417436204546
-0.36939370612833794, 0.2758046202819754, 0.05126247399454625
-0.3821115165216937, 0.3426761239580069, 0.02215194216239091
-0.38208422140606624, 0.3318069045953798, 0.017191337835331527
-0.38211067988095315, 0.3331477191955636, 0.02199931298634187
-0.3821381476784356, 0.368514734102173, 0.027170925111104458
-0.38167081051114776, 0.31086149000733776, 0.007570187051460586
-0.38051037749976413, 0.2557470058044037, 0.005909141085104988
-0.36266216799347206, 0.31292481331931715, 0.004265006793043885
-0.35810348991715646, 0.22347887371894698, 0.004024823323765725
-0.36488247892480663, 0.250993101864412, 0.004174020226691209
-0.35741035016544176, 0.285402520139391, 0.004217548423339622
-0.35926240984119895, 0.34683169079492826, 0.004208215685596977
-0.34111441644788887, 0.28237207598339736, 0.004181702796032659
-0.3500325355000925, 0.25643496927274023, 0.004097374859520263
-0.3551314333720605, 0.30328482269498, 0.0042406959828531765
-0.34601309336102737, 0.29676184430582275, 0.0041779684362768296
-0.34806691168963005, 0.2915187221088655, 0.004179726561355932
-0.3350327157086851, 0.15614772966358165, 0.0041012025516611724
-0.342874421516754, 0.21249830402221564, 0.003875970624843533
-0.3367860761864331, 0.29001409787219945, 0.004312837270776247
-0.33502493965805474, 0.22193789240453968, 0.0042902034361631475
-0.3525968207678447, 0.32902432377833063, 0.007133931264547275
-0.3408753370860059, 0.3155271365565826, 0.00706278213367437
-0.3349027457900276, 0.2793209686153488, 0.007078510484889515
-0.3633123865767381, 0.3436661275822326, 0.007266726900897866
-0.3638911175217132, 0.21460832640324778, 0.007398904923235463
-0.3653943018691599, 0.3180975672355529, 0.0073708157169800025
-0.3681943023610803, 0.34992634849814924, 0.007486258014851673
-0.35953144655336067, 0.3389152540268691, 0.007198206677481351
-0.36658063458482015, 0.23619009612974814, 0.007474270198527634
-0.3742025635171018, 0.347797026445583, 0.008652630303276145
-0.3704025111086411, 0.3318300411981795, 0.007747951818910125
-0.37366839056167767, 0.3152594548018195, 0.008463739778261297
-0.373898786845735, 0.2972548520685384, 0.008535915869106446
-0.37760486248739333, 0.30212990475458906, 0.04706345039835263
-0.37759364123712613, 0.3451652636451621, 0.03746496439921646
-0.3775997537935025, 0.3299357639369047, 0.045962830789292454
-0.37761699885206884, 0.2356899235098702, 0.027428577707116278
-0.3776069726532536, 0.2771927058292516, 0.02692834190754372
-0.3776170799903905, 0.24235522226155015, 0.025451388494129392
-0.37763946740711407, 0.14893554772798792, 0.0433295507613346
-0.3776393415694913, 0.14979981098758233, 0.043895728606972426
-0.3776347913479149, 0.16454248951418787, 0.03864169090043908
-0.37760671749032526, 0.28392767163261295, 0.04158792151505772
-0.377607410719683, 0.2752351445958537, 0.037047701679603376
-0.37760818737252594, 0.2742961151437181, 0.03896595668336851
-0.37759499168197364, 0.34418872577536075, 0.023005584213283706
-0.3776034718769348, 0.3427271407723953, 0.01168214175813835
-0.3776002193978707, 0.34678008034660057, 0.015017927449666952
-0.3776199574060871, 0.21992235265534252, 0.032023817963470244
-0.37761407335201647, 0.24196847686943648, 0.0305408702339391
-0.37761390188449623, 0.24581128995738732, 0.034265104048823235
-0.3669652080875721, 0.2246454932077974, 0.04897926546746732
-0.3719896506913912, 0.2683683530501572, 0.048886960527998076
-0.3593232134518996, 0.24214502756040823, 0.049029035616283204
-0.35945680631590593, 0.21934397184219306, 0.049029174691307
-0.35917420759892504, 0.26155229296206683, 0.04902892085662443
-0.34723688028569993, 0.31663095601573454, 0.049032015817866016
-0.3536203643648371, 0.30961211003711303, 0.04903138490910179
-0.3467319261238885, 0.3013155314512286, 0.04902875225278151
-0.3651265234393667, 0.3436616105670238, 0.049012689714882145
-0.09617114896673419, 0.26400010207946223, 0.04981912180316718
-0.07945839120639436, 0.2544322599954004, 0.0498732063401052
-0.0682658725111925, 0.2401440959748592, 0.04990942229541927
-0.0199307613383052, 0.21977415858122903, 0.05006584473796037
-0.06516619081673186, 0.25054389176327746, 0.04991946005883925
-0.05230903692234394, 0.23805678745650843, 0.04996106451928037
-0.06416138329748221, 0.24658518603166296, 0.049922709846012187
-0.08780803632629022, 0.23930891647742483, 0.04984617472501032
-0.1084258869203043, 0.26823817381140985, 0.04977946241155748
-0.10674644717717217, 0.22304206200332957, 0.049784872531243266
-0.03251230106607625, 0.22023241916474173, 0.050025125555799854
-0.07861474344218095, 0.23250076198069813, 0.049875924485353745
-0.03311014244299358, 0.218438545142365, 0.0500231896722977
-0.10335488238779958, 0.22198583331867905, 0.04979584854695438
-0.09978097429893304, 0.27848168990095423, 0.04980744691240748
-0.09217766493229677, 0.2738675032121578, 0.049832052009158946
-0.06510939359010753, 0.2259501373397393, 0.04991963011722953
-0.12482554381608277, 0.32222788429177374, 0.04973202769404082
-0.12035478671614772, 0.31496885870645497, 0.04974538398392457
-0.11528130152278465, 0.32780940518450075, 0.049764857139290436
-0.12414902818469485, 0.30714434658831646, 0.049731185010948184
-0.11163609968712727, 0.2963674128013843, 0.049770520620904264
-0.1241318025545009, 0.31473279551823086, 0.04973279610219477
-0.1420027670761388, 0.33624281823781427, 0.04967786986291341
-0.13761043597424663, 0.33712450993373855, 0.049692632773602814
0.16469597171259526, 0.2964931449402475, 0.05066429928352791
0.13588413214750245, 0.2948387547777228, 0.050570851558895756
0.1589933243978733, 0.3225103331091484, 0.05064892783779358
0.16432408746028118, 0.33876607327803204, 0.0506681091092084
0.1560723974802134, 0.2972153957527931, 0.05063647414399728
0.14383959608559393, 0.31231130691802, 0.050598672167468065
0.15175676508229602, 0.29426302668884663, 0.0506221561572358
0.16790089244248674, 0.3357760581110206, 0.05067933107907609
0.14762174623005506, 0.28799213021630454, 0.050608029170382526
-0.024543744925434034, 0.34182503753103466, 0.050062147297184396
-0.009770740854736532, 0.2920211829143987, 0.05009959203112302
-0.022265553975310215, 0.34349783320547134, 0.05006986983666347
-0.02405266829041796, 0.33883467146900725, 0.050063114003336316
-0.020794514982843685, 0.33182437997114433, 0.050072200021221584
-0.02060625949619299, 0.3443485505498488, 0.05007541788810768
-0.038767474281105406, 0.31743755715899225, 0.05001102802094086
-0.04475434436407698, 0.3143787548881809, 0.04999101241722384
-0.0805875363133635, 0.33476032309070286, 0.049879271265262766
-0.026477886567905083, 0.3374351433993549, 0.05005497247614708
-0.024621331215315026, 0.33852509045417734, 0.05006120885522726
-0.04103956870350865, 0.31083131429471045, 0.05000229768428338
-0.053794418894848935, 0.3347813720099034, 0.04996600059674251
0.04932733952286017, 0.3072760685010858, 0.050293948753540665
0.09016324013765009, 0.28908739414683443, 0.0504223138102699
0.08604321688789306, 0.2949625195362935, 0.05041019768376588
0.08689035677365642, 0.3156080912946103, 0.05041720516364832
0.07012294557252355, 0.30686532982415815, 0.05036114771601223
0.0737518700556501, 0.2907094927508038, 0.05036955030913394
0.08581487883209599, 0.3388250698742752, 0.05041852344663401
0.08185360608320597, 0.3212246927803901, 0.050402069554397654
0.09052292498313536, 0.33609936784379507, 0.05043319296519726
0.055164810494055444, 0.3074955605180678, 0.050312881155638756
0.08463918283813612, 0.29407194572625484, 0.0504054709102474
0.0593892367259906, 0.29998936887049205, 0.05032499800340145
0.007444351437263744, 0.2953506850803679, 0.050155972551387935
0.006804092486788774, 0.29460635520310063, 0.05015374718225067
0.055651118899983754, 0.30015439921658416, 0.050312937488858164
0.02412822649516554, 0.26628691141740046, 0.05020839304211998
0.0018547774397799175, 0.24282332236638265, 0.050136334528781454
0.04834840412761669, 0.23438499454277562, 0.05028675557786762
0.09268677728621905, 0.22341578973415854, 0.05043020403114568
0.0206472509458017, 0.23011581575825144, 0.05019713488049532
0.0038594842931080437, 0.2268304144135545, 0.05014282200336918
0.038642629425378335, 0.23275398633954525, 0.05025535479468149
0.060197853900902105, 0.23393561763318613, 0.05032509198025144
0.029038613911916474, 0.22893260819776542, 0.05022428346097464
0.015139539907735146, 0.2678258628606621, 0.05017931191181229
0.030603406323361892, 0.22287224571159722, 0.05022934664627157
0.049741322738950225, 0.24837519323515692, 0.05029126060210874
0.006014203900749096, 0.2352995215240628, 0.05014979224978449
0.0661434113803247, 0.2227935673355233, 0.05034432872437905
0.05545920006996234, 0.22693337727916862, 0.05030976181476562
0.012584934083973449, 0.2387897363755388, 0.05017105007354958
-0.0064015963310070055, 0.2486188948216025, 0.05010962219378916
-0.0029703780101602373, 0.27150592956624775, 0.050120720768012134
0.030311841472984748, 0.2242939513452708, 0.05022840320176525
0.3554721257308798, 0.3139284971230139, 0.05133254211327366
0.34978535516526327, 0.34488679711196324, 0.051298448946983446
0.35093726879429743, 0.2715197631516911, 0.051299286245812335
0.35896555374672734, 0.2728952731103541, 0.05135207953813328
0.35388782291066473, 0.27432158125423733, 0.05131842212365331
0.34749322349861883, 0.24333234178825816, 0.051279843832460745
0.35456793532086656, 0.3709902120355194, 0.0510723792015004
0.36685270079779675, 0.28933618217487056, 0.0513544550271577
0.37302157731493246, 0.2661956690488963, 0.051238341834155904
0.36988863854133297, 0.31635188010442994, 0.05131832521586191
0.37025909799371515, 0.3287372753988268, 0.05131362714819081
0.3668385594377774, 0.2711323650167755, 0.05135472914425576
0.3769901936348862, 0.37178563999468456, 0.03485194173001558
0.37775035396777223, 0.34326690540160487, 0.03794732669803414
0.377749011037156, 0.33247881742692653, 0.03822722071919919
0.37764157466911963, 0.33782342222799133, 0.04785261567446949
0.3777273493730361, 0.2953185228345626, 0.040829568768728466
0.3777167492114646, 0.2908219426487735, 0.04185857617781247
0.37770524357870144, 0.24780194670275207, 0.0437775204603298
0.37780478532504114, 0.28652375372487365, 0.03409442873505575
0.3776793332145123, 0.2821381647107458, 0.04536882546614631
0.3779187631167531, 0.2907902224300838, 0.024521997766759125
0.3779870345755768, 0.313330825255009, 0.018479821768159172
0.37805760532731253, 0.3111604099703339, 0.01278434600506042
0.3766465588065874, 0.3148366095835383, 0.01173306283604905
0.3764715398573979, 0.2774974481509568, 0.011666383201735537
0.37336681199219124, 0.36703391847809946, 0.010459219381027382
0.37135020034729005, 0.2467286684623758, 0.010228012088565362
0.3685436594542672, 0.34127318702523235, 0.009900986950307333
0.3663841533571195, 0.36016124741080413, 0.009450993982847447
0.3663384759165942, 0.3398860938429816, 0.00970516638232425
0.33734946007730204, 0.2672213902901667, 0.00929081911759695
0.342811294814858, 0.28809085187436995, 0.009322226571657957
0.3487317376286288, 0.2928532448071413, 0.009392299055976803
0.36156140181320756, 0.3141479545460056, 0.009597053283625706
0.36137576527422544, 0.2661501583100002, 0.009647095382590957
0.33534918568194894, 0.2120027072924388, 0.006145246144855227
0.33336751261969766, 0.2053666877432498, 0.0067653293818254745
0.33926312212308674, 0.29784411396419275, 0.006465854264030225
0.3452839768661279, 0.23038355324878096, 0.00608515927739727
0.3462963424882695, 0.23961202303516332, 0.006204963020874221
0.3508732489928872, 0.27732648537944443, 0.006439549351276507
0.3529936727618504, 0.2211370396937033, 0.006241250603418468
0.3599327190348968, 0.27806739881738923, 0.00653920688594185
0.34490506713391356, 0.29018768019138586, 0.006381984167069086
0.3572192911177887, 0.280857587925463, 0.006516225603209963
0.3539882643895104, 0.2979788651616521, 0.0065151538897635485
0.38143423360109024, 0.2837760652720512, 0.008764974689700562
0.377031284184293, 0.2395179847262731, 0.006824899751425068
0.3767887604281229, 0.3640184032427717, 0.053439315651158295
0.37757969677899894, 0.3346669810588292, 0.053373670327030824
0.35991655897399116, 0.3020833031850929, 0.05365634558132088
0.3545268909119936, 0.31261336500700143, 0.053630282757743335
0.3622651430870358, 0.2901890613352632, 0.05366770263201329
0.37156506960110447, 0.2872508680551181, 0.05360914989317267
0.35746261938316504, 0.3554910668527344, 0.05365607829600863
0.3751443977053218, 0.3205376135171587, 0.053537670464542005
0.3778048571646154, 0.2732691986021915, 0.053352237635879006
0.36970864023919764, 0.31546924123934295, 0.05364622509723908
0.11894823083635525, 0.3334147641525096, 0.052855053841682875
0.14465064989714838, 0.34274866426945316, 0.0529382101709142
0.11638165271211343, 0.34593912377128205, 0.05284674283155032
0.1252388612811403, 0.3448207700744932, 0.05287540133330548
0.13483616915928817, 0.322718909911107, 0.052906465735525036
0.1132784748213161, 0.31797642723154657, 0.05283671738427005
0.10253348915309762, 0.30423388876904855, 0.05280195887945064
0.12324159693193304, 0.346907364714107, 0.05286893797251102
0.14656217086905102, 0.331104816245239, 0.052944401240719634
-0.07426189391136677, 0.2926737506852928, 0.052229917825383665
-0.06869749150084686, 0.3259793511813216, 0.05224792766100458
-0.10202732027753414, 0.2963378207790093, 0.0521400817681551
-0.09662857962081985, 0.33803435915686597, 0.05215755707600954
-0.05516958626064548, 0.29383983305227684, 0.05229169233873419
-0.03757812626627976, 0.2928324844628307, 0.05234861038583835
-0.053511884489191135, 0.30886903993303505, 0.05229705858459764
-0.07923405658485108, 0.31327737676584244, 0.052213833730567205
-0.06391133701668406, 0.3096493851387955, 0.052263410669348156
-0.04074177961966812, 0.3055718805140467, 0.052338376443664
-0.03770590581072309, 0.2973700658140901, 0.052348197748216876
-0.09133310670753989, 0.3231166183041117, 0.052174688263927446
-0.05403841124542321, 0.2978916040954498, 0.05229535303843606
-0.10069599488890749, 0.29920038512852043, 0.05214438985654152
0.05930443727764251, 0.25884347152490933, 0.05266207414098367
0.06724821702064253, 0.27845050206303956, 0.05268778779981427
0.07040720444041564, 0.248651510860753, 0.05269799438666269
0.03803565080815338, 0.2662464850992465, 0.05259325816684634
0.05719686374076183, 0.2539046780880383, 0.05265525215234358
0.06678615275607352, 0.2447991998640582, 0.05268627576301128
0.10085088818830346, 0.28697774131170195, 0.05279652070472257
0.0138253754748752, 0.28316618975741065, 0.052514929165273734
0.07029637066944132, 0.253885911070552, 0.05269763839365364
0.1038840575797039, 0.21913304814024598, 0.05280630104050866
0.09864424973969725, 0.22731472036669068, 0.052789350639831416
0.08670746823224273, 0.2334489323217605, 0.05275072972135396
0.09676087516281237, 0.23096439675635963, 0.05278325841545631
0.09547076813664457, 0.2566018899369507, 0.052779096896472734
0.03633627546105858, 0.28886028334726155, 0.05258777085169628
0.03140074498449566, 0.278008722436266, 0.05257179543016541
0.09134513462643881, 0.27599858723730875, 0.052765757286697856
0.09457851502461387, 0.2704695843355358, 0.05277621679761704
0.03427883555139219, 0.3382680626462496, 0.05258110439618431
0.0011545587778745512, 0.3424786252205647, 0.05247393611104435
-0.004097546565862555, 0.34424464462762744, 0.052456943902937994
0.03541927596860522, 0.32730832296341933, 0.052584792765092925
0.04389486951209631, 0.33081952569037804, 0.05261221475860168
0.021092278528197297, 0.33926716209682617, 0.05253844132165823
0.07552563589299617, 0.3387742242934882, 0.052714552517699804
0.06385192290123798, 0.3479804027830473, 0.052676785050589814
0.007995539543562104, 0.31519367717570085, 0.05249606572647219
0.0864378924423656, 0.3465746289248956, 0.05274985851475377
0.06353815237471223, 0.33530354831466125, 0.05267576831699326
0.016055820561582095, 0.34149471376374607, 0.05252214686678108
0.06069285537814867, 0.32997120967718263, 0.05266656210770103
0.024591053268672267, 0.31538480000044755, 0.05254975813532992
0.04599709130076637, 0.3286051103010896, 0.052619015918216265
0.122603726508905, -0.29946560680808054, 0.05286688993385639
0.11776025740614192, -0.30224935324927205, 0.05285121562175454
0.15673384900749662, -0.3306762974244411, 0.05297731308801445
0.16515996008175832, -0.33458956347248486, 0.053004576651640906
0.1407344207113979, -0.29702266984051584, 0.05292555965087327
0.16551191666407003, -0.3307492758825179, 0.053005717640486054
0.11606572702501936, -0.2995668756280294, 0.052845733831384245
0.12175088793237862, -0.29232886663933466, 0.0528641341834767
0.1547507699704076, -0.31572675791569194, 0.0529709043246645
0.0018530802930756501, -0.25156028566057514, 0.052476191921597325
0.0367239254555663, -0.258665672722698, 0.05258901862017443
0.053683416581415226, -0.2706109025719041, 0.052643892064863265
0.016105173417603074, -0.2502391508468362, 0.052522305418633626
0.019841192242045162, -0.2850261246997467, 0.05253439353028734
-0.004150265556743801, -0.2237040343014821, 0.05245676773817144
0.06365274795331104, -0.29174375555241927, 0.05267614843090404
0.011384150654483104, -0.2701680489588707, 0.05250703026800885
0.022636602675812995, -0.27266047051181264, 0.052543438247412505
0.003158039074089857, -0.27508983414767096, 0.05248041419353695
-0.008304871815028345, -0.28562636323511553, 0.052443325261918694
0.08488503360269015, -0.28750735172054337, 0.0527448467570244
0.026337224874968847, -0.2752545050613347, 0.05255541183117471
0.04096048567980485, -0.27932554783683333, 0.052602726263370245
0.03230763588389481, -0.26036971545201043, 0.05257472945195925
0.011420845187250069, -0.27024671187777394, 0.052507148995357404
0.005052507014919799, -0.24133375140099422, 0.05248654385751063
-0.0026421058397925025, -0.24744656549933053, 0.052461647478854456
0.032713574258017325, -0.26727544931670716, 0.0525760428897714
0.350295795952532, -0.34601797705857285, 0.05360982244734948
0.3662295865133924, -0.3453822807804894, 0.05368687349530501
0.350214340230257, -0.34576861143377474, 0.05360942855182667
0.3548449252082199, -0.2564123181626222, 0.05363182067652772
0.35097967985874107, -0.26859530315446156, 0.05361312950548182
0.35051805959852456, -0.26726049020989934, 0.053610897247898706
0.35914956578512613, -0.28965556504380696, 0.05365263663154204
0.37584986614720256, -0.30788218338350226, 0.05352358192801973
0.37835173009767153, -0.35144050106810104, 0.05330018159306586
0.3685700889472812, -0.31610806642427186, 0.053668962501928485
0.36801452203529117, -0.2605019996960189, 0.053680057434409484
0.3731318876576879, -0.2902939739068454, 0.05357786123655153
0.3824546543922648, -0.3421166934335683, 0.018473906083079923
0.3824307051416849, -0.3285944172263976, 0.022827604179159928
0.3824714318089655, -0.3208355994994391, 0.015423964837375325
0.38247494325357817, -0.3657700430674405, 0.014786266508042921
0.3818447328725802, -0.3103553136355551, 0.009410023419192615
0.37889538544515067, -0.311263473999359, 0.0073255863238059354
0.3784085324839523, -0.24265524471575597, 0.007152865924433218
0.3601184521443897, -0.31297898707478067, 0.0065518823180729015
0.3554143333415209, -0.21103041853320725, 0.006311567555958278
0.3574189390321875, -0.29946839185450125, 0.0065009688948394605
0.34522348094673905, -0.20245230850569623, 0.006117587566125683
0.3487753721898057, -0.23360641735497997, 0.006247702182114751
0.3382598351874839, -0.2684555971175767, 0.006160325958116309
0.34458149995065673, -0.32902818880419754, 0.0061887358145035955
0.35139873215446715, -0.3044591568743156, 0.006434825055175998
0.34384294259130294, -0.2965837718870219, 0.006176285883066517
0.3399661743447334, -0.25746395976101566, 0.006145392997861052
0.33654962308819214, -0.28840818580835687, 0.006146998584369411
0.333958666028409, -0.18527754772444233, 0.0065916992902343
0.3352786835109468, -0.26494386897987043, 0.006319745547534226
0.34107658386042805, -0.16204932867305438, 0.0060678153419349515
0.34020522292726246, -0.14617362168389864, 0.00605769578507506
0.3629203465013412, -0.34382691416463923, 0.009373764135523122
0.35847296827570446, -0.2564682869924773, 0.009428271680161464
0.35802235374096164, -0.28948744618714645, 0.009376540374304916
0.3545732626036343, -0.32446246196130407, 0.00919646039101545
0.3542855313515989, -0.31834720860529275, 0.009209145644728217
0.36032133179569026, -0.2932019021643578, 0.009473743643210198
0.36556073597566136, -0.34079389767754303, 0.009597720510724089
0.3702265471124217, -0.3547574332561661, 0.009935904766047799
0.3700051436739239, -0.22190989772557929, 0.010095500299697325
0.36682642391621384, -0.3377895836430224, 0.009681234757533555
0.3742717494219808, -0.3048872171087385, 0.010928698494801232
0.37658999181808156, -0.2162490360737416, 0.011692092832110652
0.3730170663177704, -0.29664053192086737, 0.01050336318376997
0.37776360607362397, -0.14483420404557903, 0.04015390069658345
0.3777663422303435, -0.11971279391833348, 0.040253604095039905
0.37776506426637124, -0.1283141510589103, 0.04024947154162055
0.377776028007471, -0.12293757536071881, 0.0393579646986516
0.37771424194743497, -0.12665817740604032, 0.04474216435802323
0.3779996076475491, -0.27024268501975546, 0.01837493830954213
0.3778499270607909, -0.2154159876665419, 0.031593782317608815
0.3778840090354263, -0.2806547480746536, 0.027583852975019845
0.3776715100649889, -0.31961255370429537, 0.045471409123015664
0.3777189494736413, -0.3058300218460936, 0.04146132572720056
0.37767695161610626, -0.31132835870727205, 0.04511775343943338
0.37774146504883144, -0.21676226734521725, 0.04118026443868231
0.3778114514696898, -0.2274940194078881, 0.03474897145065888
0.3777896073668032, -0.24255177775902553, 0.03637575438601174
0.3776840663122991, -0.2506612092327586, 0.045591366620261274
0.37764950612081943, -0.2549782900800929, 0.04858741474429153
0.3777886148583208, -0.2754039526246142, 0.03578712892664046
0.37278861640208677, -0.2255600732883728, 0.05125474627117264
0.36766172856114426, -0.3486118137167491, 0.051345142762511856
0.3485564211373906, -0.2203185925037449, 0.05128186152256966
0.3524050734880456, -0.2141248695797474, 0.05130734135283482
0.36036892068261717, -0.2331316453916999, 0.05135987738387665
0.3557614238958441, -0.3002319227894718, 0.051332246866906184
0.3616959235093543, -0.2951867879879705, 0.05136994761649766
0.35502352815974975, -0.30762651119370416, 0.05132949349829092
0.3452115031409089, -0.3478245843302737, 0.05128452555190405
0.37161530071711435, -0.30444242156985013, 0.051297852133908
0.3670596856233443, -0.29747072213819087, 0.05135201940935065
0.3707524286570375, -0.23392372645310955, 0.051309543253978615
0.37219159087989134, -0.30197835228331493, 0.05129037431558903
0.13267174242538793, -0.3433723970233292, 0.050565629858925466
0.10247900494077178, -0.3340160961386643, 0.05046773493394745
0.11674122844871124, -0.33793561751161166, 0.050513911419132425
0.14357325712898594, -0.34179526581634967, 0.05060031831511906
0.10249462725590125, -0.30991772488086317, 0.05046458555978792
0.11336317490425933, -0.33788054202621975, 0.05050309030913579
0.11158250358136934, -0.3109394591060411, 0.05049381324579358
0.110200829721678, -0.33431791864072585, 0.05049249404867463
0.01826964822377298, -0.35146518516777514, 0.050227592568183634
0.07710970795992853, -0.36143032667305425, 0.050447994598652096
0.02266150675853113, -0.3591444121768915, 0.05026503334879186
0.005506093798629766, -0.36067124463917927, 0.05021418703786945
0.02104914571645973, -0.3616169742184228, 0.05026730336162834
-0.11147934269050623, -0.2923293765900278, 0.049769621747109395
-0.1655924086738208, -0.3051356045415445, 0.04959472756791665
-0.1360368137520903, -0.292239210658213, 0.0496901662250908
-0.13968181048725878, -0.3064004093013907, 0.049678578055203246
-0.12075694906601929, -0.2920550145278181, 0.04973960063947074
-0.16327137205634085, -0.32353919435683465, 0.049602503551960275
-0.15936756434159977, -0.33067836341176565, 0.04961523743289791
-0.12639090511999507, -0.2926777521805804, 0.04972138132913047
-0.04393309657063848, -0.24040397375240144, 0.04998817037680594
-0.0747433350624064, -0.27902866186161485, 0.04988846197970624
-0.04335722234974509, -0.24440596382923743, 0.049990033562268325
-0.03538510961818436, -0.26719309348862885, 0.05001582976958405
-0.043038684792767234, -0.2519853828060364, 0.049991063632337726
-0.026575209125621464, -0.27488107370047166, 0.0500443386148983
-0.013218359460110978, -0.2738543732683592, 0.05008756263820821
-0.027688365476303333, -0.25013025500511005, 0.050040738777531325
-0.030832290063278183, -0.23011988045457343, 0.050030566732278084
-0.06949574792190975, -0.27251449132010985, 0.04990544426653939
-0.04880275474411315, -0.2679077762509316, 0.049972409037569825
-0.06316994142960838, -0.2567410347781479, 0.0499259166747667
-0.015171931042044442, -0.21895657372082442, 0.050081246107800334
-0.031116998801182676, -0.24749302402700027, 0.05002964368236894
-0.03231209968246037, -0.2562260344865189, 0.05002577537395474
-0.043442347156985604, -0.25253242812800997, 0.04998975729219061
-0.08200935240631956, -0.2871283060972978, 0.04986494772206233
0.010967086229939253, -0.3240875655209239, 0.05017405606883245
-0.008315364822530799, -0.30437418763283297, 0.050107511947928104
0.005218624780331677, -0.3008005612834879, 0.05014927820894351
0.008223714163144226, -0.3064853104391044, 0.050160390083789856
0.004147627152542055, -0.3176745114322813, 0.050150680532143374
0.005719364070389045, -0.34076568455403283, 0.05016220042615015
0.049883777472023196, -0.34108979522539673, 0.05030189372880258
0.00871069463538365, -0.3047054765852296, 0.050161424406107234
0.00886384554924259, -0.32924430264022286, 0.05016887097213307
-0.009571074207784193, -0.34246752729399377, 0.0501143510391079
0.06456802175910034, -0.3437824354353932, 0.05034907382709851
0.0029307639602881874, -0.3124880680457777, 0.050145362529946516
-0.004971116028610202, -0.34076158976263526, 0.05012840723014103
0.056378548966280057, -0.27275406705385613, 0.05031273491669719
0.07786011206514935, -0.2568314305021826, 0.05038223526206454
0.09392705010159377, -0.25809761687452937, 0.050434217804155496
0.01331417328765609, -0.28560293467134645, 0.05017340607479322
0.020282782603180435, -0.27681876996155835, 0.05019595184639291
0.053648053678443275, -0.2873454838020433, 0.05030390119067407
0.06456832774950239, -0.26011718766751685, 0.05033923150855696
0.047286795878832166, -0.2856930271225251, 0.05028332011249731
0.08079119667267996, -0.2669876499175293, 0.050391718713518927
0.09406281512812935, -0.2837086706396421, 0.05043465782493179
0.022315358362381518, -0.2757961403030982, 0.05020252795211632
0.02493550965857554, -0.2832514015487388, 0.05021100533771553
0.04475613133217546, -0.2584780495122317, 0.05027513165521523
0.091191977569496, -0.2266799282035617, 0.050425367884776064
0.07676261536217117, -0.2885011509001092, 0.05037868540599894
0.05369408564025795, -0.2652147349121671, 0.05030404945529784
0.07931475667595222, -0.24283316913917302, 0.0503869411557632
0.06080810958070736, -0.2854258921839287, 0.050327066569526055
0.046955315259916586, -0.27850524061883153, 0.050282247433485895
-0.037190454167612685, -0.29342853902891874, 0.05001049177186426
-0.09494183917532802, -0.2957091034343533, 0.04982390606205847
-0.10572776176254017, -0.3218934770498139, 0.04979247819250733
-0.10526797365203414, -0.33562906103581247, 0.049795789680919404
-0.07741814530757297, -0.3045081833418942, 0.04988178244345949
