-0.49449339509010315, 0.10087954123765491, 0.14520631799875944
-0.4944933950901032, 0.229366888770365, -0.07555805194150782
-0.49449339509010315, 0.2463891189508408, -0.09326210368007665
-0.49449339509010315, 0.1828497237938203, 0.17632182909458036
-0.49449339509010315, 0.29562266771546497, 0.16750779670766416
-0.4944933950901032, 0.4156843169048118, 0.09857427240014116
-0.49449339509010315, 0.11648756410798888, 0.166260937030131
-0.49449339509010315, 0.15341133931069229, -0.11944236496197853
-0.49449339509010315, 0.3742676032368242, 0.12053812625281848
-0.49449339509010315, 0.29589046780291944, 0.17394763068475494
-0.4944933950901031, 0.3558993898090832, -0.028898045314176585
-0.49449339509010315, 0.7433712868036693, 0.1824742226650655
-0.49449339509010315, 0.40503238145676906, 0.07233046902406357
-0.4944933950901031, 0.21351755698982045, 0.09318214665362426
-0.49449339509010315, 0.6383778769636095, 0.17339991510373012
-0.49449339509010315, 0.2831777609768575, 0.13818265763871979
-0.49449339509010315, 0.08540141131785459, 0.048621329073829225
-0.49449339509010315, 0.23379775914734113, 0.08544468897213683
-0.49449339509010315, 0.341593509806616, -0.00899574961457858
-0.4944933950901032, 0.21655151089795138, 0.09577378589144381
-0.4944933950901031, 0.3749165109605579, -0.003096621251836849
-0.49449339509010315, 0.17461801934382995, -0.12062905496997492
-0.4944933950901032, 0.3933879119779719, -0.0054309353548292385
-0.49449339509010315, 0.0782958571309367, 0.1340586678760904
-0.49449339509010315, 0.41131272433720845, 0.17000646055959773
-0.4944933950901031, 0.4362021920455604, 0.18150733357029475
-0.4944933950901032, 0.16875293446129072, -0.1028647495812512
-0.49449339509010315, 0.3711232996526232, 0.09048077286074876
-0.49449339509010315, 0.1536661410058325, 0.12988473787106844
-0.49449339509010315, 0.3967917665231866, 0.07127491872772959
-0.49449339509010315, 0.28874515605998363, 0.12175945481176821
-0.49449339509010315, 0.30869737073395775, 0.02752213273951795
-0.4944933950901032, 0.2319614506711891, 0.13862340050777588
-0.49449339509010315, 0.12067071755748268, 0.09852949002551029
-0.49449339509010315, 0.383772384659207, 0.023072595024369452
-0.49449339509010315, 0.6241911480398634, 0.10568712778222829
-0.49449339509010315, 0.33667513515220904, 0.1600382988056151
-0.49449339509010315, 0.5888142500177397, 0.12737888894631602
-0.4944933950901031, 0.2102216028364945, -0.07145685849719946
-0.49449339509010315, 0.13476833748217001, 0.1490643313604954
-0.4944933950901031, 0.16999197516570452, -0.017582676032956962
-0.4944933950901032, 0.4822501858372533, 0.04731267134682972
-0.4944933950901032, 0.6017830074857654, 0.18491112073760552
-0.4944933950901032, 0.3853368692690165, 0.007179631029967912
-0.49449339509010315, 0.405123497870327, 0.15699431571362185
-0.49449339509010315, 0.30239441181934595, 0.16037079660805406
-0.49449339509010315, 0.09907945534086136, 0.013491134083632492
-0.49449339509010315, 0.08182016300230806, -0.05563649488227833
-0.49449339509010315, 0.35295080633959813, 0.13793132207988668
-0.49449339509010315, 0.14420752655731486, -0.07774535195873733
-0.49449339509010315, 0.128026227103569, 0.07313311855790205
-0.49449339509010315, 0.11163695151686844, -0.015355755682679315
-0.4944933950901032, 0.4848994003545409, 0.19127711584627427
-0.49449339509010315, 0.18872830802454216, 0.11060399815018858
-0.49449339509010315, 0.11713800702496485, 0.028293025733127905
-0.49449339509010315, 0.2770692143937127, 0.19074586382347758
-0.49449339509010315, 0.37012572270116184, 0.15397876635381452
-0.4944933950901032, 0.5660712729219545, 0.12665614555361973
-0.4944933950901031, 0.28298165153987914, -0.03504520107529567
-0.49449339509010315, 0.326166774173741, -0.02595261435875657
-0.49449339509010315, 0.32987230711786136, 0.026027227239344815
-0.49449339509010315, 0.1778722133638592, 0.08953942285806213
-0.4944933950901032, 0.311573449585192, -0.0598706752133885
-0.49449339509010315, 0.5687911843552049, 0.10072961301106464
-0.49449339509010315, 0.31238651730947686, 0.09922114273322094
-0.49449339509010315, 0.3233923311521221, 0.18720511411339255
-0.49449339509010315, 0.25595151352896733, 0.03187585397463926
-0.49449339509010315, 0.07550793498060931, -0.10959295694050385
-0.4944933950901032, 0.3693605126317159, 0.08268564824480715
-0.49449339509010315, 0.33426629665863755, -0.03739785321120887
-0.4944933950901031, 0.07145756475330149, 0.16563660573019662
-0.49449339509010315, 0.23840742977120888, 0.08621845551500704
-0.49449339509010315, 0.20177120811742755, 0.14439694622789367
-0.4944933950901032, 0.11420341735020592, 0.19813996546078447
-0.49449339509010315, 0.5074254443557273, 0.18729400854342204
-0.49449339509010315, 0.19444171329898713, 0.12875992128497524
-0.49449339509010315, 0.29696199604766005, 0.043716094890260675
-0.49449339509010315, 0.0894259858614071, -0.041218674348104875
-0.49449339509010315, 0.6243554903010542, 0.17871621932111356
-0.4944933950901031, 0.1450036218051805, 0.004997764489932763
-0.49449339509010315, 0.2939653250552019, 0.11707240468443182
-0.4944933950901031, 0.15882588583876672, 0.09548845289258251
-0.4944933950901032, 0.47178560802151376, 0.19926668125468622
-0.49449339509010315, 0.5396335694839921, 0.0702494482945888
-0.49449339509010315, 0.2547789922196737, -0.022822495260549115
-0.49449339509010315, 0.4232508671817232, 0.15246549394172515
-0.49449339509010315, 0.3698056284672654, 0.10995617611882327
-0.49449339509010315, 0.20308574781004515, 0.1827044906885395
-0.49449339509010315, 0.31808388283198286, 0.10044929227159355
-0.4944933950901032, 0.18871581109811117, -0.07887909240714297
-0.49449339509010315, 0.708508638306206, 0.199260681648591
-0.49449339509010315, 0.11807429377070335, -0.1535767605039124
-0.49449339509010315, 0.24975856687820466, 0.06084736053552127
-0.49449339509010315, 0.4716088594764378, 0.09924588509053764
-0.49449339509010315, 0.7031501908062484, 0.15431790934823097
-0.49449339509010315, 0.5298878701717699, 0.1331300915829694
-0.4944933950901031, 0.12440751704071559, -0.03686262304410107
-0.49449339509010315, 0.1555787643530117, -0.051051752190072026
-0.49449339509010315, 0.5531113020240723, 0.1106964865993436
-0.49449339509010315, 0.13250879077646643, 0.048463130386700276
-0.4944933950901031, 0.5627786384235343, 0.15083949727767224
-0.49449339509010315, 0.3328587438106877, 0.002598604174503482
-0.49449339509010315, 0.12986547466906476, 0.021756092504135877
-0.4944933950901031, 0.6180338204518275, 0.11021385306233433
-0.49449339509010315, 0.31033999440489685, 0.12877877358789402
-0.49449339509010315, 0.1578080533852364, 0.0312641756335515
-0.4944933950901031, 0.454232108758675, 0.06285194969701056
-0.49449339509010315, 0.08063676959425792, 0.14509052971861275
-0.4944933950901031, 0.5493380078155751, 0.07155770511420238
-0.49449339509010315, 0.26176389908920217, 0.13097079692784497
-0.49449339509010315, 0.686079967858306, 0.17021896004483922
-0.49449339509010315, 0.24234386559278182, 0.060213656707441325
-0.49449339509010315, 0.15224231048727835, 0.06625614857616405
-0.49449339509010315, 0.4655462675164803, 0.13288538784095955
-0.49449339509010315, 0.2367577407720899, 0.10381203603373268
-0.4941146357901168, 0.4299931814906855, 0.20022342080961372
-0.4944933950901031, 0.41829331992480284, -0.014954352174045836
-0.4944933950901032, 0.22903508214676774, -0.1222024315535426
-0.49449339509010315, 0.7556451055147233, -0.11821839993871458
-0.49449339509010315, 0.7102060658806673, 0.0612361858742401
-0.49449339509010315, 0.5039001471342356, 0.02528774721216875
-0.4944933950901032, 0.25208166902670687, -0.11105670078654156
-0.49449339509010315, 0.5830830131573018, -0.18570230379433111
-0.49449339509010315, 0.30448926046563357, -0.075614523612846
-0.49449339509010315, 0.48453896075255204, 0.01756263179327829
-0.49449339509010315, 0.17629419042025707, -0.18186945399012336
-0.4944933950901031, 0.7858320757536996, 0.10490048625572321
-0.49449339509010315, 0.6510079333689379, 0.01313081111226791
-0.49449339509010315, 0.6836907917328321, -0.11355872317194948
-0.49449339509010315, 0.6294122247027549, -0.06033062435521394
-0.4944933950901031, 0.25047418405294763, -0.16683784457268572
-0.49449339509010315, 0.5240065375289253, -0.060332711934887755
-0.49449339509010315, 0.7254140643680685, -0.05255463435194267
-0.49449339509010315, 0.7627074992409558, 0.11305713179506892
-0.49449339509010315, 0.5293768357425415, -0.04240747994002582
-0.49449339509010315, 0.5496634235802044, -0.14187055323936626
-0.49449339509010315, 0.30123551641989177, -0.14074962639987282
-0.49449339509010315, 0.7750306663624951, -0.1558621219085385
-0.49449339509010315, 0.6463373233607203, -0.14854023968636398
-0.49449339509010315, 0.7657004794512403, -0.026219285004938697
-0.49449339509010315, 0.4638243897796549, -0.1633772520659846
-0.49449339509010315, 0.7379466635022879, 0.014670078790621932
-0.4944933950901032, 0.7800722033990501, 0.0413680015522853
-0.49449339509010315, 0.7411092022036272, 0.06810089158189286
-0.49449339509010315, 0.657927074279355, -0.0014400349068069418
-0.49449339509010315, 0.5240037871915475, -0.06137085110079997
-0.4944933950901031, 0.5764035481729654, 0.010284751312345741
-0.49449339509010315, 0.5004353618660096, -0.09098581359703806
-0.49449339509010315, 0.1190886056033887, -0.19377970143086162
-0.49449339509010315, 0.4145768541639725, -0.075821212460116
-0.49449339509010315, 0.29323109259064845, -0.11609651127706144
-0.4944933950901031, 0.364422595604933, -0.0421976557801026
-0.49449339509010315, 0.6397742859618696, -0.031605073429337466
-0.49449339509010315, 0.5993570697964118, -0.145320383482197
-0.49449339509010315, 0.7038980033946531, 0.08133463922795348
-0.4944933950901031, 0.6017530035458845, -0.0828620411465906
-0.49449339509010315, 0.5420914702053216, -0.19409069251097905
-0.49449339509010315, 0.6859304675704213, -0.15845787021567456
-0.49449339509010315, 0.483584588231952, -0.06180155163804624
-0.49449339509010315, 0.45168849730042604, -0.1267543436038071
-0.49449339509010315, 0.4545444542837648, -0.0016155975290761404
-0.4944933950901032, 0.6790840372541449, -0.08730698203996684
-0.49449339509010315, 0.6419572208747956, -0.15631123607970554
-0.49449339509010315, 0.1315912782424131, -0.18645664138303672
-0.49449339509010315, 0.43732310973467575, -0.18202252741859049
-0.49449339509010315, 0.6776707873091695, -0.04820018051170476
-0.49449339509010315, 0.19065896950500472, -0.18579111473840013
-0.49449339509010315, 0.5031248582065264, 0.001572642742036827
-0.49449339509010315, 0.3934979234944982, -0.06893743524086972
-0.49449339509010315, 0.7289316839453259, 0.0005992467141841817
-0.49449339509010315, 0.6070628093764616, -0.05538673599530731
-0.49449339509010315, 0.23663134654537635, -0.1702089748340836
-0.49449339509010315, 0.3595572908993687, -0.11013650785182785
-0.49449339509010315, 0.4382057618265946, -0.14989015053287594
-0.49449339509010315, 0.2655385657333905, -0.13876232686890697
-0.49449339509010315, 0.5315118269933357, -0.025895678776077694
-0.49449339509010315, 0.6108724126909404, -0.06234754191579286
-0.49449339509010315, 0.5605066213235075, -0.19269469773891373
-0.49449339509010315, 0.613597253403493, -0.11402679844165786
-0.4944933950901031, 0.4212633901982583, -0.006176591497034275
-0.49449339509010315, 0.1366456518877712, -0.16891168242316362
-0.49449339509010315, 0.6100904662427549, -0.11686442413236477
-0.49449339509010315, 0.7835019872683199, -0.07548579486488924
-0.4944933950901031, 0.7511549318548034, 0.08945657153342709
-0.49449339509010315, 0.3760582618903022, -0.17091157021626335
-0.49449339509010315, 0.5341135101703995, 0.046372184838195885
-0.49449339509010315, 0.6072434265236877, -0.14445585859989546
-0.4944933950901032, 0.6307914221254458, -0.17455195928000822
-0.49449339509010315, 0.45450784698501445, -0.08017478211257115
-0.49449339509010315, 0.7773477972252293, 0.12342223426303767
-0.49449339509010315, 0.576140883570831, -0.02410058806439872
-0.49449339509010315, 0.23799575541412538, -0.16070606529678763
-0.49449339509010315, 0.781570133902752, -0.07332271391404949
-0.49449339509010315, 0.5927122764597321, -0.18269346852926088
-0.49449339509010315, 0.5883529445673351, -0.09970753043608525
-0.49449339509010315, 0.7830362964237387, -0.0617808559661822
-0.49449339509010315, 0.2667630501454573, -0.15412952798256085
-0.49449339509010315, 0.6846730570097506, -0.12364875069158335
-0.4944933950901032, 0.3011492825251434, -0.16916556410882858
-0.49449339509010315, 0.7044463454087513, 0.07553613311174674
-0.4944933950901031, 0.37310690286195974, -0.03440759639084261
-0.4944933950901032, 0.41670212180832344, -0.05883217391075865
-0.49449339509010315, 0.5681850743640434, 0.01633013449375059
-0.49449339509010315, 0.4936059865700951, -0.14559555664921223
-0.4944933950901031, 0.6997170994483803, 0.048127390327031894
-0.49449339509010315, 0.7414125451185727, -0.11654534108309372
-0.4944933950901032, 0.42116553560436876, -0.025044683465642405
-0.49449339509010315, 0.5012355588936905, -0.18162081235013766
-0.49449339509010315, 0.5172677539461383, -0.1784232992843926
-0.49449339509010315, 0.14035584065858295, -0.18220302734828342
-0.49449339509010315, 0.28877111443242587, -0.10083593500455183
-0.4944933950901032, 0.21033155099737347, -0.12105197784597395
-0.49449339509010315, 0.43398961797364405, -0.17006630673318127
-0.49449339509010315, 0.5065961346712589, -0.10013494099382986
-0.4944933950901031, 0.6636870631281395, 0.08630553188967949
-0.49449339509010315, 0.7912658337784055, 0.04598277572521692
-0.4944933950901032, 0.7363393425153691, 0.031581407959471924
-0.49449339509010315, 0.16027031963998384, -0.19221223892357073
-0.49449339509010315, 0.6729735443538393, 0.016712935655714536
-0.49449339509010315, 0.7032483128461894, -0.1754863527752778
-0.49449339509010315, 0.4097419464137859, -0.145087939987786
-0.49449339509010315, 0.4327084168068815, -0.1573441552141076
-0.49449339509010315, 0.3628090745788535, -0.0407919124261266
-0.49449339509010315, 0.4584711640612997, -0.1456289298006631
-0.49449339509010315, 0.7391528761194077, -0.09403562492510091
-0.49449339509010315, 0.5958936912120067, 0.02017425895142172
-0.49449339509010315, 0.15655046757557295, -0.1920861027282813
-0.49449339509010315, 0.49866025345261933, -0.07626943280857715
-0.49449339509010315, 0.6410432763626648, -0.14149910448285868
-0.49449339509010315, 0.7193396275198257, -0.1163915291384839
-0.49449339509010315, 0.48254640688780237, -0.1274564908450768
-0.49449339509010315, 0.7370008915525776, 0.05654772517107967
-0.49449339509010315, 0.6681092258042828, -0.04839349297716743
-0.4944933950901031, 0.33404556001679764, -0.17525798387454689
-0.49449339509010315, 0.657528087067123, -0.08088413779355907
-0.49449339509010315, 0.7527934274832443, -0.03738227043714662
-0.49449339509010315, 0.7600566145985262, 0.019547310022258207
-0.49449339509010315, 0.36239213530776926, -0.1393727888384374
-0.49449339509010315, 0.7578209960383634, -0.18434692586276957
-0.49449339509010315, 0.4846508741649215, -0.0498329131951212
-0.49449339509010315, 0.548945726160636, 0.06332805984448843
-0.49449339509010315, 0.44810609152413877, -0.038832063999447455
-0.4944933950901031, 0.7499663701274977, -0.035749709581243294
-0.4944933950901032, 0.7445036829609801, 0.030690237270907653
-0.49449339509010315, 0.47193217311758845, -0.11912910724579749
-0.4944933950901031, 0.6096931102585292, 0.0931527889838751
-0.49449339509010315, 0.487510683566443, 0.016882763637250848
-0.49449339509010315, 0.4021485262776138, -0.193999448058916
-0.49449339509010315, 0.7137566445676296, 0.03932293047737189
-0.49449339509010315, 0.41051102568970155, -0.1371461716523938
-0.49449339509010315, 0.26189382377949555, -0.15186361085526642
-0.49449339509010315, 0.3875063143847957, -0.05685327048507137
-0.49449339509010315, 0.6986878492620517, 0.14335837013676106
-0.49449339509010315, 0.6515376673822416, 0.10538278182311685
-0.49449339509010315, 0.2916185963639644, -0.1297346112059037
-0.4944933950901031, 0.3435393556197029, -0.07301723386686956
-0.49449339509010315, 0.5273758227238275, -0.165921933032391
-0.49449339509010315, 0.23158285957536073, -0.16377583150931474
-0.49449339509010315, 0.765290525337549, 0.1660421318552498
-0.49449339509010315, 0.4599271194673561, -0.13704209803464357
-0.49449339509010315, 0.7449704604158338, -0.026749074985892143
-0.49449339509010315, 0.6949354312646191, -0.07796953477978234
-0.49449339509010315, 0.5423774609259959, -0.0621304553565544
-0.49449339509010315, 0.7843780631589041, 0.10678701675362438
-0.4944933950901031, 0.5348445042060658, 0.04815893281098922
-0.49449339509010315, 0.5028083234331396, -0.023812643170305584
-0.49449339509010315, 0.5650184437830222, -0.06402146681486953
-0.49449339509010315, 0.24808777049515876, -0.13895061147042825
-0.4944933950901032, 0.34682473088401816, -0.18760680394315465
-0.49449339509010315, 0.6939311368887111, -0.17266340841196232
-0.4944933950901031, 0.4106363929788835, -0.04155106371605288
-0.49449339509010315, 0.7753017041044478, -0.020796948722137804
-0.4944933950901031, 0.5203508443405359, 0.021130613625558847
-0.49449339509010315, 0.7910139048314258, -0.0011854375578934512
-0.4944933950901032, 0.3262626911425782, -0.07864911561775138
-0.49449339509010315, 0.45841493145294676, -0.0011097536019429814
-0.49449339509010315, 0.5401331841526164, -0.14582140610875943
-0.49449339509010315, 0.38354607064198915, -0.1937451531800836
-0.49449339509010315, 0.17798000107996811, -0.13993205656888044
-0.49449339509010315, 0.17590456890000825, -0.1448867251910753
-0.49449339509010315, 0.6218074831252143, -0.04641711504621742
-0.49449339509010315, 0.5265308666871088, -0.13691418574276792
-0.49449339509010315, 0.7396956931086328, -0.10528411449222166
-0.49449339509010315, 0.7874085303625431, -0.10053766028201896
-0.4944933950901032, 0.44408055620545467, -0.03463847800118458
-0.4944933950901032, 0.24587381532466002, -0.1569246909034292
-0.49449339509010315, 0.3832642376664678, -0.07002734425597945
-0.49449339509010315, 0.25067963351229816, -0.14505088065932986
-0.49449339509010315, 0.6818085604272328, -0.07066556918302251
-0.4944933950901032, 0.6605775826019314, 0.11762015144808605
-0.49449339509010315, 0.7583334042386768, -0.1352353145642671
-0.49449339509010315, 0.5134698950923282, -0.010396316236351146
-0.49449339509010315, 0.7320490549531802, -0.045108868985954016
-0.49449339509010315, 0.7884463421164293, 0.14542957279247015
-0.49449339509010315, 0.7808784194217672, -0.14660956789456062
-0.49449339509010315, 0.7670609104906745, -0.0993064347385666
-0.49449339509010315, 0.638736382543492, -0.16211434414882384
-0.49449339509010315, 0.7087441428678617, -0.13878490815839645
-0.49449339509010315, 0.7883908810878203, 0.00823576049424736
-0.4944933950901031, 0.5903172936961679, -0.026245837639451285
-0.49449339509010315, 0.3374680755928624, -0.14314617877843908
-0.4944933950901032, 0.7780188806631697, 0.09721432770251995
-0.4944933950901031, 0.5402805794652625, 0.03687283915907289
-0.49449339509010315, 0.7584648960731928, 0.0197993338156717
-0.4944933950901032, 0.3919440071097748, -0.021079190929121246
-0.49449339509010315, 0.528571765151619, -0.14886596254219986
-0.4944933950901031, 0.7681197869575201, 0.018323782390253632
-0.49449339509010315, 0.5181942116481713, -0.08225932779814268
-0.49449339509010315, 0.6068537258081318, -0.09121611565873207
-0.49449339509010315, 0.2735577392732076, -0.14808076455791785
-0.49449339509010315, 0.4292227396404421, -0.15722161296267625
-0.4944933950901031, 0.18288922796824836, -0.16515707984384936
-0.49449339509010315, 0.6486158749895584, 0.09194954233469056
-0.49449339509010315, 0.4555083590079746, -0.17614820765635775
-0.49449339509010315, 0.2550615975216928, -0.12864920868535548
-0.49449339509010315, 0.7765975442390304, -0.16950865671097742
-0.49449339509010315, 0.5764454506775039, -0.12973723367684514
-0.49449339509010315, 0.6206732406002744, -0.007897788455906413
-0.49449339509010315, 0.36882468354889025, -0.08893790294313365
-0.49449339509010315, 0.38646999658947956, -0.09301685389783197
-0.49449339509010315, 0.7232480627804089, -0.14095336036030282
-0.49449339509010315, 0.19058254278189274, -0.17660069897566189
-0.49449339509010315, 0.788268776640713, -0.19561728897361658
-0.49449339509010315, 0.604115583742252, -0.1947911523826385
-0.49412720082546036, 0.06840345383321142, 0.07215361071299076
-0.49424729162463954, 0.6182150516142997, 0.19990315826965052
-0.48957174879006576, 0.06749068200588226, 0.18982115569502628
-0.4918904552922897, 0.06749068200588226, 0.010899219630438717
-0.4906957544362384, 0.06749068200588226, 0.06525094200026366
-0.4918087460136321, 0.06749068200588226, -0.12050070686424862
-0.4921688530663626, 0.7986509799957275, 0.1652119121180837
-0.4912196138612822, 0.7986509799957275, -0.16352885938175027
-0.4911811017534625, 0.7986509799957275, 0.052654380887355835
-0.48933314530839433, 0.7986509799957275, -0.09790073451396096
-0.4841320194188807, 0.7673256894680467, 0.20110586285591125
-0.4814895135047411, 0.4416358894618462, 0.20110586285591125
-0.485803358672717, 0.7857792299502366, 0.20110586285591125
-0.486403708113463, 0.7853993014125296, 0.20110586285591125
-0.48962339096566776, 0.6618909433318535, 0.20110586285591128
-0.47902878351607775, 0.25251924778858004, 0.20110586285591123
-0.4892955066918907, 0.627974534097537, 0.20110586285591128
-0.48134168292532875, 0.23343190305398076, 0.20110586285591128
-0.47652304172515864, 0.4955463946743139, -0.08419490789152091
-0.4765230417251587, 0.1527490131799471, 0.08716892823913296
-0.4765230417251587, 0.3268285965413454, -0.009144888997097027
-0.4765230417251587, 0.35833197384449395, -0.08098741608676735
-0.4765230417251587, 0.12185935409363208, -0.13130401755306464
-0.4765230417251587, 0.20961775309248437, 0.0037924363300426076
-0.4765230417251587, 0.4959644675330502, -0.1807517883036585
-0.4765230417251587, 0.3548818193312963, -0.17508899561231522
-0.4765230417251587, 0.23835514137859282, 0.027619540511386584
-0.4765230417251587, 0.20151077153525332, -0.1858414035265898
-0.47652304172515864, 0.3075510977971111, 0.05239759215669275
-0.4765230417251587, 0.09518757384689999, -0.08792582884833432
-0.4765230417251587, 0.3800037809521885, -0.12313744392953468
-0.4765230417251587, 0.24094582022154507, -0.0499022375667079
-0.4765230417251587, 0.5153064479275646, -0.0972074416328222
-0.4765230417251587, 0.2996154474611038, -0.006500730905318483
-0.4765230417251587, 0.13325867308705655, -0.08868040145532076
-0.47652304172515875, 0.10354749085964392, 0.02709277376425666
-0.4765230417251587, 0.3404194729947359, -0.09986096862702826
-0.4765230417251587, 0.49665098030963395, -0.18252638528560577
-0.4765230417251587, 0.37148986408316503, -0.019780441524843855
-0.4765230417251587, 0.2859673008046444, -0.1314748885752429
-0.4765230417251587, 0.587860702245342, -0.19382044224945127
-0.4765230417251587, 0.17336040514232556, -0.02976300689685825
-0.4765230417251587, 0.27694595317050674, -0.06210627070153012
-0.4765230417251587, 0.3431885434942661, -0.057459616864748604
-0.4765230417251587, 0.44760609776983223, -0.09527272473003731
-0.4765230417251587, 0.18993834967560908, -0.0858019632216408
-0.4765230417251587, 0.47500960371637646, -0.06465434084992282
-0.4765230417251587, 0.1766975895850547, 0.006687304065636751
-0.4765230417251587, 0.3891861595012135, -0.0918092356512541
-0.4765230417251587, 0.5677519523522923, -0.16671491245125947
-0.4765230417251587, 0.4623526636971154, -0.10201329770657072
-0.4765230417251587, 0.26140290251950377, -0.022588739840419127
-0.4765230417251587, 0.5370127655730905, -0.17699880119131958
-0.4765230417251587, 0.099826530698956, -0.15045663809391427
-0.4765230417251587, 0.2031528679220413, 0.011505309503383056
-0.4765230417251587, 0.2613468810751345, 0.08186721119949864
-0.4765230417251587, 0.253813261186029, 0.03261448899946041
-0.4765230417251587, 0.26582570878347894, -0.15104826654740208
-0.4765230417251587, 0.5882820288377214, -0.1749726163881034
-0.4765230417251587, 0.22933802865887543, -0.07004461051304416
-0.4765230417251587, 0.1715026238217149, -0.0696909623251483
-0.47652304172515864, 0.4749714031579764, -0.17806733689659124
-0.4765230417251587, 0.0703497772198324, 0.052722416741371333
-0.4765230417251587, 0.2843778587188128, -0.0875542820080491
-0.4765230417251587, 0.11762031006651125, 0.12317980267128933
-0.4765230417251587, 0.33118031425040156, -0.02699354815569433
-0.4765230417251587, 0.5983707709854547, -0.1831266574644544
-0.4765230417251587, 0.7036659450409697, -0.16585565179476403
-0.4765230417251587, 0.3171133725047695, -0.041012443096188206
-0.4765230417251587, 0.43469814084366565, -0.12224161224547148
-0.4765230417251587, 0.08484631635387285, 0.004026074699038859
-0.4765230417251587, 0.2565164872603761, -0.19015802766262038
-0.4765230417251587, 0.2038901357910677, -0.019696152951450017
-0.4765230417251587, 0.2723153855844666, -0.03942623258474045
-0.4765230417251587, 0.2163378902936923, -0.042352305445352234
-0.4765230417251587, 0.1008652818431027, -0.03851568727820885
-0.4765230417251587, 0.5851466645685695, -0.19564072020590959
-0.4765230417251587, 0.31444233300775076, -0.02411796391574706
-0.4765230417251587, 0.11249149943745476, 0.10815680082760287
-0.47652304172515875, 0.07082183584026001, -0.11798407253310322
-0.4765230417251587, 0.551190123763371, -0.15127571719213162
-0.47652304172515875, 0.6049683075654282, -0.10914908376796928
-0.4765230417251587, 0.13492724725563723, -0.10453509725556487
-0.4765230417251587, 0.3114097630345797, 0.007788180422727546
-0.4765230417251587, 0.6438394810592435, -0.1392389705287424
-0.4765230417251587, 0.15554997686148606, -0.016932111198237954
-0.47652304172515864, 0.08341911561565911, 0.04533169640884867
-0.4765230417251587, 0.11110298895858342, -0.12772692816990283
-0.4765230417251587, 0.26029595830640045, -0.15912919522018032
-0.47652304172515875, 0.5259638212700648, -0.1352929460247509
-0.4765230417251587, 0.23223385999614016, -0.07532884210964372
-0.4765230417251587, 0.13332649705582206, -0.07829170518950211
-0.4765230417251587, 0.2571662798971893, -0.04178961821553097
-0.4765230417251587, 0.13918807892975948, -0.11839563307010408
-0.4765230417251587, 0.25102666285833136, -0.11994792835459661
-0.47652304172515864, 0.13100459669502254, -0.06018456352323539
-0.4765230417251587, 0.07925982810949296, 0.1857914560440941
-0.47652304172515875, 0.22858474431585762, 0.07316220734235943
-0.4765230417251587, 0.23152343884932433, -0.010138719903606382
-0.4765230417251587, 0.08366196206500895, -0.04315818541491932
-0.4765230417251587, 0.2284889315044985, -0.14378312278321742
-0.4765230417251587, 0.1707536109323325, -0.07262223167138009
-0.4765230417251587, 0.23641447569287613, 0.037987749783690274
-0.4765230417251587, 0.25916411112542453, 0.05249080750093252
-0.47652304172515864, 0.4807243593994899, -0.09327518306301578
-0.4765230417251587, 0.40243413391749483, -0.11959572480834796
-0.4765230417251587, 0.1405363661028025, -0.06939684634572361
-0.47652304172515875, 0.6716815925461055, -0.1790873344453568
-0.4765230417251587, 0.26245415154357055, -0.03774876091255167
-0.4765230417251587, 0.6167334268552876, -0.1369668029633147
-0.4765230417251587, 0.09317241964545536, -0.038166540913888894
-0.4765230417251587, 0.2694621527007489, -0.12714496749353277
-0.4765230417251587, 0.2873388158682868, -0.15415551615832218
-0.4765230417251587, 0.28800889535993984, -0.13764401852089936
-0.4765230417251587, 0.08924187267954017, -0.190044771902196
-0.47652304172515875, 0.34165837728448145, -0.041915468168564854
-0.4765230417251587, 0.2513452222848365, -0.18345930272434352
-0.4765230417251587, 0.18941488671123444, 0.014644190041973898
-0.4765230417251587, 0.4441126627545996, -0.03030495681500755
-0.4765230417251587, 0.3267975499007847, 0.04632956388465133
-0.4765230417251587, 0.3179914922288516, -0.18722899154748812
-0.47652304172515875, 0.21640661150935003, 0.09070315385921118
-0.4765230417251587, 0.28169183260703096, -0.0020386201036845936
-0.4765230417251587, 0.40522992778680017, 0.009254563866124898
-0.4765230417251587, 0.22077470897132184, -0.0912848996640227
-0.4765230417251587, 0.26939996728652005, -0.02861271472515301
-0.4765230417251587, 0.4769912673848159, -0.13567554018692796
-0.4765230417251587, 0.5574882691966048, -0.1565793149815058
-0.4765230417251587, 0.14591391038681523, -0.18461341778223564
-0.47652304172515864, 0.21454785683020003, 0.012591579674926842
-0.4765230417251587, 0.522934174554995, -0.09719133802582489
-0.47652304172515864, 0.33563684543541494, -0.1448938276156937
-0.4765230417251587, 0.33438003813228456, -0.1857928474881188
-0.4765230417251587, 0.25749154489554166, -0.054961996805255244
-0.4765230417251587, 0.3141027756473652, -0.176058870463024
-0.4765230417251587, 0.08983757067937606, 0.16333358424680228
-0.4765230417251587, 0.49474433818457714, -0.04025606738703081
-0.47652304172515875, 0.07951151872987701, 0.18557939806102836
-0.4765230417251587, 0.6469693462672188, -0.1304754531233965
-0.47652304172515864, 0.3481885899788653, 0.03465399522013442
-0.4765230417251587, 0.22716303033990629, 0.07098179855066442
-0.4765230417251587, 0.24586611787938467, 0.09631736739730111
-0.4765230417251587, 0.3640809693421139, -0.10326731325410879
-0.47652304172515864, 0.4810692573968014, -0.0931988140790953
-0.4765230417251587, 0.451122483934192, -0.1512965758253172
-0.4765230417251587, 0.12301976425496629, -0.08433373661139583
-0.47652304172515875, 0.40502788181092636, -0.0665972514192345
-0.4765230417251587, 0.21237817374140577, -0.09537646646588398
-0.47652304172515864, 0.5626060857452094, -0.1328364502138157
-0.4765230417251587, 0.3704858724351416, -0.07134039131951207
-0.4765230417251587, 0.3291207183943438, -0.03824424457195794
-0.4765230417251587, 0.3022265319697141, -0.1433083276634802
-0.47652304172515875, 0.378675309912393, 0.010068132371630002
-0.4765230417251587, 0.41132433910491895, -0.19567239395106856
-0.47652304172515875, 0.2061664413183529, 0.0827250610372724
-0.4765230417251587, 0.3968308751321039, -0.11476864739943196
-0.4765230417251587, 0.7617458100604416, -0.1953538344972022
-0.4765230417251587, 0.1406466186387596, -0.10002449604467038
-0.47652304172515864, 0.5918078179349794, -0.14362517963107474
-0.47652304172515875, 0.1265824274195726, -0.18101484581508587
-0.4765230417251587, 0.4506272206025277, -0.10658366888093657
-0.4765230417251587, 0.27108576947280266, 0.07485188632844822
-0.4765230417251587, 0.29786831224246313, -0.18993434134337872
-0.47652304172515864, 0.3834879862401268, -0.11816943094290461
-0.47652304172515875, 0.6905854592519742, -0.1692652452185647
-0.4765230417251587, 0.1203132301434128, -0.09266697570641132
-0.47652304172515864, 0.1366900413789981, 0.04837033205148559
-0.4765230417251587, 0.16319610025747044, 0.12081405861891792
-0.4765230417251587, 0.6267620477952552, -0.16826429081786246
-0.4765230417251587, 0.10002427250287847, -0.1600237776402796
-0.4765230417251587, 0.2536533565974713, 0.08996660240066798
-0.4765230417251587, 0.16098405728174695, -0.17016997023705568
-0.4765230417251587, 0.08960182264429553, 0.07890254650978382
-0.4765230417251587, 0.5665374540878506, -0.17686304195604016
-0.4765230417251587, 0.18450990988063024, -0.09733505410752046
-0.4765230417251587, 0.15016611417877526, -0.1280263298407218
-0.47652304172515875, 0.1104678469242434, 0.14900754338725425
-0.4765230417251587, 0.3523674463512764, -0.030159626920224773
-0.4765230417251587, 0.2701202811935145, -0.03437818118367331
-0.47652304172515875, 0.38246370923302037, -0.019582484660018912
-0.4765230417251587, 0.6569240578893986, -0.13152987876908667
-0.47652304172515875, 0.30950509260725384, -0.17347509899979363
-0.4765230417251587, 0.3530725019545211, -0.07115274909673204
-0.4765230417251587, 0.12453261165524973, -0.183166587114055
-0.4765230417251587, 0.14933865790628878, -0.07698447916837928
-0.47652304172515864, 0.08690809723351386, 0.11240733421046989
-0.47652304172515864, 0.36934238846883016, -0.004266520753261675
-0.4765230417251587, 0.5092275319114802, -0.12388315133296705
-0.4765230417251587, 0.4111405451923179, -0.16268771403716187
-0.4765230417251587, 0.2057225821718065, -0.1838004563085378
-0.4765230417251587, 0.17910808175412918, 0.014364389464019398
-0.4765230417251587, 0.09100751589392915, 0.11413079280788394
-0.47652304172515864, 0.15125382608337953, 0.03824256170627338
-0.47652304172515864, 0.24166240056470667, 0.09768830615505726
-0.4765230417251587, 0.2576568004276422, -0.0017424094593856063
-0.4765230417251587, 0.37370497629896327, -0.06984390853384517
-0.4765230417251587, 0.20557749571454498, -0.14072161809667777
-0.4765230417251587, 0.2962858634973332, -0.1738780121858139
-0.4765230417251587, 0.12232959920590553, -0.15319871807410987
-0.4765230417251587, 0.7030355474201653, -0.18298874081609368
-0.4765230417251587, 0.1329809644535333, -0.057479304646948656
-0.47652304172515875, 0.30917412888440815, -0.032630186177935686
-0.4765230417251587, 0.20187168989007545, -0.11432287900577381
-0.4765230417251587, 0.07192433059585336, 0.08731461648094788
-0.4765230417251587, 0.3186888811960826, -0.028128244052947657
-0.4765230417251587, 0.470178789683017, -0.17719439304871237
-0.4765230417251587, 0.15988871038173935, 0.09695943641222307
-0.4765230417251587, 0.2498757329081336, -0.15998024426776558
-0.4765230417251587, 0.2107314873585956, -0.15340446416822034
-0.4765230417251587, 0.116783251113146, 0.11131519131765154
-0.4765230417251587, 0.26362119750182506, -0.020774536261022998
-0.4765230417251587, 0.26730031396872517, 0.015811703186006013
-0.47652304172515875, 0.12192274951248196, 0.021374956907081896
-0.4765230417251587, 0.134502558664412, 0.07920481788669936
-0.4765230417251587, 0.19672190415181073, -0.06791426500508943
-0.4765230417251587, 0.5766395462938982, -0.12032066498172231
-0.47652304172515875, 0.16166667296737255, 0.144183488682984
-0.4765230417251587, 0.10515525677297127, -0.13997439369893117
-0.47652304172515875, 0.25340723308699686, 0.0688924908862559
-0.4765230417251587, 0.3536529106865235, -0.1192701698263424
-0.4765230417251587, 0.25218403612868223, -0.19269462756189543
-0.4765230417251587, 0.07533256086368871, 0.0892387068195272
-0.4765230417251587, 0.3231570439947165, -0.12813350213845381
-0.4765230417251587, 0.20195950968509963, -0.09817894846376665
-0.4765230417251587, 0.3126224274069359, -0.1452556023283029
-0.4765230417251587, 0.10628765020665384, 0.14080507952995175
-0.4765872492263869, 0.7970090944901302, -0.10672547958454581
-0.4826104844537001, 0.7986509799957277, -0.06778025767985663
-0.47967375010260893, 0.7986509799957275, 0.10093828814268557
-0.4879561303978892, 0.7986509799957275, 0.1437925512489081
-0.47914828575668034, 0.7986509799957275, -0.13177811574691545
-0.47776898175557453, 0.7984227783186989, -0.15544257433468783
-0.49314359847672656, 0.0676758549835737, -0.0613405116263651
-0.47694433556401483, 0.1523988815077402, 0.20032610924019487
-0.4769165132110024, 0.7978040342217174, 0.15446107580578972
-0.4878377478066528, 0.21661256138876167, 0.20110586285591125
-0.4906213620412992, 0.674428745650775, 0.20110586285591125
-0.4882508310592978, 0.25394290327186914, 0.20110586285591125
-0.4888131724941537, 0.34637683516862117, 0.20110586285591125
-0.4893577782657449, 0.4339640022915184, 0.20110586285591125
-0.49184986083347215, 0.6494084743903488, 0.20110586285591125
-0.4908921790099664, 0.4675608359084623, 0.20110586285591125
-0.47741847016488925, 0.7357057098083896, 0.20073247824582813
-0.4775183275526765, 0.08723351686833178, 0.20077384131058146
-0.48049145228444085, 0.06749068200588226, -0.09050766343360711
-0.4810059746684272, 0.06749068200588226, -0.04132281165972863
-0.4843438777699751, 0.06749068200588226, -0.08370956697611864
-0.4832826982850734, 0.06749068200588225, 0.06233802206148471
-0.47740922639234057, 0.06786789024407236, -0.023709615283235487
-0.4765230417251587, 0.5985856860286323, 0.07792018051209365
-0.47652304172515864, 0.7337906320492589, -0.13882520575347396
-0.4765230417251587, 0.4852106374703049, 0.12583816497076172
-0.4765230417251587, 0.6630987669457635, -0.04590892606409042
-0.4765230417251587, 0.6511033023834851, 0.013808881975508898
-0.4765230417251587, 0.253245707306914, 0.12093436885355788
-0.4765230417251587, 0.6548870557081794, 0.09498843806786827
-0.4765230417251587, 0.3943585849290121, 0.13450041347843822
-0.4765230417251587, 0.6334843455657833, 0.1373170112806421
-0.4765230417251587, 0.6867477708082997, 0.16841652856244171
-0.4765230417251587, 0.6021063902220773, 0.03438862882494868
-0.47652304172515864, 0.36839200603322164, 0.12322250509088316
-0.47652304172515864, 0.4468895135236129, 0.11383289161731566
-0.4765230417251587, 0.5445592727649589, 0.18761003897425724
-0.4765230417251587, 0.3852856195605508, 0.053218316678848764
-0.4765230417251587, 0.1487783201243386, 0.15642689722378567
-0.4765230417251587, 0.3240023200760055, 0.16881559637541474
-0.4765230417251587, 0.6486814483394922, 0.1655527608678616
-0.4765230417251587, 0.7258469750127757, -0.024677003485459315
-0.4765230417251587, 0.6652526036785378, 0.155980826721041
-0.4765230417251587, 0.19072108058925413, 0.16123964640218838
-0.47652304172515864, 0.5697070264783735, 0.07676263118747174
-0.4765230417251587, 0.7481097249211819, -0.09781048444104379
-0.4765230417251587, 0.6626590235497662, 0.03918236396765815
-0.4765230417251587, 0.36131592126356094, 0.16279100059875096
-0.4765230417251587, 0.6488315757252179, 0.17544914299114656
-0.4765230417251587, 0.725502217447746, 0.07137396430009815
-0.4765230417251587, 0.5164078110833212, 0.18466482858838906
-0.4765230417251587, 0.2811127147725906, 0.08797615038555597
-0.4765230417251587, 0.6794383071542366, -0.05519114207386901
-0.4765230417251587, 0.724388882813075, 0.10715648661602838
-0.4765230417251587, 0.6083122272747206, 0.1882631136414134
-0.4765230417251587, 0.7952753351929318, 0.02995267508147123
-0.47652304172515875, 0.7072790832073558, 0.19818047882274042
-0.4765230417251587, 0.4566613227871451, 0.006051514477825114
-0.4765230417251587, 0.41246234062993464, 0.030714227947143527
-0.4765230417251587, 0.5184506398754902, -0.018595673782727327
-0.4765230417251587, 0.3284533090425884, 0.10789872070365707
-0.4765230417251587, 0.7666309717132985, -0.023409606329816784
-0.4765230417251587, 0.6563229836114906, -0.11935467073436565
-0.4765230417251587, 0.623221049331041, 0.08067433893321657
-0.4765230417251587, 0.24080424809833953, 0.17037846871861068
-0.4765230417251587, 0.725043074904048, 0.06755817040250786
-0.4765230417251587, 0.39168612449375423, 0.055851960778100396
-0.4765230417251587, 0.6429996598793329, 0.14614444479017707
-0.4765230417251587, 0.1418752913261222, 0.16658802317064764
-0.4765230417251587, 0.6389170817711209, -0.005523867315939415
-0.47652304172515864, 0.27299701432371276, 0.18890198910000605
-0.4765230417251587, 0.4318608773107854, 0.1793412829279925
-0.4765230417251587, 0.7213790602407795, 0.19716267074093144
-0.4765230417251587, 0.4344463303645536, 0.1975560022338907
-0.47652304172515864, 0.08766155025989927, 0.19916310871232124
-0.4765230417251587, 0.4049172280908066, 0.14480354551449365
-0.4765230417251587, 0.7745128058198468, -0.0501597829832678
-0.4765230417251587, 0.717573030328767, 0.17954131073903976
-0.4765230417251588, 0.3119583401275426, 0.15242642223497826
-0.4765230417251587, 0.4493123219073725, 0.05720359192160412
-0.4765230417251587, 0.671549641050901, 0.0012234115417829317
-0.4765230417251587, 0.7746547383391849, 0.1934420580354673
-0.4765230417251587, 0.6225582287194686, 0.18327751677724297
-0.4765230417251587, 0.6412640609163132, 0.1279873655712194
-0.4765230417251587, 0.6584795517631263, 0.05387910909604628
-0.4765230417251587, 0.626409112644558, 0.0040766783733593714
-0.4765230417251587, 0.4870892141175589, 0.13808079666204975
-0.4765230417251587, 0.6674566950365198, -0.020154144156985798
-0.4765230417251587, 0.5124091962942277, 0.14046980761795044
-0.4765230417251587, 0.5166457056146674, 0.12158903408814103
-0.4765230417251587, 0.42187105704365924, 0.12608068581509652
-0.4765230417251587, 0.6538654482659069, 0.02952266621389517
-0.4765230417251587, 0.6280993604968762, 0.15650544067829167
-0.4765230417251587, 0.4811205761429701, 0.018236059972199264
-0.4765230417251587, 0.7817077767310152, 0.01780286882440804
-0.4765230417251587, 0.6491732507770203, 0.18290342511427526
-0.4765230417251587, 0.625555942505588, -0.04736032626189497
-0.4765230417251587, 0.17356196118922163, 0.14939848615930099
-0.4765230417251587, 0.29255698184619017, 0.12546510405929645
-0.4765230417251587, 0.18570017254721155, 0.18827320810339487
-0.47652304172515875, 0.3469504514178924, 0.10077205557182167
-0.4765230417251587, 0.3884060520886118, 0.14338473086609568
-0.4765230417251587, 0.7724147191412797, -0.027486760625197143
-0.47652304172515875, 0.6712533893019293, -0.028938623345380284
-0.47652304172515875, 0.3551199432636888, 0.04969149061991955
-0.4765230417251587, 0.7595219423648405, 0.1978858704643266
-0.4765230417251587, 0.6612509951933478, 0.1779125378921321
-0.4765230417251587, 0.41208684379267657, 0.14029370807223315
-0.4765230417251587, 0.10599428058174964, 0.18518948685355058
-0.4765230417251587, 0.6657097774193179, -0.10072730540606023
-0.4765230417251587, 0.5828986534734323, 0.16521823429135557
-0.4765230417251587, 0.4730484902528582, 0.02890713552402397
-0.4765230417251587, 0.7003491002263814, -0.019986948986106083
-0.4765230417251587, 0.664407377279133, 0.11981984822289399
-0.4765230417251587, 0.3286417831220054, 0.17845231080302554
-0.4765230417251587, 0.7834946536123208, 0.06723181014222618
-0.4765230417251587, 0.454873763494906, 0.06779265773291772
-0.4765230417251587, 0.6127120471513487, 0.02163822630349411
-0.4765230417251587, 0.6035520170000694, 0.024831652901351205
-0.4765230417251587, 0.6243486920834627, 0.1819785556384249
-0.4765230417251587, 0.45750641982987017, 0.09296154818223848
-0.4765230417251587, 0.3354921416834287, 0.11209441160477743
-0.4765230417251587, 0.7027902720680986, 0.027620365336123484
-0.4765230417251587, 0.15785067440067815, 0.1545253338906869
-0.4765230417251587, 0.4891404916888401, 0.1621214227647844
-0.4765230417251587, 0.7673652110726217, -0.07322158501428222
-0.4765230417251587, 0.5937264547472442, 0.1175061311990438
-0.4765230417251587, 0.49174693000622866, 0.1295765836038393
-0.4765230417251587, 0.5576838307330413, 0.13275075086720206
-0.4765230417251587, 0.4398652286410719, 0.19099767379263957
-0.4765230417251587, 0.6573134134762606, 0.12504604998731
-0.47652304172515864, 0.7104406850522497, -0.06035871832610468
-0.4765230417251586, 0.3145736852151392, 0.15871172483204798
-0.47652304172515875, 0.38725706294884976, 0.044180777190241785
-0.4765230417251587, 0.4597461403984996, 0.1308020991621291
-0.47652304172515864, 0.7392004885368835, -0.15235027375439472
-0.4765230417251587, 0.7726803710568207, 0.12507791435330262
-0.4765230417251587, 0.5315980182609004, 0.12472741811060283
-0.4765230417251587, 0.3923494720585731, 0.0513380629757178
-0.4765230417251587, 0.3436772754475575, 0.18597402519554845
-0.4765230417251587, 0.1872086670080172, 0.18640359956620484
-0.4765230417251587, 0.2926629437705654, 0.16603698743672196
-0.4765230417251587, 0.7765544425954232, 0.026239440880438086
-0.4765230417251587, 0.7282206906687297, -0.05391000315839808
-0.4765230417251587, 0.774712796239509, 0.10617222658138661
-0.4765230417251587, 0.3484171064131365, 0.10340758650035628
-0.4765230417251587, 0.5328592818558755, 0.12891982901698693
-0.4765230417251587, 0.7738404479036076, -0.0018666702665820628
-0.4765230417251587, 0.7226923944039718, -0.10930375261443073
-0.4765230417251587, 0.7346532054151034, -0.004091240449662414
-0.4765230417251587, 0.40973243542883425, 0.07763322106580728
-0.4765230417251587, 0.7606443170087294, -0.12705259937561048
-0.4765230417251587, 0.773591298732115, 0.0786336466572155
-0.4765230417251587, 0.6494261658962616, 0.1801326403741682
-0.4765230417251587, 0.7360051553439322, -0.09823012888341567
-0.4765230417251587, 0.7040568293364545, 0.12499076727085845
-0.4765230417251587, 0.5432394265120318, 0.15342852189274508
-0.4765230417251587, 0.45481781887801753, 0.06671492965054479
-0.4765230417251587, 0.4479030962357632, 0.0420121515478325
-0.4765230417251587, 0.5471812799355502, 0.06336409717280217
-0.4765230417251586, 0.35497841332595437, 0.07245473197635124
-0.4765230417251587, 0.6596609002666713, 0.0517411017205304
-0.4765230417251587, 0.5427619801914618, -0.0480440526733118
-0.4765230417251587, 0.17126775005298214, 0.15434402586747653
-0.47652304172515864, 0.6545909910737446, -0.06872357505028355
-0.47652304172515864, 0.5983956303578899, -0.0009792977236972727
-0.4765230417251587, 0.5473003390677937, -0.058866020822568005
-0.4765230417251587, 0.7107232698941629, 0.12431837941917356
-0.4765230417251587, 0.5352023190988171, 0.1960674292867436
-0.4765230417251587, 0.7631249593863907, -0.003176690248393635
-0.4765230417251587, 0.4754329797983121, -0.00395766067675303
-0.4765230417251587, 0.18168474059252399, 0.16047352884117977
-0.47652304172515875, 0.7660473107258085, -0.16240303398201117
-0.4765230417251587, 0.3540716748259211, 0.1624334592699747
-0.4765230417251587, 0.778099040135722, 0.11897476266270135
-0.4765230417251587, 0.7693232864225981, 0.13642149602230094
-0.47652304172515875, 0.1462411452080346, 0.19223336347650985
-0.4765230417251587, 0.790857168985029, -0.04819592176573291
-0.47652304172515875, 0.7924888392317898, -0.0025294081292570186
-0.4765230417251587, 0.28183021530677554, 0.10953667243554066
-0.4765230417251587, 0.4394312310498728, 0.1280957439829703
-0.4765230417251587, 0.3017754564620808, 0.16852842049281092
-0.4765230417251587, 0.6316880625705796, 0.014448054481286991
-0.4765230417251587, 0.5411028786829722, 0.031135913639884404
-0.4765230417251587, 0.29797504941627934, 0.10577995075352939
-0.4765230417251587, 0.5155012827715756, 0.030675049057245496
-0.4765230417251587, 0.37127767693948444, 0.1593653942341317
-0.4765230417251587, 0.6316393700187527, 0.106987125425484
-0.4765230417251587, 0.6039121259926331, 0.032011547218006794
-0.4765230417251587, 0.41507986646992656, 0.133818000768497
-0.47652304172515875, 0.43218198127183927, 0.05095744436801563
-0.4765230417251587, 0.47541710823135186, 0.07206069150832306
-0.4765230417251587, 0.2416078674255475, 0.10955313318877075
-0.47652304172515864, 0.5114368049083684, 0.012841122166639914
-0.47652304172515875, 0.6219251897008737, -0.09976554448276509
-0.4765230417251587, 0.7256394214236412, -0.02416861560297809
-0.47652304172515864, 0.6167731564061173, 0.037399587454944476
-0.4765230417251587, 0.46217835175825084, 0.1828450930666763
-0.47652304172515864, 0.331418026856104, 0.09777499471966204
-0.4765230417251587, 0.7964722962625969, 0.047949223438823366
-0.4765230417251587, 0.6143181320816569, 0.1309854931833885
-0.4765230417251587, 0.27795537372839874, 0.11545446710652973
-0.47652304172515864, 0.6961612380549338, -0.062172859755042935
-0.4765230417251588, 0.6161092569213805, -0.027488280132595348
-0.4765230417251587, 0.16327876126584773, 0.17052242029744902
-0.4765230417251587, 0.7242273822628763, -0.1334060103809123
-0.4765230417251587, 0.7120188342964627, 0.004384323995619846
-0.47652304172515864, 0.5562130620783976, -0.04303282155295128
-0.4765230417251587, 0.6891322715734789, 0.03400964152416826
-0.47652304172515864, 0.2798115750709902, 0.18993665855104636
-0.4765230417251587, 0.7920328246601023, 0.04957591287415883
-0.4765230417251587, 0.7768290180095296, -0.06235630931076274
-0.4765230417251587, 0.2485233146467969, 0.1369306408760606
-0.4765230417251587, 0.5171763845460157, 0.06482746527358874
-0.4765230417251587, 0.28029984314309125, 0.08732440745042201
-0.47652304172515864, 0.315273137620025, 0.16403908820550045
-0.4765230417251587, 0.7603463240490229, 0.04924368469838851
-0.47652304172515875, 0.17835393137697972, 0.19229676456218436
-0.4765230417251587, 0.4948976598349276, 0.08655761194699961
-0.4765230417251587, 0.444485969486633, 0.05611547774678256
-0.4765230417251587, 0.3761810314848421, 0.05494983432918627
