-0.1521341007393528, 0.00026834403979592025, 0.036509858207925815
-0.16728500335869181, 0.00026834403979592025, 0.4456195427460694
-0.20286350612789308, 0.00026834403979592025, 0.2089800431613341
-0.12293500138922349, 0.00026834403979592025, 0.026222109613747786
-0.5802902489904117, 0.00026834403979592025, 0.1397636047495611
-0.05345966490550838, 0.00026834403979592025, 0.3099520349835469
-0.8150293792863087, 0.00026834403979592025, 0.03328023700375205
-0.1264677694631769, 0.00026834403979592025, 0.17747396312221353
-0.24767693038195512, 0.00026834403979592025, 0.19481900244732558
-0.21943480007590516, 0.00026834403979592025, 0.2698076254934523
-0.6107113153875574, 0.00026834403979592025, 0.30862850121353536
-0.17053643168069288, 0.00026834403979592025, 0.5515688436556856
-0.24794558255535387, 0.00026834403979592025, 0.3265444571282136
-0.787511561298351, 0.00026834403979592025, 0.06961779246133415
-0.3633937339559512, 0.00026834403979592025, 0.1375345577845803
-0.6830239276233316, 0.00026834403979592025, 0.1947894765093132
-0.9360712478906074, 0.00026834403979592025, 0.011141128707106587
-0.1804002275894504, 0.00026834403979592025, 0.37473768984494366
-0.02578854683450276, 0.00026834403979592025, 0.2136283258886652
-0.187213828868171, 0.00026834403979592025, 0.12387630419880222
-1.010340970442616, 0.00026834403979592025, 0.07359247127481254
-0.40678878034962007, 0.00026834403979592025, 0.2740286175728313
-0.08679342920030632, 0.0002683440397959203, 0.5860948677547995
-0.06746478704188939, 0.00026834403979592025, 0.19887274692390436
-0.2734009538468426, 0.00026834403979592025, 0.13041192175741714
-0.4136615813957532, 0.00026834403979592025, 0.3810693439222381
-0.11112321755822419, 0.00026834403979592025, 0.2809030407258415
-0.28093942026014923, 0.00026834403979592025, 0.19095653375889313
-0.1685074953465163, 0.00026834403979592025, 0.5457878243728062
-0.24832796629406143, 0.00026834403979592025, 0.3638488316436019
-0.03847202040359278, 0.00026834403979592025, 0.359894522668246
-0.4965738529484175, 0.00026834403979592025, 0.2887760341830377
-0.0929072874158317, 0.00026834403979592025, 0.4491384093747533
-0.4399315462627123, 0.00026834403979592025, 0.24554560177140927
-0.6483218448592027, 0.00026834403979592025, 0.23088637805981946
-0.5142077209604421, 0.00026834403979592025, 0.09155243724533117
-0.03961534170978495, 0.00026834403979592025, 0.032207231726458625
-0.31291527896682525, 0.00026834403979592025, 0.43858227023502044
-0.12152424334697805, 0.00026834403979592025, 0.232462964485259
-0.4461758334044972, 0.0002683440397959203, 0.18209393378852834
-0.10067357798871117, 0.00026834403979592025, 0.47136551706689706
-0.40684767531115745, 0.00026834403979592025, 0.4235387912075477
-0.16749377357110362, 0.00026834403979592025, 0.5850366877642262
-0.5377029887033499, 0.00026834403979592025, 0.1530187314853749
-0.5619141776254303, 0.00026834403979592025, 0.2678957717995843
-0.15532399394628937, 0.00026834403979592025, 0.10910714235723044
-0.17956433803674368, 0.00026834403979592025, 0.2550977553727869
-0.38630210871557563, 0.00026834403979592025, 0.15002371428669725
-0.7343912861440177, 0.00026834403979592025, 0.09399060582596275
-0.13443759427603852, 0.00026834403979592025, 0.44041916718472185
-0.3582482260378255, 0.00026834403979592025, 0.33358819750602525
-0.13773169327886933, 0.00026834403979592025, 0.13798703937835113
-0.025356734538096223, 0.00026834403979592025, 0.07768624468758191
-0.012471573754329855, 0.00026834403979592025, 0.23972224836545092
-0.26066097290546403, 0.00026834403979592025, 0.3389576851344651
-0.5199799452646612, 0.00026834403979592025, 0.15277846600741857
-0.543201329778847, 0.00026834403979592025, 0.13642482694832217
-0.11761387175731139, 0.00026834403979592025, 0.6492780464716712
-0.04110650691871505, 0.00026834403979592025, 0.6406669798139653
-0.15909944539824783, 0.00026834403979592025, 0.10445796933771224
-0.41776664360063714, 0.00026834403979592025, 0.021735665319639927
-0.06737914280790251, 0.00026834403979592025, 0.5761665167866047
-0.7014645033212052, 0.00026834403979592025, 0.007286596982306731
-0.9756071370821783, 0.00026834403979592025, 0.018757576828966067
-0.635787209507024, 0.0002683440397959203, 0.319444355676943
-0.6414149747532731, 0.00026834403979592025, 0.03734981253643673
-0.4229938644482633, 0.00026834403979592025, 0.4226334180750141
-0.18216003203800293, 0.00026834403979592025, 0.24102342063235405
-0.4892265469614508, 0.00026834403979592025, 0.3144584501307771
-0.01704494254910339, 0.00026834403979592025, 0.3384519143159197
-0.11782755615516884, 0.00026834403979592025, 0.5876518877163585
-0.7327661935213702, 0.00026834403979592025, 0.23425997270669946
-0.15361600940347497, 0.00026834403979592025, 0.33995054522497203
-0.047516646171403554, 0.00026834403979592025, 0.24501480941285525
-0.43292601536954606, 0.00026834403979592025, 0.11304611149322734
-0.17002507000148367, 0.00026834403979592025, 0.17028498290563315
-0.5372303501377361, 0.00026834403979592025, 0.30293327108118895
-0.5252593690308406, 0.00026834403979592025, 0.20205028297369754
-0.5270426589905789, 0.00026834403979592025, 0.054513328949739856
-0.02637228101727084, 0.00026834403979592025, 0.2810355618488714
-0.17745411216891005, 0.00026834403979592025, 0.1003019039022092
-0.12087352037151747, 0.00026834403979592025, 0.2843367886419507
-0.7456371953490936, 0.00026834403979592025, 0.05766335043529681
-0.22280983099574686, 0.00026834403979592025, 0.3450196656253169
-0.07273369817268491, 0.00026834403979592025, 0.16743129664877018
-0.07435109891555428, 0.00026834403979592025, 0.45558340038141737
-0.8730935897222416, 0.0002683440397959203, 0.08865069475700808
-0.10894226162562806, 0.00026834403979592025, 0.5802083305866667
-0.6049449913649813, 0.00026834403979592025, 0.10283177526909512
-0.13222938792292133, 0.00026834403979592025, 0.5249417926603764
-0.056672502962377434, 0.00026834403979592025, 0.4478789532186827
-0.03859832429914322, 0.00026834403979592025, 0.2760701176087009
-0.5221594306337376, 0.00026834403979592025, 0.36843462470349153
-0.09104035260923875, 0.00026834403979592025, 0.5825389761924734
-0.6113727857354359, 0.00026834403979592025, 0.11280124711852936
-0.511930036736839, 0.00026834403979592025, 0.3364174712016615
-0.3269175955781766, 0.00026834403979592025, 0.41183022121627777
-0.9627555832894017, 0.00026834403979592025, 0.05006989035951642
-0.04182456230618128, 0.00026834403979592025, 0.2151953757246129
-0.2138586265780527, 0.00026834403979592025, 0.4715707550886994
-0.17039953412487702, 0.00026834403979592025, 0.6163283789919204
-0.5804485077467115, 0.00026834403979592025, 0.009373502927452225
-0.44990455946073066, 0.00026834403979592025, 0.3427366734571254
-0.6490508156763087, 0.00026834403979592025, 0.14992888675838908
-0.867220319647384, 0.00026834403979592025, 0.0741671981343889
-0.15117200868140107, 0.00026834403979592025, 0.1489773663763693
-0.547842267520201, 0.00026834403979592025, 0.3143022422227332
-0.11983876797681833, 0.00026834403979592025, 0.2935256145450929
-0.13346349331562934, 0.00026834403979592025, 0.3135675097143152
-0.29998427382421916, 0.00026834403979592025, 0.5010030805402051
-0.14847329054037783, 0.00026834403979592025, 0.024725734492238253
-0.6159121938068666, 0.00026834403979592025, 0.2425600110288483
-0.28048267634189383, 0.00026834403979592025, 0.09864424901996419
-0.10835835600055457, 0.00026834403979592025, 0.19811680602262188
-1.0076005947205633, 0.00026834403979592025, 0.05675056114441735
-0.25126540564997546, 0.00026834403979592025, 0.1903196920829162
-0.4099701612977737, 0.0002683440397959203, 0.420000288721414
-0.17622380279466507, 0.00026834403979592025, 0.34039275906816874
-0.058033067655762424, 0.00026834403979592025, 0.047491066875137565
-0.14048940044542146, 0.00026834403979592025, 0.08235002652247879
-0.14475568634037397, 0.00026834403979592025, 0.22999273927514544
-0.5833631113781614, 0.00026834403979592025, 0.17847965766239468
-0.2540909925281801, 0.00026834403979592025, 0.40440683986445375
-0.03822950553695385, 0.00026834403979592025, 0.5114547292110125
-0.06647549031535471, 0.0002683440397959202, 0.6570824534611203
-0.7111005337807366, 0.00026834403979592025, 0.05335142637545036
-0.45396128547834513, 0.00026834403979592025, 0.4331403427449757
-0.25497065545949377, 0.00026834403979592025, 0.13830191663571298
-0.08023010436825985, 0.00026834403979592025, 0.21754513052311142
-0.41202844223611335, 0.0002683440397959202, 0.446719328153329
-0.13822917297376403, 0.00026834403979592025, 0.17846433437586207
-0.7881305746793899, 0.00026834403979592025, 0.18417413391387485
-0.5782872542331176, 0.00026834403979592025, 0.0616578126682176
-0.2284264258238284, 0.00026834403979592025, 0.2952709742899491
-0.5055120447925281, 0.00026834403979592025, 0.19369453246259444
-0.03109688373467107, 0.00026834403979592025, 0.28909297008076384
-0.2566470793767552, 0.00026834403979592025, 0.12603501641867373
-0.4950916511905559, 0.00026834403979592025, 0.02493045554893093
-0.39757603190723195, 0.00026834403979592025, 0.2084316044445065
-1.0536786635848436, 0.00026834403979592025, 0.030117150168075934
-0.1105505487363338, 0.00026834403979592025, 0.5242913051429942
-0.45555275903049214, 0.00026834403979592025, 0.043895758532913644
-0.17641870284850783, 0.00026834403979592025, 0.4351980386525511
-0.11835385178807423, 0.00026834403979592025, 0.19653902871071444
-0.027606609757516817, 0.00026834403979592025, 0.05297368444709556
-0.33552497677893867, 0.00026834403979592025, 0.15209887112600093
-0.24092201443878336, 0.00026834403979592025, 0.21979930512572335
-0.27110831773932764, 0.00026834403979592025, 0.2243472841468464
-0.18063723268828558, 0.00026834403979592025, 0.1677754047263445
-0.1623248154008759, 0.00026834403979592025, 0.3459742139422727
-0.8623342348046159, 0.00026834403979592025, 0.17418540615527264
-0.1735368581454248, 0.00026834403979592025, 0.4734407693292223
-0.16101728148909528, 0.00026834403979592025, 0.1204248285645153
-0.48677440758485035, 0.00026834403979592025, 0.07851617552243892
-0.3426702747725272, 0.00026834403979592025, 0.17343360015712192
-0.6859906970159315, 0.00026834403979592025, 0.039938210010794124
-0.3960189125772057, 0.00026834403979592025, 0.4474818675462231
-0.004468519663752712, 0.00026834403979592025, 0.022183859721868364
-0.28990265725947967, 0.00026834403979592025, 0.027048555915587934
-0.41743641976246715, 0.00026834403979592025, 0.40579784555249715
-0.6495681589541923, 0.00026834403979592025, 0.0646805608409956
-0.3835640225242692, 0.00026834403979592025, 0.15774904848348184
-0.46651169451855456, 0.00026834403979592025, 0.029167250391257896
-0.29573127578635827, 0.00026834403979592025, 0.4014904047819025
-0.03081772816940891, 0.00026834403979592025, 0.38531752158682814
-0.29821822603730797, 0.00026834403979592025, 0.2807636627710218
-0.12856129673757524, 0.00026834403979592025, 0.4405344497031454
-0.06251674336198751, 0.00026834403979592025, 0.3471753580822809
-0.4771181717851918, 0.00026834403979592025, 0.18963060596296083
-0.4889088179947526, 0.00026834403979592025, 0.033354888570473216
-0.16456945638589132, 0.00026834403979592025, 0.2438207008996034
-0.23738871671072284, 0.00026834403979592025, 0.31068180545082724
-0.2863704612368841, 0.00026834403979592025, 0.39623900954032343
-0.0056382100601075225, 0.00026834403979592025, 0.23353845358982064
-0.4941982014554284, 0.00026834403979592025, 0.10459168481807085
-0.23389521643825156, 0.00026834403979592025, 0.2656764103602139
-0.1503274922154659, 0.00026834403979592025, 0.647182611527982
-0.27933195654003895, 0.00026834403979592025, 0.3221139490404555
-0.9739222493109206, 0.00026834403979592025, 0.07843082702772121
-0.2010406943409638, 0.00026834403979592025, 0.31511195478320475
-0.84336885198003, 0.00026834403979592025, 0.022266473711720962
-0.32923891708331804, 0.00026834403979592025, 0.21090675438075598
-0.7981181998510801, 0.00026834403979592025, 0.04033643356684727
-0.18766584552589188, 0.00026834403979592025, 0.37185554987854197
-0.011800048301512336, 0.00026834403979592025, 0.49884766802774233
-0.39861858122999677, 0.00026834403979592025, 0.29956821028822217
-0.4453492262404566, 0.00026834403979592025, 0.10603238697187005
-0.06953511634091951, 0.00026834403979592025, 0.6376078925090168
-0.03415238817120785, 0.00026834403979592025, 0.6113433921794115
-0.14000272199718425, 0.00026834403979592025, 0.07269064086243347
-0.08087054263281153, 0.00026834403979592025, 0.22958875973749224
-0.6801908177750228, 0.00026834403979592025, 0.21768095760031428
-0.6252704678079887, 0.00026834403979592025, 0.27688074632326315
-1.0002477022790506, 0.00026834403979592025, 0.03009477983261063
-0.31002005487325585, 0.00026834403979592025, 0.32960914698647203
-0.7390720597130258, 0.00026834403979592025, 0.10793668754704454
-0.42984718565869173, 0.00026834403979592025, 0.01623465334949663
-0.5166150787082261, 0.00026834403979592025, 0.20515145238590754
-0.7367747842520271, 0.00026834403979592025, 0.039044229524486926
-0.013108894773893211, 0.00026834403979592025, 0.5912476987251345
-0.0019241083091784692, 0.00026834403979592025, 0.05842226339578817
-0.48737604941719076, 0.00026834403979592025, 0.2529636240785668
-0.39055073720933065, 0.00026834403979592025, 0.23316025260131854
-0.4988568974166725, 0.00026834403979592025, 0.27845695449526475
-0.5404708718328838, 0.00026834403979592025, 0.27018352240929655
-0.06386670305455483, 0.00026834403979592025, 0.492774622867771
-0.1461220918482208, 0.00026834403979592025, 0.035097864088151215
-0.613499104260718, 0.00026834403979592025, 0.1763027229934169
-0.8593787615059348, 0.00026834403979592025, 0.030224353463960057
-0.4663970065307458, 0.00026834403979592025, 0.07704465617271128
-0.30954234224384014, 0.00026834403979592025, 0.056555950579453215
-0.07091865666720988, 0.00026834403979592025, 0.6366611521817427
-0.8203105089025433, 0.0002683440397959202, 0.07104342734198228
-0.15185085734377374, 0.00026834403979592025, 0.18812683080279766
-0.001054274559690137, 0.00026834403979592025, 0.6145728806521218
-0.5268627625893921, 0.00026834403979592025, 0.27092750890204337
-0.45923673764710515, 0.00026834403979592025, 0.2946866411110548
-0.07718495873122293, 0.00026834403979592025, 0.3653306413144598
-0.10897843219951772, 0.00026834403979592025, 0.4352371771007305
-0.7686055522002593, 0.00026834403979592025, 0.08341878138380378
-0.196731920780732, 0.00026834403979592025, 0.10512706894444379
-0.11726064219676674, 0.00026834403979592025, 0.6503300645385139
-0.03845247120465412, 0.00026834403979592025, 0.05888804962842442
-0.08565351689816283, 0.00026834403979592025, 0.012206797400500412
-0.11052653370970371, 0.00026834403979592025, 0.6258432026748797
-0.061725970105383283, 0.00026834403979592025, 0.44933116500575543
-0.521027932690911, 0.00026834403979592025, 0.31631959925110004
-0.3738721207395103, 0.00026834403979592025, 0.47304011175952865
-0.7642558475389546, 0.00026834403979592025, 0.054558242998808695
-0.07460846836789514, 0.00026834403979592025, 0.1776094546545337
-0.7268477180238881, 0.00026834403979592025, 0.19828727652132414
-0.6944157916983466, 0.00026834403979592025, 0.24940459510511823
-0.1537613844438864, 0.00026834403979592025, 0.3410550388832116
-0.556041511146427, 0.0002683440397959203, 0.3397820593523731
-0.4719237853107682, 0.00026834403979592025, 0.41560019854296937
-0.6888941986785722, 0.00026834403979592025, 0.2866097677451405
-0.2633863500316719, 0.00026834403979592025, 0.2299456617172861
-0.8323091081111341, 0.00026834403979592025, 0.0820218287468067
-0.2827473116602313, 0.00026834403979592025, 0.21944051362704856
-0.16440889400437128, 0.00026834403979592025, 0.27374778921035153
-0.1746194273776375, 0.00026834403979592025, 0.2355929129056928
-0.7335032239677338, 0.00026834403979592025, 0.11718720258748666
-0.21892118314910072, 0.00026834403979592025, 0.28214314432049564
-0.025821756939537113, 0.00026834403979592025, 0.2726974571414437
-0.2892835529614591, 0.00026834403979592025, 0.20832841751583955
-0.5984315393311801, 0.00026834403979592025, 0.22389642054162476
-0.6649800149661639, 0.00026834403979592025, 0.22002544980126842
-0.36636305740390773, 0.00026834403979592025, 0.09561149209486934
-0.020574356790914912, 0.00026834403979592025, 0.20495197815692467
-0.5482285483914885, 0.00026834403979592025, 0.2106378944166182
-0.07268227700122373, 0.00026834403979592025, 0.5225273615965481
-0.7996210234013057, 0.00026834403979592025, 0.011821405356555419
-0.3746179748888077, 0.00026834403979592025, 0.04275925314862073
-0.28665943337879823, 0.00026834403979592025, 0.04182627910754643
-0.4901014196668912, 0.00026834403979592025, 0.19750695088635042
-0.8614046438320668, 0.00026834403979592025, 0.09996083753172669
-0.6022248479095041, 0.00026834403979592025, 0.03392339303221515
-0.4140442590720433, 0.00026834403979592025, 0.40038421308634503
-0.9344795182552369, 0.00026834403979592025, 0.08059242858000983
-0.9735030725652568, 0.0002683440397959203, 0.03710961133080358
-0.24134589660021682, 0.0002683440397959203, 0.547255774325686
-0.2845205863000751, 0.00026834403979592025, 0.2800686644050765
-0.004223866897603014, 0.0002683440397959203, 0.05756285535295915
-0.007414913227165761, 0.00026834403979592025, 0.49400579853310295
-0.3938555145960955, 0.00026834403979592025, 0.30471732616691366
-0.13753186286016733, 0.00026834403979592025, 0.49239673524138666
-0.2615193788136909, 0.00026834403979592025, 0.20359678493586683
-0.22474659895674487, 0.00026834403979592025, 0.2937287663745655
-0.25744805815648647, 0.00026834403979592025, 0.014062052308207534
-0.5795254882295947, 0.00026834403979592025, 0.28823285866271275
-0.9182414212953146, 0.00026834403979592025, 0.12620273943002833
-0.38941533483769847, 0.00026834403979592025, 0.027356650978454064
-0.36967444554695966, 0.00026834403979592025, 0.2862178328719752
-0.5836384290729896, 0.00026834403979592025, 0.2028405405724644
-0.7407581336740249, 0.00026834403979592025, 0.05619772556521072
-0.7717822011653418, 0.0002683440397959203, 0.04608409635511604
-0.5426007831895849, 0.00026834403979592025, 0.2573475548521064
-0.47122033525900975, 0.00026834403979592025, 0.07695115975045774
-0.335955618513324, 0.00026834403979592025, 0.20595114046062823
-0.17024005250749807, 0.00026834403979592025, 0.2587344901484528
-0.319609012967707, 0.00026834403979592025, 0.15889455431307767
-0.5438438247373631, 0.00026834403979592025, 0.2498278446607281
-0.3935654427082243, 0.00026834403979592025, 0.035291921681768326
-0.42782800651667613, 0.00026834403979592025, 0.05047094395397787
-0.10968800403860328, 0.00026834403979592025, 0.4317553530319781
-0.6014914354600162, 0.00026834403979592025, 0.10083371129197036
-0.12165597258974055, 0.00026834403979592025, 0.19292940216769341
-0.9830622340205026, 0.00026834403979592025, 0.02767286514210558
-0.6139406675430078, 0.00026834403979592025, 0.2335560614879815
-0.6522970934825507, 0.00026834403979592025, 0.29680800105596006
-0.12778463405635537, 0.00026834403979592025, 0.0004932572125025936
-0.3970902253519134, 0.00026834403979592025, 0.404922492524087
-0.9160002608325518, 0.00026834403979592025, 0.04113661583419379
-0.0065457420694323195, 0.00026834403979592025, 0.23875444433345247
-0.7520081121897532, 0.00026834403979592025, 0.09907585503657394
-0.5800308455830889, 0.00026834403979592025, 0.043721014743157025
-0.7300351210702044, 0.00026834403979592025, 0.21572085855925568
-0.15221710264587412, 0.0002683440397959203, 0.6137059989420593
-0.31863809572726526, 0.00026834403979592025, 0.12544238943770536
-0.14013227459408856, 0.00026834403979592025, 0.6332816433315404
-0.06129703014925068, 0.00026834403979592025, 0.4310342659848749
-0.026982184816916256, 0.00026834403979592025, 0.5763549242626754
-0.6229861138402785, 0.00026834403979592025, 0.3320218547205483
-0.5396757415963918, 0.00026834403979592025, 0.06515833192319391
-0.36400201491746714, 0.00026834403979592025, 0.13633791967053452
-0.5254922601113067, 0.00026834403979592025, 0.35305307470956176
-0.0688026390654048, 0.00026834403979592025, 0.07900706082849106
-0.005477032696626803, 0.00026834403979592025, 0.42579847723125414
-0.11548147954585246, 0.00026834403979592025, 0.5655207424434231
-0.1698052673948386, 0.00026834403979592025, 0.20207529135823235
-0.03014651644883432, 0.00026834403979592025, 0.23105369805612447
-0.0802077237189037, 0.00026834403979592025, 0.059583948498072546
-0.3436144083150058, 0.00026834403979592025, 0.27914361787188857
-0.00898335709951899, 0.00026834403979592025, 0.3306228213954161
-0.10668340238874863, 0.00026834403979592025, 0.5522053589244131
-0.5305454095033203, 0.00026834403979592025, 0.30861426540989334
-0.7247954582452858, 0.00026834403979592025, 0.15741994317019065
-0.04234786414151529, 0.00026834403979592025, 0.5244456154848525
-0.029616755699736874, 0.00026834403979592025, 0.6264112411667467
-0.3211118877705855, 0.00026834403979592025, 0.34768439032979803
-0.3120572401597438, 0.00026834403979592025, 0.22837641823216615
-0.11108719886178037, 0.0002683440397959202, 0.6414867156078278
-0.07602699781270615, 0.00026834403979592025, 0.39088555734880276
-0.34935691324722495, 0.00026834403979592025, 0.4602418259131891
-0.05272757185038216, 0.00026834403979592025, 0.34972380262509367
-0.2597077906330029, 0.00026834403979592025, 0.16042953167335272
-0.6603083367483585, 0.00026834403979592025, 0.1880947998373298
-0.430540882289376, 0.0002683440397959203, 0.42973222973025477
-0.33993833615702246, 0.00026834403979592025, 0.33960176633119066
-0.12579045309411252, 0.00026834403979592025, 0.3289048369002051
-0.7986357070734632, 0.00026834403979592025, 0.16729528327529156
-0.23544485484739108, 0.00026834403979592025, 0.10444476652105317
-0.1654431951802252, 0.00026834403979592025, 0.07613299005522192
-0.026420034591068585, 0.00026834403979592025, 0.4206378822639103
-0.03883617684989957, 0.00026834403979592025, 0.4795292421357088
-0.36846834849073906, 0.00026834403979592025, 0.01358268313530131
-0.1593732517674388, 0.00026834403979592025, 0.5158356627594958
-0.14748800243188076, 0.00026834403979592025, 0.5967749937558467
-0.5203280156888472, 0.00026834403979592025, 0.11493728538909265
-0.10511724702693169, 0.00026834403979592025, 0.010169653058046313
-0.2915398164288237, 0.00026834403979592025, 0.3141226777315404
-0.24053287385227393, 0.00026834403979592025, 0.2789314391026136
-0.025032921539190633, 0.00026834403979592025, 0.5645745901376559
-0.17237452590006663, 0.00026834403979592025, 0.15487583305886188
-0.3780448950552026, 0.00026834403979592025, 0.08062351798683161
-0.8041037244723864, 0.00026834403979592025, 0.14184344724580925
-0.08055933797541547, 0.00026834403979592025, 0.3322090732838358
-0.7772959259383965, 0.00026834403979592025, 0.1309043076795171
-0.504884840955842, 0.00026834403979592025, 0.354914805525509
-0.04203303730710642, 0.00026834403979592025, 0.5878454476244893
-0.7973371292686113, 0.00026834403979592025, 0.12190769143514296
-0.02168854934161283, 0.00026834403979592025, 0.42202508403758243
-0.9886439486889124, 0.0002683440397959203, 0.08627513895884308
-0.07417847830957684, 0.00026834403979592025, 0.35523762460730446
-0.03213009461632142, 0.00026834403979592025, 0.5762686920492491
-0.5172451680622506, 0.00026834403979592025, 0.11540443023705427
-0.5340294228165502, 0.00026834403979592025, 0.04484613556607449
-0.10036670591165604, 0.00026834403979592025, 0.03595504045804518
-0.7036036465371978, 0.00026834403979592025, 0.0005647847891357295
-0.23240441435216197, 0.00026834403979592025, 0.23037508125411973
-0.4800771912507208, 0.00026834403979592025, 0.22311599168296908
-0.10124664582571628, 0.00026834403979592025, 0.41371010139662506
-0.5301075719987476, 0.0002683440397959203, 0.08826225700541906
-0.2816395264879804, 0.00026834403979592025, 0.039427803799443537
-0.3433121219512524, 0.00026834403979592025, 0.09947389263992808
-0.30344360869982334, 0.00026834403979592025, 0.31058659718149534
-0.05994045148973297, 0.00026834403979592025, 0.2906902803908608
-0.8237591811350955, 0.00026834403979592025, 0.10766505566330357
-0.05751746558400643, 0.00026834403979592025, 0.5798643081101187
-0.4395996186054436, 0.0002683440397959203, 0.44518086732873213
-0.4367187422745862, 0.00026834403979592025, 0.2793221271556775
-0.7669278319037127, 0.00026834403979592025, 0.13241633638664743
-9.140254612331534e-05, 0.00026834403979592025, 0.005887827654522401
-0.06156316976502773, 0.00026834403979592025, 0.0778887413537462
-0.44563965837197195, 0.0002683440397959202, 0.4258065625577678
-0.8730083715148852, 0.00026834403979592025, 0.10963883191007981
-0.23513548598848005, 0.00026834403979592025, 0.08176324241793173
-0.4400021907264654, 0.00026834403979592025, 0.32460502126794794
-0.1790047561310308, 0.00026834403979592025, 0.3596148271759043
-0.18549518235628087, 0.0002683440397959202, 0.5465343888970315
-0.18519025640278056, 0.00026834403979592025, 0.5862071232940187
-0.35568329006822375, 0.00026834403979592025, 0.29517520574140504
-0.039527186277339955, 0.00026834403979592025, 0.08282731554303464
-0.8458691318086363, 0.00026834403979592025, 0.05915849968301718
-0.9212071949619846, 0.00026834403979592025, 0.06235272944744944
-0.09170021440472957, 0.00026834403979592025, 0.2000258412302569
-0.8693577797639294, 0.0002683440397959202, 0.0008315124256134856
-0.185071305332871, 0.00026834403979592025, 0.5194633396513298
-0.6658847338812647, 0.0002683440397959202, 0.24402695635732632
-0.3391873626425129, 0.00026834403979592025, 0.35210586453036513
-0.6658397660851535, 0.00026834403979592025, 0.03396846438058055
-0.10684445611409989, 0.00026834403979592025, 0.5118116295368735
-0.40627478010733437, 0.00026834403979592025, 0.08630140978206016
-0.29092864178180156, 0.00026834403979592025, 0.3554987173538672
-0.3135550595199235, 0.00026834403979592025, 0.270266804146667
-0.6003435701309777, 0.00026834403979592025, 0.09408073789165391
-0.25907367315189866, 0.00026834403979592025, 0.47998133056476977
-0.44218679552805856, 0.00026834403979592025, 0.029956438541545814
-0.29605715034395425, 0.00026834403979592025, 0.05711705867492976
-0.08190497013905369, 0.00026834403979592025, 0.4201184811024374
-0.6027665981817119, 0.00026834403979592025, 0.0704093515634293
-0.2641071753334435, 0.00026834403979592025, 0.2278567102354663
-0.12213372213799656, 0.00026834403979592025, 0.1088850402447361
-0.822745220466382, 0.0002683440397959203, 0.1608166755333749
-0.3901694894756195, 0.00026834403979592025, 0.13266124250327488
-0.632409535966569, 0.00026834403979592025, 0.15047529286505262
-0.18901304086554727, 0.00026834403979592025, 0.05827472333313512
-0.5009656242877797, 0.00026834403979592025, 0.3005310740084106
-0.0901917891226154, 0.00026834403979592025, 0.46667863209002347
-0.41523046604749064, 0.00026834403979592025, 0.3063855754007918
-0.559101409320588, 0.00026834403979592025, 0.012063664294678261
-0.7734249357540833, 0.00026834403979592025, 0.0737394881630666
-0.09943880709382845, 0.00026834403979592025, 0.14279651942262958
-0.6555641989771014, 0.00026834403979592025, 0.17442071456124578
-0.04173935572512813, 0.00026834403979592025, 0.31601681411539695
-0.6328695289363794, 0.00026834403979592025, 0.0210141915570744
-0.14185809170193647, 0.00026834403979592025, 0.007855075460270552
-0.5779496378531604, 0.00026834403979592025, 0.0802841310677041
-0.06469040246349601, 0.00026834403979592025, 0.37252020811961095
-0.49585020496220256, 0.00026834403979592025, 0.3120409487044388
-0.07637130097215451, 0.00026834403979592025, 0.5146899372675005
-0.028487771888522643, 0.00026834403979592025, 0.4369957973039499
-0.1379735066531702, 0.00026834403979592025, 0.3317398642093158
-0.4583928482492826, 0.00026834403979592025, 0.2676665065995958
-0.9207188573532635, 0.00026834403979592025, 0.014006662257479692
-0.1282337881446933, 0.00026834403979592025, 0.5823037830152097
-0.288086236301065, 0.00026834403979592025, 0.3651859524354425
-0.36998361902368554, 0.00026834403979592025, 0.33799819697069133
-0.42978103658202493, 0.00026834403979592025, 0.2585616388711142
-0.10161658131782329, 0.00026834403979592025, 0.4304590567418978
-0.4046684708910952, 0.00026834403979592025, 0.4047889785818605
-0.4004889232196715, 0.00026834403979592025, 0.11478180763481889
-0.33419660474094565, 0.00026834403979592025, 0.44424776566840857
-0.04939066653033294, 0.00026834403979592025, 0.331820758097697
-0.5550507153249821, 0.00026834403979592025, 0.2683076462000127
-0.23268232110944853, 0.00026834403979592025, 0.2725136683969838
-0.2919112469654607, 0.00026834403979592025, 0.4012254760995548
-0.011691071562721107, 0.00026834403979592025, 0.40981349289351815
-0.1430466711950638, 0.00026834403979592025, 0.30250035723062657
-0.5285613509084488, 0.00026834403979592025, 0.016680418433627622
-0.3159546215809003, 0.00026834403979592025, 0.32257755160881185
-0.14755201638060114, 0.00026834403979592025, 0.4672505803132782
-0.11388594102146479, 0.00026834403979592025, 0.48837264311353484
-0.03875732239344031, 0.00026834403979592025, 0.6861261593717102
-0.2142232831859481, 0.00026834403979592025, 0.10970574249664833
-0.23525822531104523, 0.00026834403979592025, 0.025549523767110685
-0.05155088342651504, 0.00026834403979592025, 0.02974231631885505
-0.48293350837931015, 0.00026834403979592025, 0.3132644673314265
-0.48720526731311914, 0.00026834403979592025, 0.30771026515536365
-0.21748594633889165, 0.00026834403979592025, 0.5447019697576433
-0.44127689617257193, 0.00026834403979592025, 0.10321165418213653
-0.08927891322178079, 0.00026834403979592025, 0.6545645579051208
-0.40869034436479473, 0.00026834403979592025, 0.12300716598887179
-0.7234136044011917, 0.00026834403979592025, 0.06994466544364113
-0.18045037854106236, 0.00026834403979592025, 0.528163967538444
-0.3778161294339116, 0.00026834403979592025, 0.24016147897641393
-0.228233657716192, 0.00026834403979592025, 0.3368988951194303
-0.5600072092621391, 0.00026834403979592025, 0.3474749075158101
-0.15696671606814616, 0.00026834403979592025, 0.33431608296182747
-0.00440967988902854, 0.00026834403979592025, 0.6261534004872049
-0.33588223614550156, 0.00026834403979592025, 0.16978753807462196
-0.6624334441365655, 0.00026834403979592025, 0.046371738827514025
-0.0011769960505273625, 0.00026834403979592025, 0.2556829623913584
-0.4861814958089017, 0.00026834403979592025, 0.38740292209856364
-0.4452787145495557, 0.00026834403979592025, 0.18903861934457442
-0.06353184512829395, 0.00026834403979592025, 0.3117926230007125
-0.3779954494230438, 0.00026834403979592025, 0.37797755345820017
-0.323999152718765, 0.00026834403979592025, 0.16402631957252953
-0.48500906636133057, 0.00026834403979592025, 0.0035051005945416305
-0.16624518333973817, 0.00026834403979592025, 0.11772350640103996
-0.1477382440904266, 0.00026834403979592025, 0.1964368237263457
-0.10528968346545514, 0.00026834403979592025, 0.39024478610148194
-0.40449399024165283, 0.00026834403979592025, 0.23085903902380214
-0.03288931823780568, 0.00026834403979592025, 0.243169313120531
-0.14377889224544702, 0.00026834403979592025, 0.19933886149366412
-0.43940715253602336, 0.00026834403979592025, 0.37866898588361075
-0.3112248272632179, 0.00026834403979592025, 0.09482477709262581
-0.45133752392978926, 0.00026834403979592025, 0.06371046491239743
-0.06449750200589899, 0.00026834403979592025, 0.7035994488845859
-0.5828073667923112, 0.00026834403979592025, 0.32803789847958
-0.933032518711793, 0.00026834403979592025, 0.051849436573539374
0.7759865864873835, 0.0005297604279380693, 0.7490697732664099
0.5602587449045934, 0.0005096014832573347, 0.7489347990581265
0.29714097798167305, 0.00026834403979592025, 0.2628233881870253
0.3840705575617005, 0.00026834403979592025, 0.5125538691921141
0.8440704322576565, 0.00026834403979592025, 0.6284217747422957
0.7210796245433245, 0.00026834403979592025, 0.5443796662653902
0.3212977351407893, 0.00026834403979592025, 0.7282478759696922
0.08073765759474952, 0.00026834403979592025, 0.4134474946276706
0.17082342447079196, 0.00026834403979592025, 0.42412868104828844
0.29874921657146547, 0.00026834403979592025, 0.6344045649441404
0.2544655572857722, 0.00026834403979592025, 0.37463997712538544
0.2759543100264089, 0.0002683440397959202, 0.3611359112043537
0.7270545851003413, 0.00026834403979592025, 0.5998377738653139
0.022095343146500294, 0.00026834403979592025, 0.5563373305922793
0.5621898481225353, 0.00026834403979592025, 0.5632443290971009
0.12616042462908736, 0.00026834403979592025, 0.2910510487284034
0.0873543573997705, 0.00026834403979592025, 0.17631841096450296
0.1428620377597714, 0.00026834403979592025, 0.5823785108472459
0.6392063921287009, 0.00026834403979592025, 0.7317682485984514
0.1528724588832623, 0.00026834403979592025, 0.45130121063207496
0.3104012059097286, 0.00026834403979592025, 0.5575205040890899
0.1344540044989741, 0.00026834403979592025, 0.5842546571049769
0.055684840559824846, 0.00026834403979592025, 0.7206794279331991
0.2750643220871693, 0.00026834403979592025, 0.4836054546499655
0.3925109872134606, 0.00026834403979592025, 0.45258134521285354
0.04592279419483957, 0.00026834403979592025, 0.4942340476262961
0.1524926464776153, 0.00026834403979592025, 0.21022968387014895
0.09078510051004522, 0.00026834403979592025, 0.1876660544891398
0.6007040092346804, 0.00026834403979592025, 0.4237678395111728
0.7842623086668365, 0.00026834403979592025, 0.6216928830587443
0.1944487945773008, 0.00026834403979592025, 0.225976100127711
0.3959043285976106, 0.00026834403979592025, 0.3998972961591344
0.03185954220218479, 0.00026834403979592025, 0.464540376557824
0.2744758807857296, 0.00026834403979592025, 0.47345535746236145
0.7763528654521187, 0.00026834403979592025, 0.6112581501532643
0.7344616642554785, 0.0002683440397959202, 0.4864151273976945
0.14844442267257665, 0.00026834403979592025, 0.3303469287462647
0.05715929543372836, 0.00026834403979592025, 0.7007955915935264
0.20831238432402757, 0.00026834403979592025, 0.4544138043607731
0.13154082942028059, 0.00026834403979592025, 0.2809116733561692
0.8638415635208919, 0.00026834403979592025, 0.7361077625829104
0.3996658877818763, 0.00026834403979592025, 0.43628473287291025
0.1901323985996085, 0.00026834403979592025, 0.3094534780957018
0.305874633713969, 0.00026834403979592025, 0.6945499567974219
0.49025858259939004, 0.00026834403979592025, 0.42732082586604725
0.2220342739029522, 0.00026834403979592025, 0.28532534169417034
0.4887702584252773, 0.00026834403979592025, 0.38491216283282625
0.18027602845644916, 0.00026834403979592025, 0.28364414830439194
0.36563416150390576, 0.00026834403979592025, 0.28679178524695453
0.6305807842459642, 0.00026834403979592025, 0.670129772333182
0.033947964755080016, 0.00026834403979592025, 0.25067798499691424
0.04525214299626763, 0.00026834403979592025, 0.2286752054595967
0.5655447077219382, 0.00026834403979592025, 0.5414537188445293
0.23949853215851505, 0.0002683440397959202, 0.2224662546155553
0.3763369573630742, 0.00026834403979592025, 0.7154642662510291
0.321634843163283, 0.00026834403979592025, 0.7074601921943855
0.1757254765470128, 0.00026834403979592025, 0.27168656709729866
0.2606513190416194, 0.00026834403979592025, 0.584291192720317
0.8439121442135596, 0.00026834403979592025, 0.7229886415094461
0.10938293076433733, 0.00026834403979592025, 0.5937857334989544
0.5839631953340356, 0.00026834403979592025, 0.7052018145768506
0.9006210575573681, 0.00026834403979592025, 0.6939413280839435
0.8378305195060722, 0.00026834403979592025, 0.6340668219403869
0.3227638476196606, 0.00026834403979592025, 0.35874083034684984
0.4201479825150908, 0.00026834403979592025, 0.6976527669255599
0.3087647022007085, 0.00026834403979592025, 0.6319897661288949
0.12111731057343518, 0.00026834403979592025, 0.7203650547331226
0.5292866488907774, 0.00026834403979592025, 0.7415382438730638
0.12502471462791245, 0.00026834403979592025, 0.5464988713603514
0.29640338963361484, 0.00026834403979592025, 0.5926081681749051
0.41333047668548656, 0.00026834403979592025, 0.5432792958482016
0.24626155247456807, 0.00026834403979592025, 0.32114943296485654
0.05681639921738281, 0.00026834403979592025, 0.3439735075878212
0.21090189834244213, 0.00026834403979592025, 0.522634210100589
0.2337983636656227, 0.00026834403979592025, 0.5376468106702512
0.9680823968801265, 0.00026834403979592025, 0.7161032786738268
0.03688005088856155, 0.00026834403979592025, 0.3212124384219265
0.08603968659139541, 0.00026834403979592025, 0.28927392019809656
0.04047529121625875, 0.00026834403979592025, 0.1070296135323811
0.3799679930824213, 0.00026834403979592025, 0.6733397972492519
0.6676531500664973, 0.00026834403979592025, 0.6707530490313186
0.3457434406490451, 0.00026834403979592025, 0.6428693917611582
0.49464150997237893, 0.00026834403979592025, 0.6565198196115425
0.4061971624776572, 0.00026834403979592025, 0.347862464392875
0.0550408148582818, 0.00026834403979592025, 0.4551005052042421
0.383109624964339, 0.00026834403979592025, 0.4084092871507107
0.1295674443491559, 0.00026834403979592025, 0.5779442074934831
0.3806971887177195, 0.0002683440397959203, 0.28477439863698806
0.1402549578496408, 0.00026834403979592025, 0.4386439052307325
0.27662642875532384, 0.00026834403979592025, 0.2009210542223187
0.31750799631500753, 0.00026834403979592025, 0.5218978919774736
0.32931161432924355, 0.00026834403979592025, 0.3714602951270624
0.4847143608431949, 0.00026834403979592025, 0.46088579889610026
0.15204392534917305, 0.00026834403979592025, 0.11262886182851867
0.11111549569318974, 0.00026834403979592025, 0.15335597905093087
0.6641636831597801, 0.00026834403979592025, 0.4802948369530971
0.07314325151814154, 0.00026834403979592025, 0.6101691824943748
0.28013479358935145, 0.00026834403979592025, 0.3030505498876277
0.7533325664123917, 0.00026834403979592025, 0.5743178469332876
0.1975843649676948, 0.00026834403979592025, 0.7212991750094979
0.4653693671643154, 0.00026834403979592025, 0.6361974360689224
0.4116398499967451, 0.00026834403979592025, 0.5381207349818327
0.15903588679450456, 0.00026834403979592025, 0.6300570146227009
0.19255765149826928, 0.00026834403979592025, 0.4313387428857516
0.4856834587604632, 0.00026834403979592025, 0.5094362539485022
0.34818720809334247, 0.00026834403979592025, 0.6084244903981384
0.3256364661491892, 0.00026834403979592025, 0.5393831650826161
0.04644856794684472, 0.00026834403979592025, 0.592661957169524
0.07356671018650349, 0.00026834403979592025, 0.5450101325995638
0.2942199405744564, 0.00026834403979592025, 0.6830811440959133
0.19523364154722478, 0.00026834403979592025, 0.3144230374939816
0.11772462966535449, 0.00026834403979592025, 0.18622568730837497
0.17339184203608196, 0.00026834403979592025, 0.629789080583852
0.303807657931501, 0.00026834403979592025, 0.3328300468920186
0.1466186356334399, 0.00026834403979592025, 0.38244325261460965
0.4598202999275313, 0.0002683440397959203, 0.3074866544567429
0.30743924948243334, 0.00026834403979592025, 0.6248602366486831
0.28459414545773315, 0.00026834403979592025, 0.2247744685412444
0.01180840536471518, 0.0002683440397959202, 0.10999329024572742
0.009985191463175929, 0.00026834403979592025, 0.3766387480607295
0.2211595903087254, 0.00026834403979592025, 0.23729159715050913
0.14627173948225847, 0.00026834403979592025, 0.3771548920611647
0.748624352524083, 0.00026834403979592025, 0.6509455578274508
0.5456421407718189, 0.00026834403979592025, 0.46521004168686864
0.5845196777430611, 0.00026834403979592025, 0.4223599926263405
0.23764926412060267, 0.00026834403979592025, 0.5579474017467707
0.8518349378306824, 0.00026834403979592025, 0.642116955450919
0.20434623841493857, 0.00026834403979592025, 0.45018938660669183
0.03828409311413946, 0.00026834403979592025, 0.6757995193604472
0.49472790900970626, 0.0002683440397959203, 0.3510563501879404
0.09634116499441531, 0.00026834403979592025, 0.2796465321293782
0.013698740173435748, 0.00026834403979592025, 0.5339629957512901
0.44311714116738843, 0.00026834403979592025, 0.6338645944626015
0.5045886379997023, 0.00026834403979592025, 0.61310956996711
0.6490597687177886, 0.00026834403979592025, 0.47247276028104646
0.2934986974771305, 0.00026834403979592025, 0.40278305828546346
0.8622266511928061, 0.00026834403979592025, 0.6308305491943642
0.8409295476675681, 0.00026834403979592025, 0.5932226389520352
0.1595942734506704, 0.00026834403979592025, 0.6300916095407141
0.27692912110853163, 0.00026834403979592025, 0.20946335147503284
0.4895293752836008, 0.00026834403979592025, 0.3802314425285683
0.2523172101010149, 0.00026834403979592025, 0.5605886761305545
0.29291065266234423, 0.00026834403979592025, 0.3549772962297916
0.048223280912384175, 0.00026834403979592025, 0.7198172795354953
0.161554717359916, 0.00026834403979592025, 0.4457266828485721
0.45511294145717296, 0.00026834403979592025, 0.30698130751605657
0.9819859586770993, 0.00026834403979592025, 0.6712601182641017
0.07066806297683496, 0.00026834403979592025, 0.4733913470646427
0.22026999217031085, 0.00026834403979592025, 0.686608191262742
0.723680918108054, 0.0002683440397959202, 0.5239029248967143
0.05899061670351567, 0.00026834403979592025, 0.13990848733362649
0.09587951716747307, 0.00026834403979592025, 0.44925617028516596
0.4842148388394832, 0.00026834403979592025, 0.5788578523409635
0.018767019788849437, 0.00026834403979592025, 0.34253688181236797
0.5118926230935695, 0.00026834403979592025, 0.719961047202077
0.3342716536492442, 0.00026834403979592025, 0.6380906734050321
0.5022436368034634, 0.00026834403979592025, 0.6216925229866684
0.303667209203009, 0.00026834403979592025, 0.6106781615890223
0.54923250489687, 0.00026834403979592025, 0.4091371059726264
0.4123108447634513, 0.00026834403979592025, 0.5496335851821366
0.12389765431460598, 0.00026834403979592025, 0.6051199406702533
0.373978129219472, 0.00026834403979592025, 0.3260328875729608
0.5515557038774939, 0.00026834403979592025, 0.524183614663952
0.011976817679579853, 0.00026834403979592025, 0.6087885404424055
0.2789652029145329, 0.00026834403979592025, 0.25903168470486176
0.5489983553905886, 0.00026834403979592025, 0.5039470068774268
0.36413296334759365, 0.00026834403979592025, 0.7095837753458629
0.7114680552336686, 0.00026834403979592025, 0.7142657714260847
0.3097606973191287, 0.00026834403979592025, 0.6126028507208036
0.9339673454657296, 0.00026834403979592025, 0.7092850240422363
0.22405213054039122, 0.00026834403979592025, 0.45555634490591285
0.2158763239078834, 0.0002683440397959203, 0.28441832890163277
0.7455106793042554, 0.00026834403979592025, 0.5889322889701134
0.3154517673321261, 0.00026834403979592025, 0.5331481571927112
0.27008859094708687, 0.00026834403979592025, 0.5401899575668535
0.33166292002219183, 0.00026834403979592025, 0.29938740990489454
1.0013783364885316, 0.00026834403979592025, 0.6970907946363889
0.6136443732073482, 0.00026834403979592025, 0.4339265048113962
0.4543883523332121, 0.00026834403979592025, 0.3060466016249389
0.9477888183792936, 0.00026834403979592025, 0.6472254650015683
0.16096385538617244, 0.00026834403979592025, 0.4939504445567189
0.5911489699954948, 0.0002683440397959202, 0.4052718442086705
0.5780455241987243, 0.00026834403979592025, 0.404391977363369
0.2805162664497081, 0.00026834403979592025, 0.31826603657078156
0.6717885211128097, 0.00026834403979592025, 0.6554188671924854
0.4410070990617487, 0.00026834403979592025, 0.6936232619530542
0.3258271664805231, 0.00026834403979592025, 0.3476476090939111
0.0032024695074450754, 0.00026834403979592025, 0.38670428883780555
0.08977885127334366, 0.00026834403979592025, 0.6002981789320363
0.18351984195702123, 0.00026834403979592025, 0.19376718385514008
0.5958277812854199, 0.00026834403979592025, 0.5190758849688105
0.6630463315794229, 0.00026834403979592025, 0.7448425420271307
0.010280644616131695, 0.00026834403979592025, 0.28036393154934997
0.7680623541744819, 0.00026834403979592025, 0.6838976283493126
0.49620138656070967, 0.00026834403979592025, 0.3724174121883485
0.511253222510714, 0.00026834403979592025, 0.4574816771060014
0.1297289284535238, 0.00026834403979592025, 0.44857941062438084
0.445279972784094, 0.00026834403979592025, 0.4032542006556369
0.03946709719017768, 0.00026834403979592025, 0.453577446821607
0.5890391102761248, 0.00026834403979592025, 0.5942059331517457
0.1778966391994372, 0.00026834403979592025, 0.5705245678508685
0.3829483859277366, 0.00026834403979592025, 0.470100397645588
0.6967290337118441, 0.00026834403979592025, 0.5168110111911758
0.049140412213548, 0.00026834403979592025, 0.24774757214591223
0.0625887892231455, 0.00026834403979592025, 0.578574123903359
0.9953193889894658, 0.0002683440397959202, 0.7328256613083495
0.27662746044446324, 0.00026834403979592025, 0.7167367072716476
0.5209057702713082, 0.00026834403979592025, 0.6247422446326825
0.3006163991016876, 0.00026834403979592025, 0.5434080625938519
0.8031130792847384, 0.00026834403979592025, 0.6179458730472854
0.6481843457208745, 0.00026834403979592025, 0.6720275047503901
0.7664677599776459, 0.00026834403979592025, 0.7429330785751955
0.271468544987739, 0.00026834403979592025, 0.5635529618224668
0.9034084904468276, 0.00026834403979592025, 0.7007113025764622
0.20066082659470116, 0.00026834403979592025, 0.7154614678566207
0.6092273803127969, 0.0002683440397959203, 0.681619244799848
0.05314128940037536, 0.00026834403979592025, 0.050838159745437976
0.9647627181434267, 0.00026834403979592025, 0.720150635229898
0.7498191064929495, 0.00026834403979592025, 0.7124402756251748
0.17858601074409394, 0.00026834403979592025, 0.49278382422436845
0.44863412861681634, 0.00026834403979592025, 0.528699649209103
0.33094737911040323, 0.00026834403979592025, 0.45764206607051466
0.38553784320407486, 0.00026834403979592025, 0.4717347694903773
0.8842291533095682, 0.00026834403979592025, 0.5894770095917227
0.3225206352920053, 0.00026834403979592025, 0.35897276797747557
0.24040881958558252, 0.00026834403979592025, 0.22071295544037167
0.4455424642050089, 0.00026834403979592025, 0.3394419718105584
0.3177600584088742, 0.00026834403979592025, 0.3866425896598287
0.1906198353535548, 0.00026834403979592025, 0.640461619933455
0.6351311141407966, 0.00026834403979592025, 0.6344610301418325
0.43769374845647346, 0.00026834403979592025, 0.625842512671761
0.05286051622591094, 0.00026834403979592025, 0.10360343635974634
0.7962235944991101, 0.00026834403979592025, 0.707128872461131
0.8480560822464214, 0.00026834403979592025, 0.5929841639787756
0.775738196032638, 0.00026834403979592025, 0.6821550818977984
0.2891675930246261, 0.00026834403979592025, 0.38625098950810843
0.19903791440504676, 0.00026834403979592025, 0.6844394467754848
0.11915050898904668, 0.00026834403979592025, 0.28367061291418677
0.30403702570013913, 0.00026834403979592025, 0.46514938104651604
0.499950042326526, 0.00026834403979592025, 0.6580705823623789
0.8790863066685547, 0.00026834403979592025, 0.7382653163467229
0.41978122861240835, 0.00026834403979592025, 0.3510221065402381
0.06466418939579219, 0.00026834403979592025, 0.5367814456291995
0.7844004879559309, 0.00026834403979592025, 0.5599295675859355
0.6567222750128612, 0.00026834403979592025, 0.6286466302473125
0.7967402672403125, 0.0002683440397959202, 0.5300224359274961
0.05776763326566972, 0.00026834403979592025, 0.31347695598872183
0.10416076253156546, 0.00026834403979592025, 0.35093796641382313
0.5465045528704903, 0.00026834403979592025, 0.5604643948220044
0.18751355245103796, 0.00026834403979592025, 0.40244061601335585
0.5347834809740353, 0.00026834403979592025, 0.5666479320631652
0.0961347291261171, 0.00026834403979592025, 0.1681781236838837
0.42203482490437644, 0.00026834403979592025, 0.6065318711361266
0.08193109853209796, 0.00026834403979592025, 0.5764670591200938
0.5472382654903776, 0.00026834403979592025, 0.4957968215090923
0.21121250187416318, 0.00026834403979592025, 0.1539175898359744
0.42626591196977853, 0.00026834403979592025, 0.39930323995516315
0.4657675252148448, 0.00026834403979592025, 0.6273483255809711
0.326694960148611, 0.00026834403979592025, 0.7217554886361559
0.35357815060850895, 0.00026834403979592025, 0.6454761949236576
0.49612250428990823, 0.00026834403979592025, 0.5359421795390246
0.43715559028233775, 0.00026834403979592025, 0.5544668169470148
