-0.15768999425247796, 0.0025775418898665286, 0.05720378989065956
-0.1894185002260464, 0.01487742386916302, 0.005589474730333319
-0.1820449474479907, 0.011651695508916468, 0.009724785110741332
-0.1871745521980422, 0.013641133902525724, 0.02098893751518076
-0.18813002423089584, 0.013476955889539803, 0.032020889517966056
-0.19479475983255412, 0.01642453296464464, 0.031571814413936534
-0.199793666660109, 0.019170079632978503, 0.028775876439033638
-0.19611453156805966, 0.017859631248060958, 0.016586225003885933
-0.19885263566768865, 0.019268815877293795, 0.02138970051408999
-0.19704721116917115, 0.018527055181861575, 0.004938548597406251
-0.18709997393537525, 0.013121505100730492, 0.030725967957008955
-0.18581835671402935, 0.011433435639655862, 0.045104302303689725
-0.19248101154824718, 0.013860737429081862, 0.048103392285256535
-0.18738597983127878, 0.011235151835797808, 0.05427477207616106
-0.1884818197748535, 0.011081735814957907, 0.061704532610085926
-0.19491412338082598, 0.014610108463478207, 0.05149723366453243
-0.198081956564021, 0.015146078335759709, 0.06143343338442483
-0.20242038481894173, 0.01730291934647872, 0.06259688636168173
-0.20132075744688413, 0.019446306070463607, 0.04166287539997919
-0.19724832644956405, 0.017867368122501934, 0.027222626649660846
-0.1997641060352156, 0.01891182870538816, 0.032400597370228865
-0.20382980113034802, 0.02187685759299132, 0.025778297523761956
-0.2105402910964333, 0.026748378760837285, 0.03340875034807865
-0.21350479990673824, 0.029666998587352163, 0.04148872167144167
-0.20851278560303577, 0.022466542792494368, 0.05153419901045815
-0.20922147711101438, 0.02199854341039105, 0.06040231648274388
-0.213366897243827, 0.02729242697679754, 0.049237355946394265
-0.21318500082617564, 0.026834939499629895, 0.050708355214448754
-0.21823971216145965, 0.033146570914026785, 0.053388927187704216
-0.22191103453542949, 0.03937657966338216, 0.06490404531543767
-0.22045105223446046, 0.03995142364974935, 0.04609717814004545
-0.21962318988990576, 0.035848418805060234, 0.05219115926577922
-0.21331764271697873, 0.029724369906546436, 0.03647261249413412
-0.21976816038773023, 0.04024252758496346, 0.042076352335392274
-0.22277991372191747, 0.05037942700311297, 0.04341234401832841
-0.20542315188634336, 0.02378351307142161, 0.006318769482393537
-0.2063787459570098, 0.02451371745686737, 0.006662462340928756
-0.20823084646869555, 0.02535659367545818, 0.024459328741178177
-0.2093142324524846, 0.027276130117489056, 0.008322522560929989
-0.20516291909697978, 0.022399736892165602, 0.03114988459294764
-0.21467576051170206, 0.03166439449642046, 0.03108953545012893
-0.20871795139433091, 0.026390712938144233, 0.020145034810429504
-0.22174231136983677, 0.04831345651825067, 0.03456290716807983
-0.21227023692754587, 0.02881571205952492, 0.03021814952589603
-0.21968354225636263, 0.041109859155803875, 0.03292490096590036
-0.21802989827847902, 0.03758645637965434, 0.028274835630026557
-0.2167945862822256, 0.035925964359089874, 0.023954594167827192
-0.21908502157849769, 0.041034224498493505, 0.023590035077145043
-0.22046879556529692, 0.04773107043561768, 0.01830494494463513
-0.21731101231575, 0.038685324314743925, 0.012712844153685083
-0.2166410991677694, 0.037169400421856735, 0.007597620741407568
-0.21234490179318538, 0.030916074151197775, 0.013698562989576037
-0.2169244684441481, 0.03764995464019291, 0.0062349320440716225
-0.21842250843947023, 0.04167078400257173, 0.013083301428277187
0.19832446378538632, 0.009497742961313652, 0.05618126717604299
0.1900631581683369, 0.006666096519476634, 0.03657047688306067
0.18922150893996892, 0.00628752810310289, 0.04522480718878762
0.18976255290503533, 0.006002502827132553, 0.05248645131849833
0.2017908474673188, 0.013160799666786696, 0.03771629142270354
0.20804216622226268, 0.018179507314450588, 0.035733180177445555
0.20014265580167284, 0.011973558879105568, 0.04750070714318315
0.20671494674251223, 0.01674364342873541, 0.045913144561792296
0.19582011458000054, 0.008013523195489999, 0.060697232223394126
0.20745468530265151, 0.016788190346268463, 0.05181409672193689
0.1850000582273646, 0.004783676398975729, 0.03368533112704857
0.1914246073704416, 0.007819434171579008, 0.015889398714362908
0.187077289669334, 0.005553343784035854, 0.03291046860401731
0.18950532510266338, 0.007188581096469095, 0.011912682616963518
0.18909365483793644, 0.007089570796604772, 0.010513750287561312
0.19373873978675654, 0.009195766840684471, 0.001747710794913598
0.2009386104372699, 0.01358339109033479, 0.0010198065083352088
0.2001107164054299, 0.013466895870099494, 0.007462567941964626
0.198022751848035, 0.011504589870737218, 0.019103064354416895
0.19404281939063495, 0.009224096041161407, 0.01682735031439395
0.20664292533680573, 0.017764419430479836, 0.022568229776705494
0.2007080914597068, 0.013278183015276375, 0.019040874886403623
0.20628920958969532, 0.0172043164562498, 0.028992635097411075
0.2093148497048741, 0.02003149523502412, 0.027804236422419113
0.21342918378439413, 0.024338105773948057, 0.03241126545601945
0.2042208592973494, 0.01639963056292677, 0.0089089068430763
0.20994207646395396, 0.021557904406471748, 0.004343896290079361
0.20461722061242626, 0.016133164729050534, -0.0014788461715344787
0.21313600583474235, 0.024437160785253646, 0.02354136933879951
0.21291922589419382, 0.024604319165736705, 0.012494450949990599
0.21706175795699112, 0.030840975267552424, 0.014007202561808485
0.2216508841139469, 0.046553413317533585, 0.0061086230585425776
0.22017819424745078, 0.03859723471461969, 0.01407244236715955
0.21994014768363668, 0.039188298485831066, 0.008361435485349528
0.22124478686604948, 0.04180905375694847, 0.023758276644766645
0.2161864408643534, 0.029628551658054374, 0.009824010221029102
0.21385557595465765, 0.02561673210006013, 0.015910715951626832
0.2218269543556317, 0.0435295768941632, 0.02931178394416316
0.21893817470365007, 0.03473321084187636, 0.017143638114957734
0.21995577480581602, 0.036838596239759575, 0.02929527068519564
0.21255812018848197, 0.02237195656011735, 0.049801003212964164
0.212341294020701, 0.02310223793900236, 0.02948820985728301
0.20336107511400753, 0.01440921556593918, 0.035678305260340396
0.2062072486127204, 0.016308528291672595, 0.04121086084126242
0.2042737012072793, 0.0146151575972297, 0.049785332531294836
0.21483360254543107, 0.023777171290708613, 0.056300854102734964
0.2125027008167198, 0.022975411720229662, 0.03400648490567932
0.22202382668848872, 0.04315744249671424, 0.03741715721429342
0.22121996319779158, 0.039756342019953275, 0.04054879156681493
0.2154332286495118, 0.027507648485485203, 0.028053851151062938
0.21457574267944954, 0.025959147038071805, 0.03288821892498916
0.22220095603222512, 0.04454338125943614, 0.049282599449917516
0.22053487146131015, 0.038375033907796244, 0.034035987470582195
0.22012747687989653, 0.03634979504691649, 0.04942441205088824
0.22141352752134294, 0.04059233480769601, 0.04461279930380246
0.22135880487042486, 0.03851009468629779, 0.05473322028814707
0.2189958642918915, 0.030744295754671497, 0.05739252811899985
0.21562587029970992, 0.026437571356501405, 0.05088569413435691
0.2224891952049566, 0.042212385927914556, 0.055677096092854025
0.22019518269040192, 0.034347148752935416, 0.055248576032184284
0.07647998567415318, 0.012581884595754572, 0.015325996124233288
0.07387665692056289, 0.012573479483433354, 0.019192830664998762
0.072067624694823, 0.010916512036515912, 0.010575339321859032
0.07918286511826135, 0.013943419564353491, 0.026217103175995356
0.07805905236590543, 0.01752825737628233, 0.042743556689338325
0.07417043619278084, 0.017128208580556775, 0.0422247191574603
0.076163811131425, 0.014236796234766855, 0.026990071882361178
0.06961257424440181, 0.012559101458140194, 0.028595546368416033
0.06621289415100917, 0.016116907948110843, 0.04821245780333203
0.05479153096880165, 0.010678689073778945, 0.043628247559598536
0.05604425656613191, 0.010053566400156184, 0.04007000686396757
0.0637219371617765, 0.012027167704747757, 0.0374955071104681
0.06154555200534172, 0.01116093507537765, 0.03725110066751562
0.06820907312522173, 0.008531104785867188, -0.00017155139684629317
0.06462456199958547, 0.010478677013497006, 0.02868414886569928
0.06566373299136072, 0.009944917743615457, 0.023514730203186698
0.05467538656314323, 0.00658647894435583, 0.024388047768248922
0.06395970701162025, 0.009268591214904595, 0.023576984050174055
0.05512349065330975, 0.0050968387473893755, 0.013725668872262503
0.062086804697116665, 0.008521154802146581, 0.023159247764701574
0.060889188140955675, 0.007105170653827722, 0.01712895433208822
0.0582141314827318, 0.0055979812240208445, 0.011489347479229101
-0.15478559191277674, 0.0022948264238640144, 0.05980191368149484
-0.1585735229683582, 0.002652460778950241, 0.06336288096283368
-0.15502601516431852, 0.003183013765153721, 0.07688807880208123
-0.1608938094443501, 0.0034248111950533787, 0.07368454489648658
-0.16708715897733772, 0.007235643125506281, 0.08179833432344237
-0.16360739133494737, 0.003409591084949547, 0.05803765456566905
-0.1662557891597334, 0.003937239579772363, 0.06573810036852118
-0.15851255054186175, 0.00443943501428036, 0.07870036687095598
-0.16233220556296385, 0.00611679640550262, 0.0883141124589286
-0.15970894877880748, 0.0066011497044976735, 0.10538360902469815
-0.15940904343642617, 0.006337128545805703, 0.09494965603056857
-0.1731555496314627, 0.008182811724276448, 0.0980212667158686
-0.17145516910389935, 0.007988497016806697, 0.09951499652973636
-0.16830142916869315, 0.007549850310653623, 0.0896107587961182
-0.17070319051332586, 0.006983507698317999, 0.08067393784228777
-0.17585536366188528, 0.011044736012993227, 0.09352683636781302
-0.18352662890902943, 0.010785831729117946, 0.10102171620240696
-0.17523686813181763, 0.008913246311823482, 0.1017629288056929
-0.18435668343861872, 0.013139905146115101, 0.09681880891560334
-0.18674452093140936, 0.012154990687338788, 0.10086253854992855
-0.19117556573853367, 0.013458960148084335, 0.0947275036622931
-0.1858943559024046, 0.012189978525127647, 0.08751353172695325
-0.17301277289996, 0.005967251583195601, 0.055111765488471534
-0.1762222394422151, 0.007001270605582184, 0.055514712988997655
-0.17853217992222323, 0.008413841968285396, 0.08091453034230794
-0.1733661998210283, 0.005869446047717546, 0.07363498483193333
-0.17828057762820299, 0.007342512803589305, 0.075435375128396
-0.18059170565104346, 0.009214686757964852, 0.08975986786433764
-0.18671250512973986, 0.012514306917503736, 0.08550589372594035
-0.18141202334236647, 0.008227361379109552, 0.07025640223324552
-0.18104168025231865, 0.008144605467815726, 0.06699317754917053
-0.18440829752596993, 0.009235251188115625, 0.07284538928637273
-0.1587314528876261, 0.00387969377113384, 0.15048640962816104
-0.1587423629568377, 0.0030701587912165774, 0.15997682987719142
-0.15360562796208613, 0.002723097432847323, 0.1614714935243296
-0.16218485896640966, 0.0035948344880164804, 0.1563807432397083
-0.15604902891711647, 0.002452786485324891, 0.16728963988604564
-0.16586549342729365, 0.0026268901171244315, 0.17387884792500655
-0.16629220727517535, 0.0036641338324995983, 0.15953561594883847
-0.16520574531028892, 0.004133159915574671, 0.1533794961931989
-0.17254509786872668, 0.005223543350584801, 0.15110627084301387
-0.14690962736166766, 0.0020950783719685833, 0.18350068880667286
-0.1596579544880512, 0.0021843168857348908, 0.18496074505889964
-0.1625593661901466, 0.0022668063176596084, 0.17995502669732352
-0.15708858429557693, 0.0034491404146344963, 0.2022063439118481
-0.15524962560743497, 0.002886199511374816, 0.19751827706441205
-0.15505476318375014, 0.0023892670050266033, 0.19130023333269497
-0.1652654000042743, 0.0038409630260078436, 0.19868644572746352
-0.1597905700919724, 0.002287870530645738, 0.1879847805815946
-0.16173926776838585, 0.002311496362759922, 0.17566415392857315
-0.16226999371546735, 0.0022246408123958693, 0.1834304160733111
-0.17055709620418188, 0.0027572996502362892, 0.1777877192243718
-0.17220223910866472, 0.003211269382327688, 0.18692108018101097
-0.17174632353132624, 0.0037695864440416816, 0.19817500728827717
-0.17533726915819914, 0.0031591168574549265, 0.19392526000524557
-0.18192801388338542, 0.0037463704800376656, 0.19487701832220328
-0.18106291423443602, 0.00457373434148431, 0.2055262579798199
-0.19253238923413885, 0.005228991717083856, 0.18904293778930759
-0.18149544494212017, 0.003622231259151825, 0.19192690388545527
-0.18863479897519692, 0.0047252722645400235, 0.1821789852959118
-0.17284134080661123, 0.003940482964800007, 0.16328674162810658
-0.17475050726456043, 0.0041371055267527875, 0.1634559880615561
-0.17639815530228392, 0.003143697343938102, 0.18269099621983326
-0.17448872871238302, 0.004140059597592148, 0.163081855627977
-0.17780406335056453, 0.004002161662092461, 0.16928615198042468
-0.19007611489395776, 0.005379176330085235, 0.17630196302351048
-0.1852472491296886, 0.004721295230150833, 0.17354925842202934
-0.19163594865682626, 0.006356822273529502, 0.16923510965421057
-0.18492929770886973, 0.005736950682254457, 0.1627616826673311
-0.18287369323364608, 0.005881883123810341, 0.15862402467768905
-0.1893981722374181, 0.007253339123752457, 0.1577642558495178
-0.15913003359374933, 0.007983543041295837, 0.21901907117871616
-0.15461413509098115, 0.004532604848205824, 0.20820764685493862
-0.16239456959443543, 0.004458133467402373, 0.20833020997688903
-0.16314033409371417, 0.01501352294172692, 0.23028845465889045
-0.14987730201609312, 0.009829382434392957, 0.222152577545786
-0.15981164090298217, 0.015780963877831924, 0.23086544190633815
-0.16056043224508657, 0.009730985957167447, 0.22309916982896402
-0.16913778291907236, 0.022108279911800078, 0.23445046586060864
-0.16026111180668348, 0.010739841700198541, 0.22459617993493208
-0.16049877779657026, 0.009286150742411223, 0.22212984868463115
-0.1702536916287246, 0.009195427492350848, 0.21843458066778515
-0.1597725591518252, 0.004273862397451817, 0.20740885399468112
-0.1720781302627569, 0.0037811676502231026, 0.20010341577618504
-0.16329205286777526, 0.05259463972911816, 0.24381830766267182
-0.15577984609972273, 0.05314626080202788, 0.24337598779417824
-0.15592688641755043, 0.03565071576983507, 0.2401786720845901
-0.15732969601017882, 0.04465369728733351, 0.24236048904668922
-0.1614341835159801, 0.03708849145489043, 0.24095773091541123
-0.16787086665724654, 0.048284525720875056, 0.24332637525258263
-0.16574686677955272, 0.03867499935546194, 0.24150014111446286
-0.16600972571052558, 0.042749905161659385, 0.24233456216793295
-0.17293505183580318, 0.03251878640638831, 0.23775893549762644
-0.18439163725283025, 0.05002176433829243, 0.24180984238560077
-0.17935848936622287, 0.029189769395069697, 0.237326099859041
-0.1864955230832522, 0.031779893635953724, 0.23737417876872155
-0.1825140832967573, 0.0378785276224929, 0.23952580109576507
-0.194334976408546, 0.049240478794062695, 0.23981584387035074
-0.1886789796148839, 0.05269657336197291, 0.24138243266171372
-0.19840212604971652, 0.029541711395642843, 0.23499452485936556
-0.19130045331145962, 0.032942694774775384, 0.23705024615526213
-0.19513224714543256, 0.032127158090364254, 0.2362431927648637
-0.17787612144211284, 0.006710069038532292, 0.21561501631001853
-0.17615680061822345, 0.005781089692275955, 0.21239351130383263
-0.18018603319199056, 0.006127925841110042, 0.21302615572492045
-0.17581474757467197, 0.021056385930955376, 0.23405291413148405
-0.17314945368360737, 0.013093603373660834, 0.22682990188200752
-0.1827873730499891, 0.011012894038104319, 0.22403957373249012
-0.1927442000120284, 0.021166593797498398, 0.2326245368684652
-0.18452298082888824, 0.015950984389398404, 0.2297563763951131
-0.1834308349013412, 0.009322613163984594, 0.2210738822350759
-0.18525329015266997, 0.00953006201442579, 0.2214647074829573
-0.18686698448001743, 0.005568296589714472, 0.2092337211646455
-0.19128055200529684, 0.00645475389385962, 0.21210237816010127
0.1937349302448332, 0.006873603904100391, 0.06344578315305888
0.18693461306437673, 0.005017011905754078, 0.07295844276851217
0.19647001591811541, 0.008173492547904617, 0.06898463026070024
0.20592106175384361, 0.013938960902643911, 0.06378709088140878
0.1972533832225951, 0.008637566687739358, 0.07341928960836676
0.20475174265138602, 0.012665421077059359, 0.07284697889221052
0.20199652446744287, 0.01132727054277883, 0.08285618869619978
0.19878348732330264, 0.011666170778691557, 0.08748940908373672
0.19747307114240553, 0.009198508862973223, 0.08043176388966007
0.19888892371790093, 0.009400472072631099, 0.07352992096643084
0.19525877950852683, 0.008664521363236513, 0.08288082203577758
0.20558302120591587, 0.013322686735739046, 0.06902160626186807
0.21203283812220386, 0.01906171843959808, 0.06726642055150149
0.21214656166130436, 0.018688718535001897, 0.07472810667329885
0.22267881281177754, 0.03602187978192071, 0.07533130918982645
0.2244114396368227, 0.05044285509530941, 0.061851666061975424
0.22297194427644743, 0.04209946609809279, 0.06044705990820806
0.2175242423155193, 0.02738950299913911, 0.058117909091065276
0.21994748120209515, 0.03213655015516537, 0.06145193034597317
0.22039714533617652, 0.030571895598573887, 0.0732518223002703
0.22295416308981203, 0.03832653762435751, 0.07185085798735613
0.22439989501539984, 0.03857146150693166, 0.09468590844377876
0.22423700412753594, 0.0405048029703317, 0.08336473555547483
0.22073043482288893, 0.03012623797721727, 0.08345488020993312
0.22591995057153297, 0.041589406068611404, 0.08993802576617192
0.22363066160993078, 0.03587466005052846, 0.08622460406326943
0.2187020093956173, 0.026856190273472292, 0.08235047669573031
0.207713269751807, 0.015013321102049206, 0.08342104924339429
0.2197659731043464, 0.0286036767477205, 0.08194718270346343
0.2148621747786165, 0.021109429507824382, 0.08916963061718475
0.22162287639546868, 0.02839106689174613, 0.10278609570752872
0.21706056968995552, 0.0229799405381559, 0.10399929787791902
0.22752320293758807, 0.04359844208378516, 0.1030946485015594
0.22735706849097323, 0.03883819222732542, 0.11030887851387017
0.2260257990346491, 0.043594208567511505, 0.09351732549141313
0.22209810244263295, 0.028970704392553965, 0.10324653432887937
0.2231243129842448, 0.03580843310828471, 0.09769059772218795
0.23130487333415042, 0.05178830446151002, 0.1309183367692832
0.22749748545470408, 0.04992472875650813, 0.11928806521691383
0.22606358541437258, 0.040896154777185424, 0.11630823303072213
0.22703573357972914, 0.03772770344426888, 0.11107183531080572
0.22731546310142348, 0.0447010752515318, 0.11633384432907515
0.22541313186718342, 0.0341714359533972, 0.1272228550353038
0.22367460347968465, 0.0363740442728029, 0.11696616504312854
0.2245717964205083, 0.032435937537962777, 0.10931760192672468
0.21795056969197743, 0.02512039090243272, 0.11002020754051901
0.2191421099985771, 0.02794716645278361, 0.1201791170573313
0.2002465744181467, 0.01279932352263909, 0.08891740115832097
0.1972240618431573, 0.011783393793363113, 0.09502814313874314
0.21349712372157928, 0.019841329979560035, 0.1008078106950612
0.21323273776581617, 0.02140131642890069, 0.09539699327154416
0.2119035327557239, 0.018747885833202933, 0.08944648969168748
0.2000945415824348, 0.012697610388524582, 0.09706949411313315
0.21418862642913628, 0.022920856290192478, 0.12016555466146767
0.21810669390930656, 0.028357746982249375, 0.11523071038516892
0.21013444946414073, 0.02026047140595351, 0.10890547313640887
0.2114997087260222, 0.02202522692658049, 0.11675052740180658
0.20925747587516813, 0.021298529297871835, 0.1137195822846408
0.2009652911907481, 0.01773587202874538, 0.1115352577486306
0.1886254204898794, 0.01403299480047909, 0.10328209475306482
0.20337375463103585, 0.01878311498490717, 0.11108558797807186
0.19775725217190088, 0.014702270649656946, 0.10390585983039312
0.1937964117506808, 0.016105705069908546, 0.10634092456258297
0.23096051752316452, 0.04371741535148921, 0.16698164115868525
0.231559127241184, 0.04494023593142613, 0.18074200597752263
0.2293009573063629, 0.03730111634335508, 0.17965293393603157
0.22945849794695575, 0.03743293882548024, 0.17800486892433853
0.23043480110823333, 0.04177334055686151, 0.18478789699047615
0.22757444785664396, 0.03353834476247296, 0.18201154052938492
0.23011551734791047, 0.03872021311087832, 0.1958653120995398
0.2264374788165414, 0.029733645795469908, 0.1945334222687927
0.217514550253584, 0.01926796191073366, 0.1803497220119327
0.22159578184271017, 0.022254588899411946, 0.19241819470522534
0.2247598023778122, 0.027799465089992065, 0.17978617186399748
0.2250177819166928, 0.02884688302744872, 0.16606599966775554
0.22379919408190296, 0.026772043724003852, 0.17024269733229824
0.2184989459350653, 0.01995684505496119, 0.1736901867523483
0.21485113895359398, 0.016575812096301552, 0.17046010598797914
0.23146677768728655, 0.04275943916527569, 0.19380774658971212
0.22986617239571697, 0.04396380004771461, 0.21224586291762845
0.2322570434990679, 0.050225953297629036, 0.20169308141832418
0.22713457730898504, 0.03111507603358985, 0.19365016309196756
0.22712824691803038, 0.03289227498296357, 0.21016313077675672
0.22909525683285253, 0.047766067409116965, 0.21739183243254492
0.2274628930675196, 0.04240601555561909, 0.21965044453735358
0.22594808490840748, 0.031643057912825824, 0.2150315780216105
0.22575326561090497, 0.03088337773967003, 0.2145711764829799
0.22199634237103724, 0.023072993356373223, 0.21758788947553434
0.21979940857587263, 0.019068765447507123, 0.2179398018141659
0.21850077214560332, 0.018766218885988378, 0.20187494790166668
0.22246559040202052, 0.0232188600167252, 0.20485257005510507
0.22470052541429633, 0.02638131093917845, 0.19056671656640659
0.2203530041644466, 0.02052629466597211, 0.19561425244438427
0.21629723561444475, 0.016610744773670093, 0.19545719724551347
0.21559819309975625, 0.016206242167687592, 0.19850564665579332
0.2116835042564786, 0.012949521527206022, 0.19718265945908825
0.21695235851309433, 0.015111748874352238, 0.2103787533098317
0.2014921786837094, 0.005813801615333135, 0.21086507128087156
0.20101988574811502, 0.005853982155186882, 0.20613450070852973
0.197392755787945, 0.00493347945151623, 0.2049375124921396
0.18658007936888776, 0.0030554497326741336, 0.2039811292433237
0.19502771056036466, 0.004201200244209997, 0.203084778121295
0.18980201894598134, 0.0031782327681266083, 0.20203034731376684
0.1965062611950092, 0.004235980844926334, 0.1964490854974015
0.1996903282063252, 0.0052550092905725865, 0.19365511845454297
0.21123197699367224, 0.013821546727275565, 0.1723997034719503
0.21232634381642118, 0.015041135762335315, 0.1658729003172853
0.21446459969900894, 0.016292366535992624, 0.17005320537364482
0.21574046146882608, 0.01594367084508762, 0.19251561797491762
0.20300477181252474, 0.006960874786287954, 0.19054106318952524
0.20999892457069905, 0.011645828003155997, 0.18403272904806117
0.21765973869281252, 0.018090880121864893, 0.18665365856560406
0.21121833595353623, 0.013161119552415576, 0.1813490967126539
0.214445392061801, 0.016160505295428, 0.17282758517158153
0.18618402101068982, 0.0016338137788023852, 0.1839143947880678
0.203711954407671, 0.007529318594532101, 0.1856601087845986
0.19129771579093596, 0.0026269376057605105, 0.18475010844203937
0.1975936550997235, 0.005287565374615394, 0.17695096122052398
0.18379335746445669, 0.00145044123395511, 0.17850008709862253
0.18339278711421655, 0.0019291047004361922, 0.16986588527944982
0.20593271145349895, 0.010332494142422636, 0.17060367771008414
0.19104129448542922, 0.0036267261405055033, 0.17113740819555173
0.20746005547214857, 0.012233489608525064, 0.1595302577204087
0.1936596660156034, 0.005093941956745041, 0.16314940018391283
0.18767670109895201, 0.004596951409673321, 0.15616556311483099
0.20203718559155628, 0.0092470787999197, 0.1581125256169926
0.22236774557693267, 0.03591056514883641, 0.22850426227565657
0.224557217360134, 0.048279797288305816, 0.22872145572452718
0.2222231743273552, 0.043345215590430135, 0.23128212590118302
0.22335450836638693, 0.033984196468050315, 0.22523669633248306
0.22216828765523097, 0.026023346421532124, 0.22187246879588826
0.21870697014056684, 0.02270759232846135, 0.22829654317561032
0.22168902209252728, 0.02793535993385715, 0.2255835415022409
0.21749038840885143, 0.015940777451016592, 0.22201483642627953
0.19300340958022447, 0.028469528098570417, 0.23807314781587646
0.18938628882842873, 0.037736847610280816, 0.24058695424027499
0.19002041388933116, 0.0443220372543332, 0.24188418803469805
0.19811634479208767, 0.042144884071561084, 0.24128354831746607
0.2029433058241624, 0.036829098079586904, 0.2399400229742642
0.2044087010934372, 0.022204556948527028, 0.23587797600401353
0.20463535410726022, 0.029279640733686357, 0.23807565144922438
0.2123883502719519, 0.009961038350669844, 0.2223781577430926
0.21435636692769536, 0.011743032169355678, 0.21659981182695998
0.21009938505742798, 0.008707964526210345, 0.21539995678259288
0.1942375610030907, 0.019539521957454464, 0.23446885179768392
0.2078606310979254, 0.00947472831559279, 0.22694259983045725
0.20095175126182704, 0.009505165361643808, 0.22718056157420835
0.19321830591785452, 0.007664176572096427, 0.2209628582556737
0.2023646405007972, 0.0068633710291535945, 0.22162456880185427
0.2040571306168314, 0.006684446511003395, 0.21130320210630377
0.19163718717604275, 0.007637420963215368, 0.22028809898414892
0.1935704436112645, 0.005459404824305785, 0.21331403994643042
0.19115752078308934, 0.005846867218356973, 0.214524797295382
0.1039357435197189, 0.015646981043506408, 0.10570765686229831
0.08866819685245596, 0.016291762940362522, 0.1072327836237868
0.08818774816513539, 0.019460205120048354, 0.10071578357773601
0.10261606206954796, 0.016780102842657234, 0.10035410505522574
0.08456173351561323, 0.015356776905729189, 0.10741073604426037
0.06652600888090242, 0.015376171274220864, 0.10332560978445988
0.07279663055820737, 0.012839732363413646, 0.11055343834068831
0.0746722011019524, 0.015415054628675113, 0.10478854759992015
0.061731677351477325, 0.01860349649851257, 0.09634689422426085
0.06412703419582653, 0.01874077482908499, 0.09665481144811963
0.07980152378523611, 0.018997913005456033, 0.09928299295694444
0.07582585084656962, 0.019717091868062298, 0.09743865401632071
0.058619056941123356, 0.021600594459568478, 0.08979080043324644
0.06904639772921628, 0.020409249664158583, 0.09500569746610109
0.06238526897352588, 0.021193704895377117, 0.0918598877173191
0.06997450170107465, 0.027225729924945152, 0.08351539914591351
0.07488481735294951, 0.02665887465299794, 0.08670555325296855
0.07992810093999417, 0.02271197376160123, 0.0934918102562745
0.07615120296599902, 0.027540972985064156, 0.08527263038866699
0.088150663950706, 0.025162753632316126, 0.08695368889701513
-0.08153676485394146, 0.022976104657671994, 0.06710314456726807
-0.08349034116577345, 0.02103273754116059, 0.06438710970188348
-0.08473662611035941, 0.019326701789126, 0.0615978464516123
-0.08503768394123792, 0.028252317429397336, 0.08408640928320253
-0.08941165578015417, 0.02126560162747738, 0.07307908268797818
-0.0992061605627888, 0.017879211904662202, 0.07898928213100806
-0.09593852827602067, 0.021396051843998582, 0.08973842586086409
-0.10897399057514637, 0.013047057214225003, 0.09873202120967826
-0.10796250128732016, 0.015837173012638504, 0.09279167157424063
-0.10012900530413972, 0.02082486166889725, 0.08812043989183543
-0.11168950456279172, 0.014488586456635958, 0.08686430754910691
-0.0865677243473405, 0.01860677013815761, 0.06197679865755182
-0.09673674470513584, 0.011993353813671398, 0.051760782467872
-0.09162999674550248, 0.022002283266307127, 0.07856467854892422
-0.09395354554134663, 0.015961125929868973, 0.063859779362933
-0.1132646288955074, 0.011125772422007152, 0.07705799030977938
-0.10330383194235876, 0.014923805649730025, 0.07509885239264887
-0.1124290806574019, 0.010364993474886515, 0.07067080907379174
-0.11057374617542098, 0.010603053236016999, 0.06792926605438511
-0.10000287768095276, 0.013988854650204104, 0.06549080073432514
-0.10198564095051482, 0.011844346504885308, 0.05883756588571001
-0.10739304149435883, 0.009255104566377596, 0.05254287418723128
-0.10632462587949627, 0.010932835900620497, 0.061121181376399186
-0.07700470051006447, 0.018111720390936017, 0.05034942573082645
-0.07265883610418866, 0.019054418930973784, 0.054261371046751564
-0.07591150447404654, 0.022114489506585157, 0.06162406978495686
-0.06549802242998078, 0.01914777017476936, 0.06110721236842773
-0.05521086280570133, 0.015277217799302635, 0.06120229080609202
-0.060064812075862825, 0.016636727022917724, 0.06037488325465046
-0.0537465084331786, 0.018340867950255003, 0.06778896447945891
-0.06415024921771795, 0.017519848692228803, 0.05877620273442309
-0.06981942797153774, 0.02465553622574958, 0.06980132165824879
-0.055645922796447936, 0.021598800206012736, 0.07324382498635322
-0.054872232115950034, 0.022361777427836696, 0.07650922212440119
-0.06520086993275033, 0.025814459042606333, 0.07841130510082286
-0.0778520301209528, 0.027387153499786886, 0.0757759472836445
-0.07340745060579061, 0.026729488967684, 0.07374235056850195
-0.08088113496343932, 0.027693235213757623, 0.07822370799962579
0.05929297294602415, 0.015298651112497036, 0.053246441219128096
0.06285191791493042, 0.018141941579317155, 0.056554707385732615
0.06324602962619476, 0.01985678896292877, 0.05966033508130043
0.06453785735205476, 0.023197937034754465, 0.0651051563911687
0.05821011220906075, 0.019696993107641024, 0.06299575883799029
0.07241692034755748, 0.020216370174898645, 0.05287521569227095
0.07954949745817676, 0.020185734676585788, 0.05172971015866874
0.07915240351248044, 0.025045922953414505, 0.06292903734215327
0.07409833609966256, 0.028457047818818342, 0.07048401321729911
0.08167203604495556, 0.02906038799621331, 0.07804249663121078
0.059694803373465014, 0.02297862576322377, 0.0681492759770932
0.06414134029089671, 0.025271477567692772, 0.06964427295316777
0.07680339188311859, 0.029455381468178284, 0.07363273947277121
0.07150441502495013, 0.02908546533250443, 0.07601662899617205
0.06265412741803955, 0.02653600765251026, 0.07627441834839462
0.0809067325392488, 0.022290558615046016, 0.058084228959700786
0.08653342715750126, 0.01735610259651972, 0.05387769057360041
0.09072754881593735, 0.01929019462843211, 0.06695680929597003
0.08311709648969978, 0.022778345650780834, 0.061819234370227
0.0928020973301314, 0.013861263203840605, 0.0549995186621844
0.09162512271537718, 0.018590481111328685, 0.06698304165244
0.09851239186504282, 0.012660801748502924, 0.061382677787944276
0.09843406612498061, 0.015340082566999943, 0.07142372071410419
0.10030415577576046, 0.015472038227621509, 0.0753317833407458
0.09267358977898715, 0.01856477655710299, 0.06904337491097008
0.09638533193433858, 0.019973939858103834, 0.07715878119876526
0.10541274021521933, 0.01605898812237205, 0.07979581881143105
0.10111642953906072, 0.017747173487893307, 0.09003371583769287
0.0978475139451479, 0.019462600057560973, 0.09591275040169958
0.09999194334086696, 0.018117336962269817, 0.08821374212653846
0.08540878050894962, 0.026501573837650352, 0.07471870212856066
0.08921356327421999, 0.02412066158772869, 0.07701702589083995
0.08988185412749933, 0.024440124575236657, 0.08228146676797674
0.08561628711840327, 0.02739982695962129, 0.08223720879573496
0.09784948255050761, 0.012398267426130453, 0.1585317155721161
0.09597153736046155, 0.012291792412318307, 0.17255684615798733
0.10016509241740465, 0.01060092660486078, 0.17203184117604148
0.09296487938747305, 0.011218921235066803, 0.17252799240422162
0.09393160248846508, 0.011461226988504472, 0.1653626442626439
0.09380731660602085, 0.011158040859821082, 0.15722908285575957
0.08865243601182365, 0.009720564876705199, 0.16188645369002658
0.10380385024168343, 0.010836220009885563, 0.19186566779610112
0.0956709635465184, 0.012480942064209362, 0.18800021466575445
0.10098155597922022, 0.011520988975665995, 0.20410334270267474
0.09422278059816167, 0.01232637004139495, 0.2072837189799555
0.09830296036471142, 0.012165364245081628, 0.2006186775076867
0.09429768266503073, 0.012284650421468058, 0.1949538241396739
0.0915236196197336, 0.010961751370593862, 0.18648417570458878
0.08755688540645837, 0.010431296700658892, 0.1863311349287047
0.0838203544712512, 0.011160909540959347, 0.19012770383413197
0.091619166214988, 0.011328033746563156, 0.20550171654661653
0.08668333322830948, 0.011012417731924986, 0.20194868694068474
0.08377257911781157, 0.011516709533107565, 0.19622973751608563
0.06675101674735576, 0.010484499607141855, 0.20548438815709785
0.058453818761047105, 0.009920582491323954, 0.20488992202782147
0.06971617841128147, 0.009603323987081622, 0.19525452741993957
0.07564733068021989, 0.010217359604495106, 0.1985877308090029
0.08066252083785252, 0.01170220795660039, 0.18519839928249932
0.07426038468715399, 0.00958432592786114, 0.18933283200129453
0.05828271023770839, 0.008336956176895104, 0.193629928837876
0.09140350984244702, 0.010215079710578695, 0.1491634739707711
0.07828964459958535, 0.009012156297185686, 0.15904432358219903
0.08246758029175522, 0.011437819572352282, 0.18736374127452382
0.0791911720493225, 0.01106597627265918, 0.18541502570467486
0.09091039412958221, 0.010286042888682078, 0.1730444888197523
0.0773134998744115, 0.009694267513375392, 0.1755800103712547
0.07709368740999392, 0.009274079811025484, 0.17078358129450133
0.060988292549049625, 0.0075101699420418765, 0.18080602921469893
0.0639233579319708, 0.008227787489115275, 0.1850339278589903
0.0797224729186207, 0.010717837760411953, 0.17437574784107374
0.07459987197826792, 0.008725594095178764, 0.17334690137794134
0.061319479473676504, 0.0071116591622061584, 0.17422215159996382
0.07826096702022442, 0.009432047784890077, 0.16537962208957024
0.06796559600966667, 0.007536034360769958, 0.16639185737557777
0.07408938329891376, 0.008006482212823036, 0.16084200418110664
0.07646826304412338, 0.008133570007390586, 0.1570022596637863
0.05810509385667666, 0.005911153311558799, 0.15214160390870007
0.06774033847182805, 0.007112440325820882, 0.15520464319432395
0.06747214065956683, 0.007031273216398513, 0.15206038925405244
0.10525355308449376, 0.02723350468094732, 0.2344769413240941
0.10938783913305469, 0.014816259681770458, 0.22351000132979282
0.10282205204103156, 0.023925396130534748, 0.23278891426222367
0.10281648566161243, 0.015847245178681184, 0.22340830961292588
0.10151392944349878, 0.014360140077839046, 0.21893403153504298
0.09386644580174926, 0.013882870768441127, 0.2208658422469212
0.10606491052538278, 0.046240171392967086, 0.24080848033117852
0.11504125431378043, 0.038023244897934974, 0.24012635062517668
0.11002769954911742, 0.04502223172294241, 0.24097829363913725
0.10243038706137204, 0.04188315694304627, 0.2392777253079148
0.09659758113305429, 0.034079348835054354, 0.2368602337435049
0.10894505852931012, 0.032980150098729774, 0.23791452609632807
0.09368508521348554, 0.04069997038135932, 0.238055848995526
0.09952941969392895, 0.03548265856454144, 0.23747107934144246
0.0929445438240312, 0.038536024883364314, 0.237382151296618
0.09267122614945326, 0.03379973851833362, 0.23620484798869137
0.06806183160734446, 0.032474088693160374, 0.23392473345309972
0.07374387135106701, 0.03435282374708312, 0.2349281611227516
0.07525746570707835, 0.05179636254147387, 0.23791202849189286
0.08125511244575254, 0.04283822707815334, 0.23747484888738635
0.08660850029294023, 0.03609812293028748, 0.23562267351293376
0.06890241443435838, 0.03618350230825404, 0.23497561780034107
0.07553913966018669, 0.03463027557300741, 0.2351669185803218
0.091854431022324, 0.013131003263899464, 0.21820351922266945
0.08310923166088213, 0.015091569512644417, 0.21922374750707255
0.09182687715479548, 0.02302892587140537, 0.23217232677857458
0.09610470118680073, 0.01816338892413772, 0.22886186307583978
0.08949781038643398, 0.017041557227340354, 0.22568955175823155
0.06256786669561334, 0.022710221157036976, 0.22925815685413586
0.07083943393317424, 0.023929192436960137, 0.23060416189823238
0.08474784312933278, 0.0180737187033884, 0.22497151238111882
0.07154124252806644, 0.01691395599045107, 0.22409347386222234
0.07638947537466638, 0.01672221703999897, 0.22445421029065218
0.07405746931033952, 0.015256844411392238, 0.22186580802951944
0.07208169832421774, 0.011725983283039218, 0.21197116321426113
0.0675168767208385, 0.01099411964437974, 0.20821825485596743
0.06927409452700209, 0.013019724851837215, 0.21632069051373176
-0.070192881932647, 0.017021502112245953, 0.10842775066477801
-0.06902800340505691, 0.019145745204394528, 0.10384311863128384
-0.08036629304960927, 0.016442584380381854, 0.11196424074698436
-0.07825211645693939, 0.01903040642465495, 0.1071585098427831
-0.08222426093772557, 0.022554005907711075, 0.10093010445647374
-0.07675904282061294, 0.022898426040452356, 0.10032448408049356
-0.06567975548103004, 0.019378336551107087, 0.10130054136869301
-0.08833411598370397, 0.01573458419004917, 0.11016929715048779
-0.0799997195065128, 0.02034871485670066, 0.10499331340125159
-0.10464691731707707, 0.015347144216669686, 0.0965772318028347
-0.10307898375850755, 0.011848200013768823, 0.10821769804462518
-0.090358412895248, 0.019408140076872207, 0.10199552536589628
-0.09832437218560411, 0.01998162184737385, 0.09022649017036914
-0.09121203707066648, 0.021443574803295527, 0.097514304147179
-0.07997848663305057, 0.022004774805700796, 0.10214430471642624
-0.08341767469756228, 0.024312214411606622, 0.09766638715126996
-0.09429850920154317, 0.022590873557905997, 0.08809827950122825
-0.08463255279775579, 0.027854042281040693, 0.08211700498814467
-0.07919459890610744, 0.028984972859074108, 0.08544483555902391
-0.06343667853182325, 0.02253316016228448, 0.09304440559120958
-0.07669348955266575, 0.02603495973209395, 0.09424663824426877
-0.07463879127810889, 0.027311329423396313, 0.08961160542226017
-0.07526591937504618, 0.028476735497307563, 0.08449657569321843
-0.06707913639802096, 0.026164815409546377, 0.08453399063940777
-0.059472167655004696, 0.023321693860531133, 0.0865489765198335
-0.06244495889424413, 0.024760966553440983, 0.08396422989425573
-0.22467609333816763, 0.04399498320586566, 0.07389113535818782
-0.22196689848287998, 0.0386543993181542, 0.06810191149652882
-0.21948485242239002, 0.03297859640267614, 0.07044984281433171
-0.22402308593678655, 0.045028109841233066, 0.06760127451869222
-0.21944008192679995, 0.03431951260516377, 0.06052808332228662
-0.21199758918998596, 0.023613931948416825, 0.07091784896563129
-0.2162183117793994, 0.02849946377738807, 0.0696470068990595
-0.2161880911261989, 0.027527281464384545, 0.07407129427001136
-0.21387391519596324, 0.0268496959397386, 0.09390231126555537
-0.22045280845971066, 0.03264433268427898, 0.08267569090598029
-0.22282824737324045, 0.0383716380665806, 0.07546772015148355
-0.22574588280324218, 0.044410679304061486, 0.08743312919607993
-0.22413443705857644, 0.04061709686281294, 0.08325544352645431
-0.22591798780659084, 0.046305787173091084, 0.08440604015882398
-0.2023300630874953, 0.016795736976657424, 0.06886870166611678
-0.20351350684954836, 0.017078485588581674, 0.07691105475910848
-0.20923976500808011, 0.020716915878627045, 0.07874359991536091
-0.18818447829841223, 0.010704552230035958, 0.0669612413629205
-0.19337048824050712, 0.012613275854549421, 0.06901946990536684
-0.19785165032033444, 0.014577136749705809, 0.06846692369924207
-0.19818384904423492, 0.014479229753841898, 0.07480569871135281
-0.19504995958762186, 0.013090286229157361, 0.07715837283987698
-0.19383454951297893, 0.012660195823535563, 0.08023857145303336
-0.20112422299409327, 0.015746538046247982, 0.08066961589626935
-0.20364019832169356, 0.017079344560842126, 0.07985534246877145
-0.21225308058947662, 0.02276203247575481, 0.08534829098785925
-0.20625030885548018, 0.02013581186404729, 0.08921793901663075
-0.21056578586518293, 0.022483828747012834, 0.08883826563446048
-0.21085411891463418, 0.023194135355241896, 0.09608552828385523
-0.19400120187127862, 0.014886423733047906, 0.08988525929212579
-0.20157328529682, 0.017633121278312954, 0.09310529516248192
-0.20033947781135236, 0.01723270949643037, 0.09234842853767931
-0.19640100558203466, 0.014331708043539608, 0.11503249540446761
-0.19571904263909506, 0.014302934811072986, 0.10989075382166999
-0.20144848136301502, 0.01913833195798945, 0.10280382634215665
-0.2066767365103467, 0.018415350034011842, 0.11176215079297869
-0.2054004952539914, 0.01888382917836664, 0.09925968424858678
-0.2094793379741127, 0.02237112275864818, 0.103490735459751
-0.21253179100091957, 0.02170657906209424, 0.11566555883937774
-0.22619694182094935, 0.04849985466916063, 0.09331035036944745
-0.22549057177133958, 0.04435134313527142, 0.10165179217382438
-0.22458453666923478, 0.03899889209143077, 0.10657998748323519
-0.22645888725110688, 0.04404306939695266, 0.10433625817575472
-0.21708217671421767, 0.028730996813731653, 0.09846232738850685
-0.21976748887295985, 0.0339997100288722, 0.09612942658736089
-0.21709835178900072, 0.028246213090987862, 0.08993685664164583
-0.22088713824266665, 0.0336536231825314, 0.10816242711027331
-0.2139207295527907, 0.021963306523339526, 0.12429040285557016
-0.2182231581235375, 0.026599163991717478, 0.1174082973849562
-0.22170591545692753, 0.03363717272199808, 0.11460432641634678
-0.22265367053037846, 0.031235723122970023, 0.12635246185088403
-0.2254772627550104, 0.03681103130360534, 0.12521555210181867
-0.21904445163237118, 0.029676092746063087, 0.11367154656557207
-0.2265945803569476, 0.052572301844954004, 0.11380928093896575
-0.22484220318206946, 0.03924757424364609, 0.10621668055603109
-0.228307290667456, 0.04673046855416944, 0.11970109482194043
-0.22347037794653157, 0.03319154768753233, 0.12091520036400649
-0.22770560978625046, 0.043517307033465624, 0.1233231137782605
0.14192077596278074, 0.0027075751364856494, 0.05550227048336519
0.13997402571667544, 0.0032993327628932107, 0.06423902674969437
0.1354548925360767, 0.0035871682962136846, 0.061281859820183436
0.14978348488304938, 0.004004125633888342, 0.07696490289177672
0.14012384924959526, 0.0038247429716770937, 0.06966248092510975
0.1330416486212272, 0.006531008803495449, 0.07843493978797399
0.1259141812049615, 0.007512258795789238, 0.07713124962097608
0.12798680139125254, 0.004570453611598515, 0.06177089599640699
0.1305345358742285, 0.005092877452531008, 0.07072072508319499
0.12309683358330774, 0.005415869708750972, 0.06342718097367872
0.15281186150783244, 0.006405487553942874, 0.08265606163527921
0.1457840445888181, 0.007324160738646745, 0.08276245095460455
0.15436206871664396, 0.011066714825840308, 0.102082740523914
0.14701299311386218, 0.009045235492322733, 0.09620482194279921
0.14265919667410745, 0.009361903170242906, 0.09589216054007589
0.14016455079707227, 0.010023433762860075, 0.10863907871961134
0.1373721002869041, 0.01090683795109463, 0.09679736866611799
0.1328885832106687, 0.010505418730371774, 0.09466397324172464
0.14083614709141784, 0.0069394146720608285, 0.08089985757451798
0.12909072090332954, 0.010861590398714302, 0.09183348856821119
0.1245932639333556, 0.011776298453527026, 0.08958166215964464
0.12960907122770934, 0.010481394502399254, 0.11020474177149175
0.12432536157877656, 0.013615577420178266, 0.09689642065299264
0.12428534362228703, 0.013794672600214549, 0.10425095699952272
0.11157590376640847, 0.014997782484238827, 0.10406873371081028
0.12036808106876276, 0.012434866792293518, 0.10838229680190625
0.12296079531599846, 0.014308291643482528, 0.09779385773122862
0.11755639626923396, 0.015580071821687469, 0.09841023549397643
0.1164599361402426, 0.014744461445662181, 0.09586325552317165
0.1146541745328725, 0.014178146960215316, 0.08994830374460036
0.10589017868383742, 0.01602282525748839, 0.08884043682660175
0.12717702798083885, 0.004543457922601734, 0.05810037507988183
0.12016208267829678, 0.005678192548663662, 0.05854542998168092
0.12055088208626118, 0.013249863284522807, 0.08343994993553913
0.12121407856922045, 0.007743304107729, 0.07477948609345646
0.11692357584899972, 0.011847530426325689, 0.07978075188544143
0.1143384910586671, 0.01450992234173856, 0.08578215929436989
0.117002943336204, 0.009986287984004102, 0.0775719212888672
0.10414025873327418, 0.01575129650533228, 0.07867112465700882
0.11061292481607485, 0.010492302092519931, 0.07380876520363186
0.11016313907950027, 0.009297856638095953, 0.06909972487563043
0.10642876468822836, 0.010477538974518516, 0.06806332860022314
0.10781066632415551, 0.008697200935695064, 0.060739325199195594
-0.09006800882367413, 0.03972250204249251, 0.2380086751765662
-0.08841778429077345, 0.03314425551213819, 0.23619075676028894
-0.07926472733347617, 0.029878932749677296, 0.2324140017403412
-0.08504625013913511, 0.042382624009180664, 0.23788529684374776
-0.08146803492316186, 0.04679078336245062, 0.237840036729009
-0.06930648003682102, 0.04506007847707695, 0.2372950449370794
-0.07084737194790675, 0.042158909747393836, 0.23686309423739318
-0.07769108704189345, 0.04470632028287754, 0.23698915131772572
-0.06610272083406349, 0.03803024827258516, 0.23591105754159825
-0.11500870226191924, 0.031651664637933875, 0.2379478865470239
-0.11942791752929674, 0.041524993056249994, 0.24009242532784966
-0.11504352070818313, 0.04091069067529132, 0.23997616833794916
-0.10632628667553161, 0.04564829198030981, 0.24025602797831555
-0.10875010182784765, 0.033951263132520546, 0.23829343789913077
-0.1021431140714416, 0.0495865652905606, 0.2403721730361987
-0.10772624921784003, 0.03323481057739892, 0.23806461613089863
-0.09796054912793675, 0.04147415322037338, 0.23900141906895286
-0.09129614980850037, 0.03628079796538704, 0.23726012470034852
-0.09148629826892289, 0.0465292020452005, 0.23924118372150496
-0.09460869790346475, 0.037304641764381925, 0.23785464339119888
-0.09558091086305884, 0.011670717090825847, 0.2235088276599342
-0.11369895261875348, 0.021513826177390297, 0.23436397831411723
-0.10976050889913101, 0.017058809720078713, 0.23144213712598002
-0.10527747627655912, 0.01832491377440252, 0.23195694393112984
-0.11592453354420224, 0.01175384628561278, 0.2263665914162733
-0.10942731244984487, 0.010614503709157504, 0.22488319685772287
-0.10281403427617714, 0.010038679916480926, 0.2226747294913538
-0.09636776306525449, 0.010496042642050427, 0.2217049332282271
-0.09080957477990884, 0.015044612853064528, 0.22662499431016198
-0.06586136524921099, 0.019460187114157295, 0.22721459342553244
-0.07747775421441119, 0.020699140429732057, 0.22757558222110535
-0.06425240887808391, 0.013335864545408582, 0.21908040264562456
-0.08933849976060082, 0.024167365958273266, 0.23293855040910208
-0.08369772354631932, 0.02343075697756162, 0.23150074614068972
-0.07538344474975638, 0.020249965702356473, 0.2276068745930136
-0.08452388175917563, 0.01280393876300701, 0.22223984887480963
-0.0874663134740977, 0.008563647321541891, 0.21413706935189802
-0.08306290480078492, 0.01015081521075151, 0.21670014130722773
-0.07598270250854908, 0.01590738408412593, 0.22246607376530148
-0.07563070911424619, 0.013911030648360492, 0.21926375632137865
-0.06365743372372648, 0.011807137582631518, 0.21535223629920502
-0.06920997390673861, 0.009040844116898246, 0.2078554350319497
-0.1999161020737782, 0.0066786985089843836, 0.21527086376021154
-0.20722767958784977, 0.007465776799089331, 0.21775648291661517
-0.1991770458991642, 0.02025881468147343, 0.23163784013918512
-0.19511569788276903, 0.014355184109419605, 0.22807512833329027
-0.202462776220869, 0.014010954219399307, 0.2276954211290979
-0.19954816470060466, 0.007878724959857211, 0.21945292614550355
-0.2095140047951352, 0.00787780710802843, 0.2175032008986737
-0.2107886883295183, 0.021846813812865337, 0.2300246034931961
-0.21092982655775996, 0.040371987135249865, 0.23447120132572014
-0.204618329185072, 0.04777926070904578, 0.23730566699083291
-0.20255760784283977, 0.037970801446619545, 0.2362712152203175
-0.1989184492993972, 0.0339321311947617, 0.23612837669488485
-0.20685249725316607, 0.030498619341444305, 0.2336952536276379
-0.2038439085945552, 0.031000025770677248, 0.2344511231337885
-0.21737509684703077, 0.012832523107658672, 0.21534974908684829
-0.22232783186684413, 0.039340915379901496, 0.22488994763678627
-0.22191800138396256, 0.026329374794699167, 0.2200759732466561
