-0.05998058226652377, 0.3792574437210157, -0.1333321338080649
-0.05535455327284157, 0.36398366851612873, -0.13633230726102202
-0.05620874775420476, 0.3736755262570431, -0.13539905444500613
-0.07143004976394726, 0.3724392652255915, -0.12836950155799193
-0.07989238046136782, 0.4090370052536454, -0.12049248101074325
-0.08621377263220358, 0.41141010121946087, -0.11584512011147281
-0.10111491085583248, 0.4078440538333775, -0.1034045325702117
-0.10383588617160604, 0.4097405475448611, -0.10047888208545483
-0.08119472342864606, 0.372278102481193, -0.12203667743938348
-0.08350519967269787, 0.3658773845916452, -0.12080973713632125
-0.086831929907861, 0.3648768794407127, -0.11854143479590262
-0.0865861766267311, 0.3644448595651803, -0.118739895058748
-0.09259501781443648, 0.380348081911406, -0.11356130281467994
-0.1121863002608977, 0.404505201281838, -0.09235776605065599
-0.10935535887659995, 0.37488342716411194, -0.0976963198704422
-0.10443401598195227, 0.3708588045040002, -0.10290237431834581
-0.10850791159124656, 0.382676842887957, -0.0979924335500543
-0.10303685974233631, 0.38037156098800945, -0.10362656444970537
-0.10727084718252783, 0.382585015586765, -0.09923599312265635
-0.10685943421079175, 0.3713218970428077, -0.10044419732546395
-0.11598009934706452, 0.369045372525569, -0.09012632015303307
-0.12285150414885786, 0.3870501548395576, -0.078742681533982
-0.1263535078711469, 0.38987300629188115, -0.07349510478106618
-0.12516147311208142, 0.36942146872868287, -0.07698113257528941
-0.1164319578787541, 0.36681396182268206, -0.08967560406465638
-0.13324136576213874, 0.41329162352696897, -0.055472518308872384
-0.1265145493749042, 0.4064920719675922, -0.07112593418220226
-0.13521585906099498, 0.36940220615220365, -0.05710746539377036
-0.13306354294213368, 0.37595702154476085, -0.060947224800152154
-0.13728022265808704, 0.38844132349959093, -0.05042689876480132
-0.1364380569884869, 0.3996981451576061, -0.05090050265347487
-0.13669958522750117, 0.38444078490913636, -0.05214559239262673
-0.14063788183195644, 0.4128431245676146, -0.032415837472624304
-0.1393442035038793, 0.41288770822052556, -0.03723078494562562
-0.14113156046837855, 0.37780497299253424, -0.03840095553767646
-0.14396182828368487, 0.3689141292795951, -0.02955662500713159
-0.14112987564973503, 0.3758442487481835, -0.03878620413809298
-0.14474597107850218, 0.36645826096261425, -0.027104820795866937
-0.14215010997045355, 0.36662003672280696, -0.03676145105283468
-0.14382224819628694, 0.41066971545933595, -0.012925014724754288
-0.14328994130459746, 0.4116569961342204, 0.018144672845913125
-0.1427364942208308, 0.41305844481950277, 0.023243438682772864
-0.14559230909009488, 0.3872266870314548, -0.008627356709562755
-0.1457517690049136, 0.3891578574387457, -0.005696340248890575
-0.1461671589549158, 0.3889944334224069, -0.001042235883677314
-0.14588749684053723, 0.3655797782938088, -0.017677570241006798
-0.14666437721893164, 0.3779979497312508, -0.001670450673497517
-0.14461072327179758, 0.3881520858768243, 0.019315527292141997
-0.14591329856036986, 0.3735241971482384, 0.012822805291901985
-0.144902829931752, 0.3854436367757961, 0.017531270017627484
-0.14463065521273555, 0.385369305415868, 0.020684886052742848
-0.14425714462608863, 0.39227622492822417, 0.020989871405384483
-0.1446505331003434, 0.3775771439139556, 0.024930003618232326
-0.13974837618636599, 0.4101932009633855, 0.03651675307503708
-0.14020924847297556, 0.364715175995994, 0.04437293179192937
-0.13907954078523493, 0.37461709502298723, 0.046675281943952256
-0.1440915433536963, 0.3673043563973095, 0.02938353048739819
-0.14456189245531004, 0.3640374967156544, 0.02825955901178235
-0.1447878208637575, 0.36464199782105794, 0.02729954455519036
-0.1406289910548469, 0.3686247493264283, 0.04205080263047792
-0.12816084943153436, 0.41272092521318937, 0.06647075665047841
-0.12946735994966196, 0.3827479000897322, 0.06785548504124583
-0.1332416871414569, 0.37787340676037473, 0.060338374399252145
-0.1296464505845213, 0.38240605297891717, 0.06751188623339152
-0.12973149667459485, 0.37778418492198107, 0.06787657167995392
-0.12849777192569622, 0.37157171360176416, 0.07125764543379771
-0.12381333823463729, 0.4045292025070202, 0.07574945883077236
-0.12454838086364814, 0.4109951355144787, 0.07383944595859644
-0.10536436497487592, 0.4103095690915763, 0.09888899023084319
-0.1159532340888882, 0.3777102458936349, 0.0894090323769593
-0.11956113848144108, 0.3773266024435848, 0.08428986773910839
-0.11561101663844717, 0.3868894781930079, 0.08909722594656767
-0.11844733553428202, 0.36608451170401224, 0.08686099450680851
-0.1149107735338651, 0.39292842801335637, 0.08957060517930192
-0.11879795102289466, 0.38442003671255354, 0.0847611766340887
-0.10621826490726119, 0.3731029389083971, 0.10095937227029962
-0.09724125638321729, 0.37012850318717183, 0.11014680093120116
-0.09433843876820325, 0.38540776662466014, 0.11196871951025407
-0.09701532764900128, 0.37985838891508816, 0.10968440956763598
-0.09735503660307304, 0.38163433708093014, 0.10921906493300738
-0.07401834491019865, 0.40033514337248133, 0.12534826114377673
-0.0839618125474298, 0.3960689345894859, 0.11864630215206692
-0.08120691013263234, 0.3871442336785721, 0.12112030694357576
-0.07669200348217102, 0.39759062275975066, 0.12364374669060017
-0.08571290081527154, 0.40067852379330754, 0.11713868516014964
-0.09305386904066099, 0.4081513676987626, 0.11135920893770998
-0.0909875068575639, 0.41112710635556765, 0.11252885933086693
-0.05499480644729842, 0.3964207635004545, 0.1347097230752358
-0.06331978753304564, 0.3913454372494548, 0.1311078411933228
-0.060993942272950116, 0.39602620985542014, 0.13193405079071044
-0.05229085752401924, 0.38467913086107586, 0.13661867025397537
-0.06409140636894045, 0.38804193607581605, 0.13093036330334404
-0.06973129748363834, 0.4084503635849235, 0.12700000312281237
-0.05404624863641177, 0.40297111466752566, 0.13477543717516502
-0.037269221228764624, 0.38896900778553295, 0.1408566323891648
-0.03137674960390261, 0.3744526534324568, 0.14318728822619636
-0.02797185668582745, 0.37521968331121863, 0.14405990272142163
-0.042968650353366215, 0.39228205862826765, 0.1391578997386022
-0.03271482552575641, 0.3897528162407356, 0.14203638602589275
-0.0049191982699729716, 0.38761988189669283, 0.14589696492625068
-0.009217426906379443, 0.4016326200119229, 0.14481728360130874
-0.004744348359801142, 0.38760184478327814, 0.14591316807533716
-0.01270986266105081, 0.39269769768541685, 0.1449603910671805
-0.00947585076196678, 0.3863447914850184, 0.14556233538648117
-0.03171141272978441, 0.4031505551099335, 0.14159238744604452
-0.03903486428161769, 0.4026272643963991, 0.139671419069975
-0.01343720851587128, 0.4058999166136022, 0.14414282029150685
0.001667323507079402, 0.40182005117376673, 0.14546842142051175
0.014698950179361143, 0.39081369528061305, 0.1448809878651611
0.02269966013459684, 0.39333927919966444, 0.14405420352506937
0.02223535898405963, 0.3767568020954689, 0.1449274987835699
0.021960623640547544, 0.3833996567577612, 0.14461796963313428
0.024147196133807315, 0.3982400632643379, 0.14368147322929134
0.03450146570557766, 0.36393756737458255, 0.14289458538024702
0.04527857344611576, 0.38820530878594844, 0.1387501032054301
0.045958163181539016, 0.38505325877503516, 0.13873124531560604
0.048156974344732664, 0.3685029135827153, 0.1389991804354361
0.04144565528568702, 0.366532598220109, 0.14089950794744038
0.05456845948414715, 0.40918987534721873, 0.1340083069193857
0.053066230540038485, 0.4061767758485048, 0.13496252241772458
0.011899896152689, 0.4055895776673356, 0.1443011054385206
0.03589766051690112, 0.411494922495763, 0.13981144926690325
0.03411528242230885, 0.4069581761701913, 0.14064746587572022
0.0668420968904283, 0.4301595892592753, 0.1238111025092541
0.06949364127432446, 0.4373370855155132, 0.11924710720113008
0.06176485501235659, 0.435212426775207, 0.1241853853854633
0.07987527277980155, 0.4473610723191068, 0.1032309539760254
0.05951766856169824, 0.44426588837593184, 0.11910461659497328
0.054545763595995375, 0.4506871980046025, 0.11408331068477791
0.044998146690387396, 0.45154022352975043, 0.1173207071823733
0.09075598588937527, 0.43990164565182893, 0.10185923736776425
0.07661109015566403, 0.4266082459255834, 0.1191228081276366
0.07817926656418808, 0.4437185439891473, 0.1083294758546655
0.08507929790247354, 0.43432072838062835, 0.1102606530058593
0.09760702314397966, 0.44765403352015815, 0.08640866033431442
0.07171815835462819, 0.4507278821825045, 0.1040811337190318
0.06738415881595418, 0.45203844536284954, 0.10505098012631146
0.10811849852272207, 0.4405872386059809, 0.08242195463136086
0.10460854651309869, 0.4246691363663066, 0.09635409176346489
0.09091625139138473, 0.442073646937894, 0.10004049704656731
0.10509664199721641, 0.43486080231376867, 0.09124866497918253
0.1093748884946704, 0.44499237913164824, 0.07473293820475133
0.08482329049188755, 0.45159680350233533, 0.09233903451785386
0.11853284967279654, 0.42688755531058836, 0.07730790760207354
0.11478512946545172, 0.42448175461936655, 0.0839149142770682
0.1184517209460821, 0.4399219591592419, 0.06822981247745963
0.11940345864052579, 0.4471895038511151, 0.052792371507118345
0.1109512515044388, 0.44236580625029387, 0.07650923788724073
0.11190328533639328, 0.43478879272598225, 0.08230631371568257
0.10312871516357566, 0.44998080711222177, 0.07475932845767315
0.13420884728527777, 0.4336571573166015, 0.03777764977351873
0.1358393844832021, 0.4303947537215899, 0.03546309202439145
0.13190445068020132, 0.4400004753398917, 0.033760569075302914
0.12667715138721053, 0.42595173231974887, 0.0636741958853484
0.12557680487083495, 0.43928253767306685, 0.05374175052868515
0.1279075906621704, 0.44693890162113165, 0.027812726942722306
0.1259599326781913, 0.44580083276476423, 0.03894894378233832
0.108804958606274, 0.45209977642503113, 0.06155135355846078
0.12610025804302022, 0.4421734521647581, 0.04887013643033024
0.13505584870120393, 0.43993214874595954, 0.01883546176916466
0.1301712138004267, 0.44736922717978206, 0.007955386632720276
0.13246074692285473, 0.43560569414067624, 0.0405691677536586
0.12448138559984184, 0.45178148573815863, 0.01177901947606607
0.12309977057185098, 0.4495184887725332, 0.03496539572688838
0.13120341266157906, 0.4439456668880056, 0.02568412374844247
0.13548218137297352, 0.44017981886552837, -0.012475410817371012
0.13690346097354233, 0.438512141576342, -0.006242322766418041
0.14206742097381386, 0.42562597223852483, 0.0033161615387713663
0.13761742120721943, 0.4344865028406275, 0.02224983455558112
0.13017536840879435, 0.4469833188221879, -0.011801995052951824
0.13493812852475906, 0.44262495769594756, 0.0013454796547476434
0.12690729921512134, 0.45035498413186653, -0.005174521264732939
0.1421541674564133, 0.4242899530484535, -0.006909940442747411
0.13975421285470133, 0.4288773203655843, -0.018596272335853856
0.13193171693072042, 0.43906747281181413, -0.035544864705806825
0.12965948737492805, 0.44597593556501436, -0.024546653113881947
0.13937377601079817, 0.43448762866666407, -0.0021680303415604688
0.13410517941531552, 0.4424416203267277, -0.012715871663175587
0.11769163255311878, 0.4536255881067515, -0.03466840509266592
0.13483272267369922, 0.42617216253985335, -0.04410015403250634
0.12723092096547875, 0.43853669675396345, -0.05111772980889622
0.12505629755641845, 0.4415992286473077, -0.05198951670070698
0.13157929586823092, 0.43832133640893384, -0.03836856552268213
0.12385956147397217, 0.4457078163518251, -0.04631962355961603
0.12841897474500907, 0.4447191678682247, -0.033447039506778874
0.11847599020641145, 0.45101768862448444, -0.0441161269297809
0.11042088613448392, 0.441714569345391, -0.07810528505207824
0.1302714403437823, 0.4257257370048081, -0.05612602957402789
0.1258127576457747, 0.42985905376507, -0.06276204450356744
0.11319386897262255, 0.4443829151577038, -0.07021332073333003
0.12239777713008987, 0.4382517926481003, -0.06183518231800774
0.09875690453162916, 0.453417777417524, -0.07326924084029054
0.12206360565520215, 0.4436603651805239, -0.054432113269971605
0.10344894577485866, 0.44151615183486775, -0.08797143083495206
0.11422469080440645, 0.42501024498223894, -0.08443956087952187
0.09507786864438274, 0.445310741081756, -0.09185239224603758
0.10606653307140317, 0.4379318892415463, -0.08777466377189753
0.10524958265856427, 0.43866063422416657, -0.08827659602418989
0.10383627173631811, 0.44229607163165646, -0.0867772854503033
0.0936305792582287, 0.45365378589893235, -0.079777218476005
0.09799524119201396, 0.4285443709485201, -0.10132791825877784
0.07577819819343633, 0.4280204606825022, -0.11919020265004025
0.0988375237634426, 0.4346107510700472, -0.0976927347131478
0.0977681185392081, 0.4355968164274808, -0.0980324736223118
0.07548663161461745, 0.4373140280038441, -0.11506542008414683
0.08118068594610167, 0.4480704198754236, -0.10155521855719432
0.08706740973791663, 0.44484748077409064, -0.10043909842962484
0.07580223561317288, 0.4517237514722474, -0.0996523495499661
0.07833164120373094, 0.4360794388807771, -0.11386193423779106
0.06010223589237664, 0.432426329942768, -0.12620571031248465
0.06276372317736559, 0.4314738042186681, -0.12527903032530485
0.055856008283695066, 0.4389384579401572, -0.12478949554728361
0.07269995988276559, 0.4428267779714359, -0.11312355388232437
0.06346271938724436, 0.4501629442720876, -0.11067176489289665
0.04893328654768992, 0.4448252699283066, -0.12349730088973157
0.039388865817623325, 0.43055387257338573, -0.13473815887571725
0.06705133570205765, 0.43435702908257523, -0.12221403344392784
0.0356259492480735, 0.4401711674321834, -0.131312135762623
0.03368493239527802, 0.4401222460466979, -0.13185873087283148
0.05933237453650011, 0.44204319822275884, -0.12134795816660529
0.033600958782906865, 0.4480708880129113, -0.1253258951926758
0.03626996084074334, 0.45149242476060647, -0.12011273389892206
0.017088018863909683, 0.4357732683821092, -0.13739314111782247
0.03951705689946361, 0.4371187370261591, -0.13192302073001658
0.002986670239409308, 0.4299714922693343, -0.14079135962491465
0.0031206827331359383, 0.43801929594717304, -0.13743541962400568
0.0004104818528237629, 0.4388192446527988, -0.13725235977490624
0.03373736144592214, 0.44398595465385704, -0.1290088478830126
0.021521087577438067, 0.44661189121682365, -0.1296529873043258
0.020712446175975275, 0.4511718207974408, -0.12448964959271253
0.0050563001681025455, 0.44512558904167865, -0.13240568611053563
-0.0034991500254904066, 0.43656343513931595, -0.13816698649789969
-0.004271758521945861, 0.4445043297788034, -0.13302280360278368
-0.013245204417415488, 0.42498505344835585, -0.14139117559543024
-0.03796091283857894, 0.4407702075799347, -0.1303619962317126
-0.02755348230102679, 0.4364487917281249, -0.1354915564241759
-0.030242749451205364, 0.44703951511941686, -0.12716483067653245
-0.013853555669777882, 0.43537582366637323, -0.13788487718495177
-0.022169514538053395, 0.44591692275699746, -0.13020982230476413
-0.0017953025691964555, 0.44836000055219827, -0.12978750130775116
-0.05047128497339656, 0.4381093033064166, -0.1277791507122331
-0.04390613672208249, 0.43135916167772703, -0.13327838735037065
-0.06037472640003391, 0.4471304358928189, -0.1159250495730173
-0.05224152216976604, 0.44497296394431074, -0.12181132761302432
-0.045035202155157564, 0.43589750085849294, -0.13110600673935024
-0.024167055328184278, 0.45132945186001244, -0.12357344566655494
-0.036992000767863485, 0.4422341323613709, -0.12973190165467977
-0.05863171480502813, 0.4252358111101471, -0.1292647667802027
-0.07235204814644156, 0.43612082133580227, -0.11802247929014997
-0.06786167089828014, 0.4370289277442192, -0.1202936350244264
-0.05930258353631746, 0.4348879752214083, -0.12552084046820572
-0.08039061080311805, 0.44512291496735196, -0.10527317398672772
-0.0573326185563101, 0.44343005478361736, -0.12093461908123287
-0.05771868685824756, 0.4483311657005058, -0.11595878047330196
-0.08730586113719244, 0.4283178611434133, -0.11100989785066726
-0.0940948731721117, 0.4391959738738924, -0.09904250165057109
-0.08083786558474704, 0.4350046731591045, -0.11279361098221959
-0.0877459195199944, 0.43503663020239103, -0.10793613611779221
-0.06852230642263485, 0.4443641414492008, -0.11439812682359118
-0.06891504098928901, 0.4517245353273066, -0.10447359782443515
-0.09717160323702112, 0.4458087687051115, -0.0891392985433638
-0.10658871573126616, 0.4329805004336083, -0.09085784274093064
-0.10921819144890449, 0.43974186695339423, -0.08162263818478685
-0.09546152075947485, 0.4357990796332002, -0.10018948907957144
-0.10279872407552378, 0.44040100388801634, -0.08944698655534822
-0.09104689233038814, 0.442265764103581, -0.09967085436541562
-0.10776911570594924, 0.44540461311477536, -0.07639410871792295
-0.09186627397627693, 0.4501569590433363, -0.0879240360277529
-0.12208047152659819, 0.4361039586559382, -0.06517498538321902
-0.11724491081645792, 0.42550364741042, -0.07986902426230014
-0.10690411380919493, 0.44248759586692676, -0.08210241822198114
-0.11584044228792481, 0.4450159453781743, -0.06495673316545197
-0.1120110075509937, 0.4365534166503492, -0.0805427271823884
-0.11863634653687083, 0.4351280234185855, -0.07238106953212932
-0.10670169422428905, 0.4490545698047098, -0.07174074264887591
-0.12892268128955342, 0.4265259117301713, -0.05845219761811803
-0.13044564390570945, 0.4416128788093846, -0.03594517749152727
-0.12734224551459306, 0.44486849782274307, -0.0369582676251003
-0.12778746846913833, 0.4365055902182786, -0.052439033588169724
-0.12602584877689105, 0.4426804949209064, -0.04797440212623993
-0.11951099332273113, 0.44222198333408447, -0.06289977324492987
-0.1149818314173352, 0.4497255201904934, -0.05555564359039418
-0.13483592328046173, 0.4408261468424501, -0.015982130048787613
-0.13573208504757028, 0.42519496551234015, -0.04187330192011655
-0.13158904364777005, 0.4445947012467632, -0.019748153425061702
-0.13216356560699027, 0.4349657154564179, -0.04297205257747477
-0.1225753062967409, 0.4487860848771767, -0.04057486074971696
-0.12026561859870745, 0.45172422491245373, -0.03454357407752568
-0.12822608206409683, 0.4436269469613571, -0.037878782236322364
-0.1410166297326724, 0.42418257542731574, -0.020280529452780933
-0.13688041907621984, 0.4390476008670122, 0.003291115689056319
-0.13655823076368434, 0.4385657263710336, -0.009866714736919052
-0.13057061682222976, 0.44645086200573114, 0.012657664897062586
-0.13389178175363114, 0.4427112882131302, -0.012434012556358964
-0.12853747662510617, 0.44894738154329206, -0.007385674916754338
-0.12633187643008117, 0.449839539701038, -0.01938441497814554
-0.13590393969224648, 0.436211907238865, 0.026493414335899336
-0.14138462434123206, 0.4255137702072595, 0.011505573900543416
-0.12294618885755307, 0.4481693510389407, 0.04214767412457027
-0.13690923864653254, 0.43585367180582, 0.022136438025918047
-0.12584825117442652, 0.45114005743019947, 0.005654049773147292
-0.12646686077651165, 0.448990814764215, 0.025030426895954788
-0.13221165596601656, 0.44376335430972685, 0.021020910247477192
-0.13510078535221856, 0.4421596170085108, 0.0041821317779691045
-0.13696412340076217, 0.4277017063195438, 0.03437806588534951
-0.1295734062262987, 0.4356683800739826, 0.04964560637647971
-0.12196509824230059, 0.44607715447231877, 0.0496138695951534
-0.13326634130870932, 0.43450092934582407, 0.03979610406139579
-0.1188022487873597, 0.4505857921709411, 0.04473562175550175
-0.13083993438175368, 0.44230526413273596, 0.032615075478972064
-0.12436689371735954, 0.42548109301173764, 0.06896177773034759
-0.12518785991619202, 0.42436664514071887, 0.06799003788511364
-0.1169137848078552, 0.436990102650419, 0.07314249684320435
-0.12223743065664734, 0.43790493323275315, 0.06260863396134844
-0.10828352264527923, 0.4455361983754419, 0.07545770294711189
-0.10667829107357846, 0.4532103845843633, 0.062423165106258935
-0.11857875226518724, 0.44245401030232184, 0.06441611124852939
-0.09091314438506981, 0.43250967213057895, 0.10673258251671965
-0.0928872440612787, 0.42539109886226806, 0.10776996992918299
-0.10310532936758372, 0.43577370633637474, 0.09256444917563594
-0.1089485237707538, 0.4278109799098367, 0.09051419523376765
-0.09921314576649733, 0.44476623001785826, 0.08839447236632166
-0.11222619831823004, 0.4344687731618264, 0.082137133282549
-0.10679902164974622, 0.44436578835712404, 0.07937248919562413
-0.09486973569206293, 0.4523832899774198, 0.08085708733640873
-0.0920992129349842, 0.45185242673931647, 0.08459654054114928
-0.07592389997424262, 0.43373589217258884, 0.11700106432032167
-0.10193279376890922, 0.4345673289481693, 0.0946296792685209
-0.07277738297639895, 0.4391541098587062, 0.11578712151539147
-0.07220803312779486, 0.44749783489234246, 0.10845275257411938
-0.08418095696858015, 0.44743320543429843, 0.10010938709759182
-0.07294540835353513, 0.4527704374531614, 0.10000363544235231
-0.054064293875014324, 0.43185007613599424, 0.12921149384009112
-0.05699717940824785, 0.4328828001664805, 0.1275030019055104
-0.08325815169393921, 0.43932917115970743, 0.10833658786727303
-0.05913031229130104, 0.4405099070490328, 0.12235543193995307
-0.05062413220462629, 0.45222038262208486, 0.11372867595703094
-0.07115732449609205, 0.4441740405321023, 0.11275720233636082
-0.04970210712091234, 0.4453846837020803, 0.12259593078979272
-0.056616777903129134, 0.4358729061611372, 0.12620462562971205
-0.024562624532069317, 0.4305083683188796, 0.13872496376230997
-0.026353993156418835, 0.4265760081819432, 0.13946278603872048
-0.0379472149706806, 0.4418173819937615, 0.1297984142366476
-0.06099670433343926, 0.4424219364934587, 0.12020434592766942
-0.03522447986110131, 0.44569205526497285, 0.12705691809941666
-0.02938960397243564, 0.4532523964652511, 0.11960477128048227
-0.03784525201372721, 0.43417541376792695, 0.13396541180639715
-0.011312976864391148, 0.4308916344362681, 0.13978659768887206
-0.014327997524360392, 0.4303914584426612, 0.13967300875642627
-0.04429475482819467, 0.44626816844256667, 0.12410196010960942
-0.014866076121139975, 0.43966988959485065, 0.13554088693760855
-0.00798035366619098, 0.4525379087656538, 0.12383373995694164
-0.011646367476242335, 0.4458627962512039, 0.131178283650584
-0.02098799706025804, 0.436042765132936, 0.13691040643988656
0.016062368967189107, 0.4301866259229664, 0.13958277280264866
0.02360871789938656, 0.42900670664824553, 0.1392768543616716
-0.008871250620028614, 0.44221870727955015, 0.13463835898142223
0.001826228614528763, 0.44192740246893636, 0.13549596373988657
0.015685644786038518, 0.44636101897787717, 0.13038502074475133
0.07208750579856146, 0.4519950028813835, 0.10182611015306352
0.04072961084204148, 0.45694412212382063, 0.10906199285446673
0.06453310260842476, 0.4580880049104201, 0.09362513450520656
0.06306424430681198, 0.4591730670187425, 0.09193357516487821
0.05891735055002384, 0.4583150385697209, 0.09698818755852147
0.06893795203234022, 0.45554792100356445, 0.09690838153340152
0.09582992662985267, 0.44933688862000754, 0.08545717112649953
0.08350483561589325, 0.4575540060121913, 0.07885314744428937
0.05836015903264462, 0.4598946039969566, 0.09277595966552843
0.08280069612985363, 0.45522216819979966, 0.08632906959252215
0.11015875103118619, 0.4496865024674058, 0.06538161811588898
0.09837079728986348, 0.4569709876614916, 0.061754604140769054
0.08708677847421491, 0.458951988136779, 0.07077764478820991
0.09578607970335815, 0.45480329464942637, 0.07320657027869731
0.09325872116463944, 0.45578939072128216, 0.07328567223715898
0.11404002241922781, 0.4517319948562572, 0.05144788998072502
0.0824876917875338, 0.4609759366400087, 0.06758401810919953
0.10605354699748464, 0.4575249103678519, 0.0443591893458259
0.10207271194749931, 0.4568531277603586, 0.056160266658132695
0.12148244916461337, 0.45210215989997504, 0.02811775583917217
0.11385709320553042, 0.4565889918142506, 0.026306181551761804
0.11163916376389094, 0.4574593898680555, 0.027677854516510343
0.10070773493235856, 0.4599305280547058, 0.04281681297031937
0.10635277425192519, 0.46073482801056154, 0.01246022987069905
0.1143137230098309, 0.4573918307101315, 0.014442429808341092
0.1142380641717712, 0.4557314120071912, 0.03168841594755451
0.1149713900222526, 0.45522007124311625, 0.03300861100998957
0.11739839069342814, 0.45642964371766237, 0.0018544923740548803
0.1167703030995904, 0.4565872152356688, 0.0053210466955153505
0.11066594391954013, 0.45918788765124485, -0.013819125576780254
0.1282165007427729, 0.44881793169633477, 0.012971060073916893
0.10214510835039045, 0.46135592091703753, -0.025374951567961712
0.11799112086800022, 0.4554851414555428, -0.017332255003066198
0.12880568313182753, 0.4488944683042765, -0.005103364862565383
0.12928273079350808, 0.4485053457470919, -0.00541283511776256
0.11031043243653399, 0.45835435406794034, -0.025535836332678724
0.11652672477860457, 0.4540258086782451, -0.03667908409681555
0.09723642253652238, 0.4611873786282964, -0.04163321183261251
0.10435644244155368, 0.4583721775785249, -0.043881708698909457
0.12305568814059759, 0.44832578404999046, -0.04107709699847816
0.08802510559814704, 0.4613410120575674, -0.05782916168661367
0.10127698348964312, 0.45723323982437536, -0.056019670291532445
0.11090916031384755, 0.4545522815186495, -0.04838994975047598
0.09473472961696845, 0.45825938002472566, -0.06233476493436993
0.1133271374205711, 0.4507166917174251, -0.05607710367543353
0.08234406734257706, 0.46055059362482365, -0.06978071582940237
0.09202765405816593, 0.4553714752671171, -0.0765399158869434
0.09794979756717041, 0.452603963244461, -0.07625309275275997
0.0906097060446339, 0.45479785286720115, -0.07975217320823529
0.08280748625238057, 0.4586707766422267, -0.07630724670263593
0.08552133462169177, 0.4542784680444155, -0.08634889771322585
0.08277914472688284, 0.4560708662838593, -0.08388586469751493
0.06973405042813847, 0.4577248791039047, -0.09089362147644711
0.09067726611439, 0.4501063103548068, -0.08920542431712174
0.052290063086090695, 0.46061938311280715, -0.0940852269232813
0.057268604566658145, 0.45874258995826145, -0.0970708143928374
0.06857556470597441, 0.45067326934381713, -0.10636760532033174
0.056686438957706684, 0.4559451890496958, -0.10388449771980751
0.04763404510703799, 0.45823804806838236, -0.10291063368086574
0.05021601362384237, 0.4555567250737662, -0.10778187412727697
0.046944191643676296, 0.4570124864387716, -0.10600914459491723
0.03395462833180736, 0.45785466909312716, -0.10911695157408832
0.055460496480933257, 0.44955682117117773, -0.11526640437557595
0.023207684268122385, 0.45429240596719384, -0.11956966840930094
0.03027001245881953, 0.4551978953890886, -0.11575232355034762
0.00014202564005303647, 0.449125743435135, -0.128940106889018
0.009835387920739111, 0.4508999415169384, -0.12579350202093934
0.017061225124422298, 0.45632871023663224, -0.11627600203840656
0.0310907501965769, 0.4499908879102779, -0.12350677160172355
0.005745415191720413, 0.45558362780688555, -0.11880186296458267
-0.005489156394798964, 0.45361743364097773, -0.12265310975009407
-0.011085346562442963, 0.45780752906684347, -0.11375051015670921
-0.012674975355041411, 0.4583564715651408, -0.11247989176320133
-0.018330668861969844, 0.4542233410132803, -0.12050476199990054
-0.034587238911501776, 0.4537081486021983, -0.11760311416688927
-1.798103948422219e-05, 0.4599998874563751, -0.10958158993981798
-0.03167337861342631, 0.4590049063188285, -0.10728292448373233
-0.0632142590362228, 0.4493201538672077, -0.1119878019883467
-0.020570761964211745, 0.45699387480294085, -0.11453312197169693
-0.028354574259354847, 0.45668750922016055, -0.1130987742475219
-0.05187784186842255, 0.45835658123387374, -0.1006631690317239
-0.021718738028663014, 0.46004160511006287, -0.10707230273003834
-0.05239864759357565, 0.45572527420451425, -0.10638221653819525
-0.0794779542142938, 0.4527894991274283, -0.09539948767946847
-0.0651958175900216, 0.45915959922174987, -0.09047474115376493
-0.07436006247640366, 0.45595384362342495, -0.09209416758039857
-0.08988733398213183, 0.4538819919325765, -0.08310404357268457
-0.06250007756699011, 0.45683570827261827, -0.09818791984857302
-0.06094091472557134, 0.4557989443848081, -0.10187864116618825
-0.06123383749058376, 0.4605242729289902, -0.08853370568655897
-0.08510304141119938, 0.45900548341078967, -0.07303977332595533
-0.08969914195251305, 0.4541687325339533, -0.0824898308385337
-0.10580098262868662, 0.4523825313819503, -0.06553876754146687
-0.09294646506933135, 0.4586717612879445, -0.06341237965192185
-0.09233744424183339, 0.45797723036590615, -0.06676865266830476
-0.0971350130878758, 0.4560117294752228, -0.06695373384860781
-0.0933265618721888, 0.45696461269382455, -0.06898133688743704
-0.1165568231808719, 0.4519937214537336, -0.04525132079674399
-0.1116281810459605, 0.4553174619943109, -0.04313019563837572
-0.089520866567849, 0.45941196104640625, -0.0654500499485054
-0.1104294059537207, 0.4544845575337706, -0.04974797806709459
-0.1172927772771793, 0.45382940414119544, -0.03514082953201509
-0.11961766135757307, 0.45359867644913, -0.027614824668859898
-0.11487725142155134, 0.456315785037988, -0.024666559589200127
-0.09699602474880982, 0.46043074849169074, -0.047342812023515826
-0.11269283060672945, 0.45588222880331175, -0.03625871224664892
-0.12340604082571961, 0.45267406475226346, -0.010853075480938008
-0.10686085278756335, 0.4596558464549785, -0.02683190636379621
-0.11095350263917357, 0.45914271654584876, -0.011597176719810025
-0.11959575557314593, 0.45464529049478336, -0.018779463337674857
-0.1186244165226033, 0.4550783068833199, -0.019679615485773187
-0.12409558976447985, 0.45169281367136516, 0.017501711966048425
-0.11372761520903234, 0.45781806143521253, 0.011099133180605883
-0.11111509721955898, 0.4589074449813001, 0.015293303195588016
-0.10496873380158808, 0.4604744093519888, 0.02471812194327041
-0.12154782952575621, 0.45428317712962296, 0.004998827472383739
-0.12066099251010107, 0.45430591203939336, 0.014599779642252867
-0.11655589009218356, 0.4558810931713645, 0.02185058012954493
-0.10030375079461744, 0.4604176329962798, 0.04033943750292283
-0.11794241314409108, 0.4544541143245646, 0.027997700844303263
-0.11898171197409123, 0.4515200406339396, 0.04035341999230358
-0.10656946441543218, 0.45675954117123313, 0.04697169454894937
-0.0914622981132186, 0.4609041686714421, 0.055129933810195264
-0.10503190957778592, 0.4552806279138397, 0.05745501464020952
-0.10728510385386639, 0.45489196267507226, 0.05451150833888123
-0.10665155087243128, 0.45366786337281756, 0.06138081661673872
-0.09591692522411331, 0.45819324219930957, 0.060883305600022294
-0.09927843979249887, 0.45439203516875604, 0.06969139019930382
-0.06750653883776364, 0.4616850706246841, 0.07996379330856494
-0.1040556560640411, 0.44916944998221775, 0.07526118854335687
-0.09312290385654488, 0.4542837528508969, 0.07873205891665315
-0.08114765086150803, 0.4586046949900813, 0.07815907788398552
-0.08035553306556469, 0.4560820558174785, 0.08627706483971037
-0.0822382621254496, 0.45587029507682986, 0.08500930015190993
-0.08457472262584824, 0.4518715893044758, 0.09208604833343473
-0.06565357558297338, 0.4591168153023925, 0.09026148132556075
-0.042154102993498616, 0.46158190962752654, 0.09573067007343289
-0.06531384564273633, 0.45517750720571826, 0.10037452895282475
-0.06734576831138409, 0.4523088730449719, 0.1046517553063496
-0.04837297567860496, 0.4591200258081085, 0.1005677075159837
-0.05676310592315891, 0.45506556205024856, 0.10584177584441679
-0.040584397394720514, 0.4561760522713648, 0.11086993707448614
-0.05299412448664012, 0.45528626117201054, 0.10709923173990032
-0.05368612312195849, 0.44827724391801294, 0.11791599362010582
-0.03816774223536529, 0.45847523612153457, 0.10666877163990422
-0.003648506145938942, 0.4612597877960256, 0.10559489316044678
-0.03385434327878676, 0.45443432613402135, 0.11641519938996145
-0.008935969168659472, 0.4573345898310087, 0.11491344223655053
-0.01984518385677362, 0.4570459944321381, 0.11455389538296554
-0.03167098731188437, 0.4501174349403876, 0.12318221974961095
0.00465948699797685, 0.4537170413401943, 0.12259665688203453
-0.014140346625190732, 0.4501957094735928, 0.12632923380891947
-0.003448557662153132, 0.45467650757938033, 0.12087266649566916
0.008093054982998527, 0.45906137245996226, 0.11142774582607146
0.018352319114922508, 0.458027395503226, 0.11266152649902932
0.024992158436127496, 0.46073582700349525, 0.10411016365758834
0.046237895999141895, 0.45868715126509313, 0.10254415584943283
0.0015459233321994217, 0.46050597803918525, 0.107974083910515
0.03451184451753219, 0.45598002793302655, 0.11295301117103339
0.14304581568125274, 0.41925781115719263, -0.0074620478877240205
0.14417285703034366, 0.40522263375725953, 0.013686944607967714
0.1444270524093391, 0.40989983206023173, 0.006686155272885441
0.13924499927664452, 0.43346042498012227, -0.00868663883413246
0.14301454146877085, 0.4190183373297358, 0.00831925005278292
0.1428376676911423, 0.42225864617174214, 0.003581259515630862
0.14160604260041165, 0.4239377271293395, 0.014156177209273249
0.1418798630657463, 0.4024959184329413, 0.030831524983777378
0.1425095445358224, 0.40407471832424113, 0.02801600111717875
0.1386543903944934, 0.41503935364884226, 0.038594540440260054
0.13275940644696302, 0.4316895101010423, 0.04546122252862701
0.13959908853948694, 0.42797226806220456, 0.02347631591598697
0.13957301848579462, 0.43134261719040706, 0.012206400932529199
0.1374302389527126, 0.4185404224106254, 0.040703689056121935
0.13229629796706216, 0.40661190791209517, 0.0587053299638368
0.13147407096186497, 0.4050935597145795, 0.06074276490987064
0.13204234038713009, 0.4200180207219231, 0.05523335611603671
0.12609787655174448, 0.4180452217826638, 0.06883004763215823
0.12870077957180737, 0.418628108079803, 0.06299732610656172
0.12331807602833281, 0.405911645987929, 0.0762728125836194
0.12216040996685229, 0.4304266603377421, 0.07019289127867849
0.11488240797223664, 0.41384543575114996, 0.08722420612742932
0.11438779752853245, 0.4155917550234252, 0.08737701381054709
0.11686200424434888, 0.42339797584551886, 0.08136899494425441
0.10120392220395748, 0.4058072438724925, 0.10353535400351904
0.09749256155026391, 0.4044188728483786, 0.10739656574650497
0.11464531682225097, 0.4301604262903496, 0.08115295509680881
0.10384734144303102, 0.41812592895120426, 0.09889099265401435
0.1093291189572999, 0.4139717161944691, 0.09447736949166764
0.08651726549344559, 0.4050693329176349, 0.11622334882376645
0.09994225787711636, 0.423860428507317, 0.1013215678399681
0.09328540955482867, 0.4186822704273091, 0.10930989424834914
0.10344544727194077, 0.43326950348520527, 0.09387883168675208
0.08156203008271894, 0.4167319454036561, 0.11820645847931589
0.061360117671495684, 0.4050170626879862, 0.1311926718414451
0.0679532160085716, 0.4113356663586015, 0.12758620958014608
0.0787829350371386, 0.4212947829481841, 0.11913963851212248
0.08785544507832935, 0.43334070417219056, 0.10879085776425101
0.07332446812424977, 0.42922526599232197, 0.12046843798130837
0.058041822424656, 0.41418851510546306, 0.13190224494648387
0.04451877486810239, 0.40661763128659634, 0.13788676825745225
0.04778953516205062, 0.40660647224103896, 0.13701125382225582
0.05333195832350318, 0.4157166539737152, 0.13379192306899015
0.0038852089041018388, 0.41388495720596563, 0.1443393849046653
0.009349340940532259, 0.42004779157088595, 0.1427365421110371
0.029361524535043138, 0.42379530952736905, 0.1394801879373662
0.020496234461472893, 0.42148224511547205, 0.14149949388685062
-0.015304699000384867, 0.42855655327627373, 0.14013854608514575
-0.022525909323698766, 0.4277162887132529, 0.13975908120337216
0.023586256977995355, 0.40878884699976903, 0.14303360810918805
-0.019814006258264096, 0.4208949727309341, 0.141666361668029
-0.0077310390050768, 0.41649814665724094, 0.14352597228582412
-0.042984478248784076, 0.4275117739001222, 0.1347168596319147
-0.003354277408764501, 0.42346556286716613, 0.14263725101915778
-3.0282025742157144e-05, 0.4184111161724247, 0.14385056705624943
-0.0006354962272585879, 0.41333139363912086, 0.1446935474267824
-0.0440439934452912, 0.41888465568596867, 0.13647039100145492
-0.03870855759386921, 0.4154584767213938, 0.13854493767465095
-0.06461722508755206, 0.42521821750207245, 0.1264795193175844
-0.029311113544059835, 0.4184207282224493, 0.14050537807695893
-0.031427481750258696, 0.4064680443185564, 0.14140636610832313
-0.03189883292178433, 0.41227794565413395, 0.14082105139711493
-0.06556730391636298, 0.4205752897733278, 0.12711175671097086
-0.08143461215565312, 0.42900826808250153, 0.11486886235562659
-0.08108742471080485, 0.42413763281643546, 0.11689063184471721
-0.05550228948525423, 0.41768209519978494, 0.13238557166081322
-0.05134693591799559, 0.4083800912406827, 0.1355787008069683
-0.05068941989612776, 0.40979844004394206, 0.13576587714279542
-0.08854102295781213, 0.41730853983477423, 0.11319170872195979
-0.09550394059102889, 0.4074027478725215, 0.10906313753183486
-0.09582695104280518, 0.4113268600168989, 0.10831661466680513
-0.08238749733859489, 0.4088299271543594, 0.11876466091219028
-0.10140666043206512, 0.417340027023169, 0.10153375506052638
-0.1005566569557744, 0.41782697628217075, 0.10225854870960822
-0.10553710519306682, 0.42995575169146194, 0.09318905042000009
-0.08380706027446083, 0.423385311961989, 0.1151576662846372
-0.1006200135588886, 0.4211258973535453, 0.10134694102290212
-0.10374428051816413, 0.42320983166998805, 0.09768683839926959
-0.11334633572178437, 0.40945320106356087, 0.09004276434548494
-0.12077386894451764, 0.41368593452307434, 0.0788609484537717
-0.11584421269800681, 0.4181875404454116, 0.08447426340208179
-0.12826665700262102, 0.40682161929634125, 0.06730909775849608
-0.11796275710292517, 0.4207739495492055, 0.08062880402336019
-0.11686711820957846, 0.4229169464927042, 0.08151422820922974
-0.1341144535876753, 0.41473805902112454, 0.05306125439092915
-0.11967309977576275, 0.42787480966346575, 0.07516462851534272
-0.11579194001289751, 0.43019284488955767, 0.07949855856356897
-0.13882049581984526, 0.40597623707671004, 0.04122307289263416
-0.12931737187617998, 0.4205863493932457, 0.060832620363555454
-0.1269257158286716, 0.4213633471017814, 0.06562727999466723
-0.13167061753435017, 0.4329468639139473, 0.04801431211970996
-0.14015665791453286, 0.41367882681099377, 0.033943661464457875
-0.14345785411904716, 0.40487881059514547, 0.022160388613749887
-0.14421736152561193, 0.4060875160983034, 0.012420933926262244
-0.14019728966083844, 0.42190478377659585, 0.028013394718116078
-0.14355462724518708, 0.4151823092021104, 0.010148470334454079
-0.1430188415782902, 0.4143944987938944, 0.017915916704951136
-0.14027439723608628, 0.4251516732067015, 0.02497125714754942
-0.1449302840276414, 0.40677989276510373, -0.0036661530422889897
-0.14428127252892764, 0.4083895395341663, -0.009674905540450652
-0.1439784038263919, 0.41584442731376886, 0.003923472940067496
-0.14318103375895455, 0.41399996797005223, -0.016885217087727743
-0.14293956184527748, 0.4188709817193856, -0.009483747710969131
-0.140522281840938, 0.4309138922379419, 0.0028276754782281866
-0.14179718996482987, 0.41930128711244724, -0.021643244945999715
-0.14214809759197272, 0.41239791357139094, -0.026910885301826944
-0.1416387882805432, 0.40913389244042, -0.02977406667489127
-0.14246400020552957, 0.4138889096435998, -0.025185052261011164
-0.13976248837026928, 0.4293538504130848, -0.016866449061535945
-0.13926216959888604, 0.4318549418145989, -0.014000831795086512
-0.13185336043149373, 0.40839956147404716, -0.05933244445176168
-0.13498916397404076, 0.42040749884455625, -0.04850222278330957
-0.13709488029070221, 0.41780458034523194, -0.04247217890458601
-0.13421311741728623, 0.4277923266184497, -0.044540164544765726
-0.13349182868642262, 0.41691183120754105, -0.05346132385398413
-0.1246572145050561, 0.4210657518042417, -0.07062002645799831
-0.12575803122927284, 0.4149088660370809, -0.07090815562630508
-0.12121415178266291, 0.40972635209233654, -0.07876999470628712
-0.12258729525276635, 0.43313211064510865, -0.06736245628384435
-0.12296000459394504, 0.43100366760525505, -0.06806973482279748
-0.11571376994031621, 0.41489051523432996, -0.08570563541678929
-0.11328338511054448, 0.42405369184600794, -0.08627192315799273
-0.1219547993426528, 0.4228110873407294, -0.07428175650174745
-0.10416081212258935, 0.40584277370416644, -0.10057461778859164
-0.11948329275237525, 0.4325421067221546, -0.07300150760982392
-0.10846281539546604, 0.41630433508354336, -0.09474391346452715
-0.10674814595501296, 0.4155577484905718, -0.09665055335166764
-0.0994395406339889, 0.4217269971370269, -0.10237284814992124
-0.08540573698808339, 0.40429756620900853, -0.11707352673278462
-0.08198889003023907, 0.4036766050106514, -0.1195238754358279
-0.08686619897001811, 0.42123487410675037, -0.11349295926957383
-0.09815199708036215, 0.43210612625219647, -0.09966445027679885
-0.09524694422244165, 0.4320717720584497, -0.10258403157446373
-0.07215121501345678, 0.420694555527329, -0.12391639959126269
-0.07172157423953403, 0.4032635181158901, -0.12650868723399258
-0.06648165960761522, 0.40341495876507305, -0.1289393409856358
-0.07254195969211988, 0.4302399235422256, -0.12064576515883108
-0.07114021615485368, 0.42026358873638975, -0.12457558930948653
-0.065308067016351, 0.4236583978435205, -0.12661409705905588
-0.05364423396883561, 0.41942931232120173, -0.13290143999200993
-0.04461865817471788, 0.4054715505946771, -0.13795052355358084
-0.04997587591909856, 0.42637138450885503, -0.1329262263855529
-0.050263505376039186, 0.43307023757763285, -0.1305810744136549
-0.045897438867231424, 0.4186648068883715, -0.1360151214667451
-0.011118788099715456, 0.43099534155269853, -0.13977242584716243
-0.028177443438923, 0.4204008647895141, -0.14043638652497215
-0.04049729229718327, 0.42400844094072127, -0.13645622810178296
-0.016390649383563625, 0.40718094624702006, -0.14378628297235363
-0.007687952923514768, 0.41724963907645096, -0.14339257511570608
-0.008156587181684173, 0.4177836818820825, -0.14325410485830997
-0.015417609616393624, 0.4143809645969585, -0.14323988293691636
-0.033147583689155866, 0.42865588170529934, -0.1369983063307811
-0.04424218267445622, 0.43385849418867795, -0.13241432247874677
0.016666826509271707, 0.4260461116588421, -0.14077320579113167
0.005896204529734247, 0.41518881111546, -0.1439254754950271
0.0006612193188743798, 0.4239077715249664, -0.14279216262177233
0.0029512526819009954, 0.4233413327711417, -0.14269518922534913
0.040991566570943126, 0.429741541617488, -0.1345602863179194
0.03416016297090095, 0.4168512820632347, -0.13950149474559367
0.04822649280802987, 0.42279113746416075, -0.13461432357848999
0.006952697137554435, 0.41263375031064053, -0.14419430770447983
0.0309241785850305, 0.42341277618945034, -0.1391334802793094
0.031037765400892252, 0.41970166548458887, -0.13980160271642997
0.06880490437869027, 0.4320668160619393, -0.12226624021857467
0.0716538569106587, 0.41643320613764406, -0.12510449088682285
0.07121939804242897, 0.42205825444732836, -0.1241785666341863
0.03688993262602562, 0.4118957392439556, -0.13951388618638166
0.08808648854862691, 0.4312504145226479, -0.10939233999559697
0.05451519362614665, 0.41635640149952896, -0.13311179346591465
0.05879600056144039, 0.42248924996710296, -0.12988524476221586
0.08496419810350402, 0.4182512529228368, -0.11548696302451857
0.05285736094772895, 0.41206820172587105, -0.13456382193096317
0.06917713446713275, 0.4123884428053106, -0.12692681959081173
0.10362939806508539, 0.4052667479935967, -0.10116812575670081
0.08325631737409082, 0.4082885432966251, -0.11820673390546695
0.09009893071280094, 0.41220586133006026, -0.11305053066788923
0.08718022718892983, 0.4226717955367513, -0.11295407432062472
0.0987414884475667, 0.415928058584019, -0.10456193005686035
0.09601861545269602, 0.4148893791641607, -0.10755190022038638
0.12328277378563109, 0.4025904682351498, -0.07676497628515208
0.10509084657937674, 0.4188975078220355, -0.09744898721371871
0.10898665507369418, 0.419616797837268, -0.09336820501217885
0.10349214633638465, 0.4314009055438398, -0.09462252838138091
0.12167006683183633, 0.41424045788948866, -0.07740509995374988
0.11033311439971172, 0.4192476849161053, -0.09200869140438596
0.12048118522449897, 0.42042014511187165, -0.07714410376314697
0.12986000026436403, 0.40528734000199795, -0.06416902602018446
0.11841746059509681, 0.4295889648467366, -0.07606372062664771
0.11611693308202471, 0.43385195479515204, -0.0771258983375213
0.13104319099834683, 0.41678645729207464, -0.05876625956879182
0.14112551258278358, 0.4217936356283048, -0.024120660908518856
0.14392599518694188, 0.41454232508221844, -0.007238793594090286
0.13629797208969086, 0.43032023312838685, -0.03383749412195001
0.13392501913494478, 0.4171446334095218, -0.05243205649140888
0.13756646943084244, 0.40283518752045516, -0.046829215909482996
0.13951694275220172, 0.4081786593014525, -0.03797441565553395
0.13758145223941326, 0.42038898862880064, -0.03884046795425148
0.14296595377404453, 0.40985250787134675, -0.02342776997329722
0.14334675455899493, 0.4100444658067192, -0.01890721903654672
0.12686605280157884, 0.43293827648357475, -0.058323704779212004
0.13846344726159246, 0.41818285785173576, -0.03709864505270317
0.13555148295272273, 0.4168558076111851, -0.04889856311094819
0.03885976788515012, 0.4546051398226162, 0.1147108832163206
0.056199607504013885, 0.45257267444814575, 0.1106271301777213
0.005117195370196343, 0.45431027600758966, 0.12148159541508986
0.0026811072593635995, 0.454502709402125, 0.12129805984986361
0.042524587318998205, 0.45138622455136745, 0.1185787635761468
0.00826884829725845, 0.44885941841501115, 0.12857413586815025
0.04044302214552479, 0.44840487496331927, 0.12312001894646736
0.03601007586052773, 0.44428730955321266, 0.12812552525861537
0.023527594767652944, 0.4459469661795138, 0.1299589883095657
0.014389310099512576, 0.4435893914480518, 0.13294544300930178
0.03239039225670245, 0.43551700046770564, 0.13470029786309665
0.053981313250203625, 0.4465350059997562, 0.11948421750920755
0.06125340513018484, 0.4324245498058689, 0.12566956522011455
0.055374277004680734, 0.43240555124210467, 0.12841731070619827
0.042624295975179013, 0.41959342253418935, 0.13671738442985304
0.025175600228252003, 0.4394165309776624, 0.13452110664272224
0.014688965095732375, 0.43614902904536734, 0.1374056791237016
0.013558100927382903, 0.4355038892760505, 0.13784347553709347
0.051320865653630886, 0.4417361326171134, 0.12528912029835626
0.035598199319485845, 0.4278142113622905, 0.13660234214434613
0.0015186349859012552, 0.42485960774579257, 0.14245480537587424
0.03075662756432089, 0.4316753626162762, 0.13670387153500643
0.03318787370979103, 0.43019809496334677, 0.1365099192848618
0.05779235916629361, 0.4428144574897367, 0.09885225475367691
0.07680261377855843, 0.44479811552548426, 0.07997414507337587
0.09846148381283132, 0.44368826648328985, 0.0554838423800722
0.10992368652295308, 0.4426414133049353, 0.031798540978439004
0.1087105871121783, 0.4454429500802703, 0.017204398981471233
0.1098608323759414, 0.44518404589900923, -0.00894713171508032
0.10915394412451772, 0.44420543130771706, -0.024723451922108487
0.09492407281703419, 0.4453149119043246, -0.05622593783697201
0.08458254025875304, 0.4449437253457187, -0.07185511594380811
0.06727079475627418, 0.44542077564544047, -0.08697765963957325
0.05645055921811572, 0.4429417483862414, -0.09936655180011382
0.010849405011453001, 0.4466120063192486, -0.10733475737101104
-0.0029530388670899383, 0.44438992122328225, -0.11169748667768917
-0.02590495728182997, 0.44326408835834386, -0.11044164594943434
-0.04019236379758254, 0.4452973162116316, -0.10266941595253153
-0.06984892015097599, 0.44332606363102506, -0.08938197829482068
-0.0823835162185795, 0.4435080223229557, -0.07739660845417216
-0.09948109733461605, 0.44445332470642135, -0.05031728679094894
-0.1044368649093762, 0.4453992373743962, -0.034735041847036255
-0.11063138374593309, 0.4446495735938692, -0.010234871986079778
-0.10940583075157911, 0.44582140689298655, 0.002109838572264863
-0.10952715851765807, 0.44436170650646895, 0.02233674596259678
-0.095091522983374, 0.446570186434697, 0.05148523057021885
-0.08274622949497126, 0.4457837769011874, 0.07173588111676554
-0.07026066660750953, 0.4459457565407549, 0.08382917269607675
