0.1633271311462987, 0.6437561087602535, 0.10927402942010261
0.05432241946546783, 0.6437561229952713, 0.08545079132063575
0.057418836487062155, 0.643756136400762, 0.11252365013474555
0.20154549427355492, 0.6437560943623372, 0.09964632089952324
0.0069974840166477275, 0.6437561440826837, 0.1036014251432284
0.054427320914194534, 0.6437561339770523, 0.10649045774811952
0.1484859059896822, 0.6437561113721092, 0.10731820581368608
0.09024599903115045, 0.6437561066921369, 0.0711071190535033
0.012599179567942662, 0.6437561433753173, 0.10487187569267895
0.018005765508113957, 0.6437561390386392, 0.09911392338233334
0.0372147357446579, 0.6437561175548551, 0.06704279753499967
0.011195538002961379, 0.6437561216362204, 0.06266267353948536
0.12250095185932068, 0.6437561193463468, 0.11039494219580537
0.021836172861333904, 0.6437561251131773, 0.07429007876412276
0.1219785078288474, 0.6437560972196952, 0.06785751330358898
0.13374180251159187, 0.6437560965189693, 0.07202529174429045
0.014583277130916452, 0.643756130243199, 0.08070005182595197
0.006420745477273484, 0.6437561247088213, 0.06630025342238477
0.22230406011327855, 0.643756091594696, -0.08978261075522162
0.19715843365842275, 0.6437560915946959, -0.06324676203492041
0.10025517737608816, 0.643756091594696, -0.021183116296122167
0.10981714167446456, 0.643756091594696, -0.012298388107061858
0.2241069904479887, 0.643756091594696, -0.001025799875454287
0.2044022215080018, 0.643756091594696, -0.034822246533108316
0.13686173239914717, 0.643756091594696, -0.043729418773647465
0.11460722365818027, 0.643756091594696, -0.03688496655893473
0.19100256971871374, 0.643756091594696, -0.08522975930007139
0.2010811533356835, 0.643756091594696, -0.059923922743687255
0.1297953660423304, 0.643756091594696, -0.0015829398174209929
0.10585736056012277, 0.643756091594696, -0.025295389410634264
0.06762977570985937, 0.643756091594696, -0.016102545533904306
0.13014010524159414, 0.643756091594696, -0.0062508039641880585
0.21403404155206943, 0.643756091594696, -0.010021728561673462
0.22367041438504137, 0.643756091594696, -0.058547279151430875
0.21786793935508256, 0.643756091594696, -0.041148803623430756
0.07673379826363919, 0.643756091594696, -0.011298126655298038
0.18246786582212685, 0.643756091594696, -0.00023125639498992976
0.14877433541014873, 0.643756091594696, -0.04192900582874277
0.11979383611796499, 0.643756091594696, -0.03441967538045952
0.1597396536543464, 0.643756091594696, -0.022264048992803476
0.12853163482686278, 0.643756091594696, -0.03521966320727023
0.16956246028910565, 0.643756091594696, -0.04163337089100703
0.21269669692934545, 0.643756091594696, -0.02447936394252071
0.05832028205946658, 0.643756091594696, -0.008250328496283795
0.17295125464760927, 0.643756091594696, -0.06013977784519595
0.16263770654297008, 0.643756091594696, -0.05578224000220078
0.12313878185394575, 0.643756091594696, -0.03790833980275636
0.05245020307381553, 0.6437560915946959, -0.006577932070043523
0.21328440243610214, 0.643756091594696, -0.048732136180636855
0.1719523370926871, 0.643756091594696, -0.02619579751562579
0.1047938514085581, 0.643756091594696, -0.014630679003582154
0.2132202840865426, 0.643756091594696, -0.015852308591445444
0.17189980188012854, 0.643756091594696, -0.012382796049530876
0.0746509182307288, 0.643756091594696, -0.006369719216753081
-0.1251756342687175, 0.6437560927635055, -0.06083670125451794
-0.044150869405021505, 0.6437561332394289, -0.10026946586940895
-0.08268165009948553, 0.6437561250977671, -0.10274621381273706
-0.04333638254581125, 0.6437561251245525, -0.08437739377816292
-0.07220092560164122, 0.6437561226785431, -0.09321542138100077
-0.11156829412346997, 0.6437560991601772, -0.06669282683825697
-0.023783204354851217, 0.6437561425320674, -0.10849599976867223
-0.12549513589149056, 0.6437561016065245, -0.07788880913485063
-0.1337078724724382, 0.6437561119020109, -0.10141248513732498
-0.1104692498696182, 0.6437560983571203, -0.06464333344065858
-0.18502772476721419, 0.6437560995478947, -0.10182493235717467
-0.09527866724216016, 0.6437561109128965, -0.08153074348506063
-0.035910184510940114, 0.643756108005025, -0.048178488141491546
-0.043530115000060786, 0.6437561055171637, -0.04699056768899659
-0.09678266305927449, 0.6437561006093137, -0.06254061111078504
-0.05676077000864825, 0.6437561268660388, -0.09399087513338364
-0.040746173028927545, 0.6437561001569483, -0.035441722894194894
-0.0021470220043095178, 0.6437561350569502, -0.0840788049910639
-0.006303377263426798, 0.6437561179230282, -0.053274914096188036
-0.021212444047587133, 0.6437561240789216, -0.07202115710705007
-0.0011959894388350381, 0.6437561407818291, -0.09457608858369018
-0.10858981043247638, 0.643756104073028, -0.07468882323988903
-0.10022183624637017, 0.6437561257111464, -0.11213030032710564
-0.0806361193539607, 0.6437561035544007, -0.06061062269837301
-0.05361340645476975, 0.6437561274823245, -0.0936953619549773
-0.20578929015024394, 0.6437560986486429, -0.1098259111132333
-0.060221861872364446, 0.6437560935994682, -0.03202557437045201
-0.0015738709292305432, 0.6437561022443781, -0.021092590655250675
-0.10795347871720472, 0.6437561125926605, -0.09067532494113101
-0.10320680761212211, 0.6437561108219543, -0.08506858245051126
-0.03057803648223233, 0.6437561106356353, -0.0507103142722249
-0.00018966902991022472, 0.6437561447201963, -0.10163275324374049
-0.07261084441737727, 0.6437561311392113, -0.10957903499566939
-0.1772779488001982, 0.6437561058908878, -0.11032075478053066
-0.14420960957500198, 0.6437560992638639, -0.0821724857061561
-0.2347881167060552, 0.643756091594696, -0.07988815371832567
-0.18296779868130908, 0.643756091594696, -0.028798545038184232
-0.08852685623904488, 0.643756091594696, -0.013328320225203038
-0.14943210061292492, 0.643756091594696, -0.008798586508124562
-0.05703363961134046, 0.643756091594696, -0.0169430315831164
-0.05683919315329709, 0.643756091594696, -0.013770228935986926
-0.20792586056259063, 0.643756091594696, -0.030585831568845038
-0.21282165091099392, 0.643756091594696, -0.023595658252786072
-0.21759456886600106, 0.643756091594696, -0.01487373632251535
-0.15432241876966146, 0.643756091594696, -0.04747666550741717
-0.18242932837672676, 0.643756091594696, -0.029149130100660545
-0.13098036706606633, 0.643756091594696, -0.003438763234604724
-0.2306505479895023, 0.643756091594696, -0.001057504170497374
-0.23125980442805497, 0.643756091594696, -0.10438673632852566
-0.12768707759584033, 0.643756091594696, -0.007279593126798459
-0.2178279045317676, 0.643756091594696, -0.015398691197013072
-0.18719043893097762, 0.643756091594696, -0.047254534425776595
-0.19583045928723825, 0.643756091594696, -0.03656239497930252
-0.22145162334195045, 0.643756091594696, -0.0650026302944215
-0.1665660690190842, 0.643756091594696, -0.0019212037932870693
-0.17883081209047125, 0.643756091594696, -0.0667454252437574
-0.2012512672082928, 0.643756091594696, -0.0479980239367272
-0.22118849194744405, 0.643756091594696, -0.09729004596013502
-0.21888751457793565, 0.643756091594696, -0.0978141519150756
-0.046622615857474854, 0.643756091594696, -0.020263828214312937
-0.22570789959864604, 0.643756091594696, -0.04562846925261137
-0.2086182160244566, 0.6437560915946962, -0.0853817279207757
-0.22864730977615008, 0.643756091594696, -0.08870241460303005
-0.15629860504460713, 0.643756091594696, -0.06301481831246397
-0.2428519969761287, 0.643756091594696, -0.004185584469193946
-0.23103163643820673, 0.643756091594696, -0.057202905797915635
-0.10679765627579726, 0.643756091594696, -0.009800085240212383
-0.17212830445540023, 0.6437560915946962, -0.07311452975992104
-0.1895312603517209, 0.643756091594696, -0.07362415821663167
-0.24146035145924846, 0.643756091594696, -0.02417257162163804
-0.13658342441909677, 0.643756091594696, -0.03620292750601563
-0.4029137156454262, 0.643756091594696, -0.0669097756318505
-0.3953220308258053, 0.643756091594696, -0.038914932157988094
-0.40266961806314844, 0.643756091594696, -0.07347983293353795
-0.4168645893652704, 0.643756091594696, -0.04847208943200301
-0.41768652651306803, 0.643756091594696, -0.014199668674746688
-0.4257512596475443, 0.6437560915946959, -0.020595513923016985
-0.36881143786758086, 0.643756091594696, -0.10848346199516727
-0.3716782141622387, 0.643756091594696, -0.06456454151686901
-0.42333957456637356, 0.6437560915946962, -0.02057977953549113
-0.4147742068422806, 0.643756091594696, -0.08207594092062628
-0.42244242905490276, 0.643756091594696, -0.07877253386219767
-0.37672575762988014, 0.643756091594696, -0.11240369084383543
-0.3095215915879372, 0.643756091594696, -0.10914964524282718
-0.3121674660797323, 0.643756091594696, -0.08075663011559309
-0.35385037031837485, 0.643756091594696, -0.11372668819820123
-0.394823732246819, 0.643756091594696, -0.09095633593163702
-0.31602758867002745, 0.6437560915946962, -0.09066904834489359
-0.26742260431123677, 0.643756091594696, -0.10925755028251076
-0.36002978642321914, 0.643756091594696, -0.0772489337712203
-0.40063346286298923, 0.6437560915946962, -0.03451566562294327
-0.40906730487713006, 0.643756091594696, -0.10829549153878337
-0.41958852591373913, 0.643756091594696, -0.1042596501754065
-0.30593960139410303, 0.643756091594696, -0.10066474740985867
-0.4234874793164615, 0.6437560915946959, -0.02443849985199917
-0.34125704233426973, 0.643756091594696, -0.07714996159799849
-0.39342118784519897, 0.643756091594696, -0.03879387001376994
-0.012117923320522207, 0.6437810343526602, -0.2027283757268482
-0.14522944834231705, 0.643827334796267, -0.22657278044890503
-0.06830036086517056, 0.6438301742186854, -0.22802433727769453
-0.0028265109149109985, 0.6438128150095119, -0.21908250371737426
-0.1383748173765802, 0.6438201448774988, -0.22287176406379
-0.0733988504562031, 0.6438220682517961, -0.2238534011672718
-0.05013048730442833, 0.6438122067310413, -0.21877542764559538
-0.059137955302488485, 0.6437886723527649, -0.206665051327931
-0.11858665625511193, 0.6438060548592803, -0.21561811494517108
0.08936417294188517, 0.6437672143230818, -0.1652227180895113
0.03892104117924734, 0.643770879432106, -0.18212538889761176
0.105787585879595, 0.6437561566126782, -0.1140731368289839
0.11274905112942779, 0.6437594262483635, -0.12921086372773188
0.18657321656016643, 0.6437595230034913, -0.12974225586641047
0.20661943820825637, 0.643756121715836, -0.11402593521975568
0.0025005261300792988, 0.6437620082782026, -0.14103393750192517
0.039219097764590136, 0.6437609398937202, -0.1361317352271973
0.054363847090501224, 0.6437565983532034, -0.11605895494532865
0.09783042088335939, 0.643766303394843, -0.16101710503816538
0.06211965810438485, 0.6437636800511658, -0.14883743149231066
0.1596205097802289, 0.6437584124363476, -0.12457269575119087
0.14574586071841303, 0.6437582932183561, -0.12400530412366237
0.21995670744506846, 0.6437574101973517, -0.12000334095769133
0.02309235529170094, 0.6437570161638628, -0.117956880391311
0.16438329944816513, 0.6437615339381573, -0.13902245945773148
0.11770541830004888, 0.6437643213850308, -0.15186812400309724
0.07532501045508679, 0.6437597883723536, -0.13084413287940366
0.026263323578109937, 0.643770948370886, -0.18243004881624056
0.13402847246492336, 0.6437582470845933, -0.12377854573857847
0.12308248194314919, 0.6437572685626851, -0.11923815015398986
0.1686438552805678, 0.6437594273785584, -0.1292794427493277
0.17445406111243628, 0.6437593373872472, -0.12886960410485565
0.029208376801932643, 0.6437720245490796, -0.1874132688735365
0.007950186049986914, 0.6437699069208821, -0.17759011154661047
0.14267723200890217, 0.643757093184102, -0.11844881532278857
0.07926329454432342, 0.6437646666540541, -0.15342224500938215
-0.383737912048888, 0.6437641422120182, -0.15111771215750572
-0.37723298133587907, 0.6437650947924264, -0.15551583411603792
-0.3507254857122158, 0.6437646042303143, -0.15320576748204567
-0.41772305471416515, 0.6437665191846971, -0.1621682126487163
-0.3985301065060193, 0.6437740619932075, -0.1970426449962217
-0.4083969852997118, 0.6437599822281318, -0.13190514888955748
-0.3382036177790032, 0.6437739512480706, -0.19643903841533997
-0.2912747590354254, 0.6437726757111174, -0.1904657414775472
-0.27342176031736765, 0.6437733488335915, -0.19355356004319868
-0.4197076324775643, 0.6437743819875483, -0.19855537695511918
-0.41859105356226467, 0.6437698449811562, -0.17755924353802166
-0.4070572316795325, 0.6437636809987827, -0.14901873690115877
-0.40879351404585285, 0.6437630739842591, -0.1462124742090941
-0.3798878266630257, 0.6437687926243887, -0.17263111387436175
-0.3457464938180209, 0.6437710755140482, -0.18314332476044357
-0.3929575467806009, 0.6437672304713578, -0.16542218729029567
-0.3230795530622194, 0.6437708137111479, -0.181897616282445
-0.30244495796154497, 0.6437714292680418, -0.18471485441733365
-0.39331817858401075, 0.6437649279891412, -0.1547682751807124
-0.38496217301439295, 0.6437653721418599, -0.15681091294175012
-0.09641308124882081, 0.6437565060723782, -0.11567396245788474
-0.15628184100340078, 0.6437606750336053, -0.13497092436839844
-0.0721143576475364, 0.6437606796358956, -0.13489706672134671
-0.19504727430204932, 0.64376289577048, -0.14525786372829913
-0.18185563652884856, 0.6437605484046319, -0.134415739665056
-0.1886470311942381, 0.6437562343000897, -0.1145246117674554
-0.10425798345709343, 0.643759915594272, -0.1314092392622393
-0.1420846271984746, 0.6437567840416957, -0.11700769155529403
-0.08135412049803879, 0.6437613946148288, -0.138205344249265
-0.06341679282907059, 0.6437591445314703, -0.12780657421024244
-0.1285692498053712, 0.6437656876304824, -0.1580602119408777
-0.10951187594539516, 0.6437604715027312, -0.13397930156560361
-0.21420749631441965, 0.6437714409696602, -0.18469422691428697
-0.21514017420248768, 0.6437660118842146, -0.15965363267997906
-0.061466909984267584, 0.6437584026579042, -0.12438248075621881
-0.20379214895309986, 0.6437601702531152, -0.13269629852167267
-0.17247687099216877, 0.6437588761753269, -0.12669198930023515
-0.18053658666699723, 0.6437643570667453, -0.15198169738907083
-0.13270961289145528, 0.6437619667121036, -0.1409021593461836
-0.1493299118756668, 0.6437633419501327, -0.1472642188338923
-0.10301594968776406, 0.6437618437561632, -0.14030147973844304
-0.1560464072575104, 0.6437607744297762, -0.13542912307312524
-0.1837818697434725, 0.6437630213166308, -0.1458242183926699
-0.12827632161564512, 0.6437623072064991, -0.14246768081944108
-0.12179047247620457, 0.6437579166230281, -0.12220879441580333
-0.1672336394359748, 0.6437685721917602, -0.17140892614329536
-0.2508517912300924, 0.6438262740585752, -0.22603707315549576
-0.2530381285922204, 0.6438028550086943, -0.21397199533018846
-0.2614974295374171, 0.6438023015675889, -0.21368687231953964
-0.31469061925960107, 0.643797210852573, -0.21106422651775347
-0.3636125670824821, 0.6438112965796384, -0.2183209424876322
-0.3431888874373392, 0.6438060643701377, -0.21562540124468044
-0.24567055797836254, 0.6438231816315464, -0.22444390977091686
-0.08992026273373693, 0.6437670820516433, -0.16450936607565114
-0.08069426840848926, 0.6437725434989537, -0.18978154183405505
-0.20811122017591993, 0.6437741226933311, -0.1970890695997697
-0.17015913709069252, 0.6437729865761326, -0.1918318269872357
-0.036474471408255014, 0.6437625634610193, -0.14360014367666982
-0.06889135838835507, 0.6437725919515622, -0.19000575032100295
-0.10819577006775476, 0.6437744715579862, -0.19870339788664895
-0.09854128732571008, 0.6437735147750154, -0.1942760023584105
-0.05367419616616744, 0.6437723270397737, -0.18877990359995778
-0.10838834164302556, 0.6437727693564899, -0.19082666980583018
-0.11358598539702501, 0.6437737903738294, -0.19555130197592452
-0.054849282537146736, 0.6437676045475649, -0.16692715169379846
-0.09072339209879046, 0.6437727173157329, -0.19058585760302335
-0.04068719276984522, 0.6437702205736735, -0.17903249078263775
-0.08883198407986044, 0.6437710346642795, -0.18279959494179202
-0.06807050271219783, 0.6437669166008375, -0.1637437628194373
-0.1165634681628755, 0.6437659862785795, -0.15943881098465842
-0.17126077230143724, 0.6437742526593117, -0.1976904711912524
-0.04593280443892236, 0.6437606680201876, -0.1348292243359332
-0.002269201215942322, 0.643764751798004, -0.15372640394278547
-0.03324937892299999, 0.6437737205131873, -0.19522803044607656
-0.042794825216835884, 0.6437635808159752, -0.14830782861636888
-0.21617843484045302, 0.6437733452017689, -0.19349132301471578
-0.04834926307915453, 0.6437701431151213, -0.17867406085805398
-0.1410923296410455, 0.6437721988428879, -0.18818668827672125
-0.19989394282779632, 0.6437722517778288, -0.18843163820566988
-0.0016237405711875873, 0.6437706279766852, -0.18091769811470504
-0.5079310558653685, 0.6554963817161137, 0.12819155974293678
-0.5079324042034893, 0.6464845649277604, 0.09581259584467303
-0.5053386761655441, 0.643783623252463, 0.017927533551569515
-0.49836839567133373, 0.643758346642768, 0.0222066255097284
-0.5016450265947002, 0.643771017169803, 0.1363996833115343
-0.49376269223670327, 0.6437560864829355, 0.046739234036943154
-0.4948717321207216, 0.6437640200747378, 0.15049829906030482
-0.48705757382930936, 0.6437560566554278, 0.023682699990489407
-0.36014916160289995, 0.6437735288817952, 0.19451774840595915
-0.3506764219319263, 0.6437649098276266, 0.15461981953543433
-0.2852330046034637, 0.6437716123545176, 0.18553606306476622
-0.28148428928311614, 0.643772178211494, 0.18814883294765933
-0.41416765405576217, 0.643763600555643, 0.14865725240010114
-0.4095001168839284, 0.6437674811536527, 0.16660719182577388
-0.3546253790939304, 0.6437745711446718, 0.19933234625442722
-0.3573909830221716, 0.6437637040779368, 0.14905050564105193
-0.33453059924695305, 0.6437686401425986, 0.17185700016429517
-0.3680991050678322, 0.6437670383884481, 0.1644957976139591
-0.3985632038421854, 0.6437623042365778, 0.14263511818188654
-0.38326974664915725, 0.6437663965637266, 0.16154875361385615
-0.3875340976192877, 0.6437667138531111, 0.16302341432326672
-0.4026702989319737, 0.6437687108445982, 0.17228711680596853
-0.37986281176492753, 0.6437727269997762, 0.19083692288277831
-0.3816048321736583, 0.6437733090065689, 0.1935327199765871
-0.2665760401757423, 0.643774535971419, 0.19903655319547148
-0.33011261858537017, 0.643767865843921, 0.16826735285682445
-0.36967906651127824, 0.6437697981452111, 0.17726862087479545
-0.4828569439682487, 0.6437569038290937, 0.11767462900865905
-0.46337563790417413, 0.6437562124721237, 0.11448575141008613
-0.47499654922584456, 0.643761529818742, 0.139011997025777
-0.4414131361517438, 0.6437575945000388, 0.12086035720086033
-0.46693022441832555, 0.6437585174933499, 0.1251176553890662
-0.4677897328160686, 0.6437593489476073, 0.12895273593654483
-0.4801196346383746, 0.643764690104086, 0.15358880430228694
-0.4748987351933999, 0.643756091594696, 0.0015941500583364309
-0.4467860029876738, 0.643756091594696, 0.04850676114531067
-0.46685993582893925, 0.6437560915946959, 0.028966034789106962
-0.4745000844065011, 0.6437560915946959, 0.0004683345597265352
-0.4276957904629559, 0.643756091594696, 0.05499867501726405
-0.4295489277971808, 0.643756091594696, 0.033486991606353864
-0.4799241443550143, 0.643756091594696, 0.0023845582136728404
-0.42844718754415695, 0.643756091594696, 0.008760701682246439
-0.45947944309329425, 0.6437560915946962, 0.03027644398224262
-0.39954135725728346, 0.7619991302490234, 0.09423650846917869
-0.3201895564988157, 0.7619991302490234, 0.02027624332882213
-0.34369052590782606, 0.7619991302490234, 0.059669407001014384
-0.3599688119133084, 0.7619991302490234, 0.052877569910733356
-0.3910623827163338, 0.7619991302490233, 0.09211941991840848
-0.38815929077708056, 0.7619991302490234, 0.018037751321840094
-0.3774453057930202, 0.7619991302490235, 0.0024341001345579575
-0.3061046678037631, 0.7619991302490233, 0.022664785978075638
-0.27540140065795266, 0.7619991302490234, 0.0103084672877214
-0.42423383839190965, 0.7619991302490234, 0.07963055754887392
-0.3423291893966721, 0.7619991302490234, 0.009592868632380167
-0.3996569292735384, 0.7619991302490234, 0.09645508958908103
-0.3573666319662503, 0.7619991302490234, 0.04078720955712524
-0.41481640889272625, 0.7619991302490234, 0.007021629651991392
-0.27276196911058104, 0.7619991302490233, 0.011834979699982352
-0.38343981112999637, 0.7619991302490234, 0.03514677747107787
-0.4071181845939575, 0.7619991302490234, 0.09904915982257251
-0.295683106891704, 0.7619991302490235, 0.021011404155245435
-0.4084552680227228, 0.7619991302490234, 0.06324140048987377
-0.35953503853171054, 0.7619991302490235, 0.03538702588021782
-0.3377386475106401, 0.7619991302490234, 0.05238012133351589
-0.25589112673638326, 0.7619991302490234, 0.003278678833770556
-0.41834123383838734, 0.7619991302490234, 0.008625949400475239
-0.42465065050824236, 0.7619991302490234, 0.024996943011798552
-0.3047864954577914, 0.7619991302490234, 0.03389755044182102
-0.28387008314382756, 0.7619991302490233, 0.006975004458780813
-0.3343168103221583, 0.7619991302490234, 0.0058301873205876195
-0.3091401813080731, 0.7619953004342844, 0.13159321543204433
-0.25954631207487, 0.7619951825416541, 0.13213699085721237
-0.38592530657096713, 0.7619972750595247, 0.12248526753993544
-0.2761238148194094, 0.7619858607768444, 0.17513360991427507
-0.31724342342519685, 0.7619917694086455, 0.1478800633374278
-0.2531210526746296, 0.761998993030865, 0.11456111803678592
-0.3035396981833137, 0.7619932787252653, 0.14091834294969668
-0.3817471131750227, 0.7619946581742465, 0.1345556442340747
-0.27264510135413256, 0.7619940303855035, 0.13745130939252365
-0.3416340667230371, 0.7619912407803486, 0.15031836207280413
-0.2567504816555324, 0.7619902736504534, 0.15477923945445765
-0.26881619396671924, 0.7619889427713534, 0.16091791707750536
-0.2772920568168701, 0.7619955562234135, 0.13041338609155778
-0.26264758125222926, 0.7619939310299929, 0.13790958562893074
-0.3265034313877772, 0.7619923492508116, 0.14520554350036746
-0.24433251320017252, 0.7619910964327111, 0.1509841572608638
-0.3279416584846546, 0.7619969922620764, 0.12378966535564168
-0.2912611455570239, 0.7619872754614343, 0.16860838189048677
-0.34973016004850677, 0.7619984804823245, 0.11692525482917754
-0.27815487683630813, 0.7619962381955661, 0.12726779125274662
-0.44160374762744536, 0.7619900348018953, 0.155880941309429
-0.4356170626587373, 0.7619884449661771, 0.163214058928769
-0.4652898614319351, 0.7619808721030062, 0.19814386363352504
-0.448894628048009, 0.7619903861209075, 0.1542604793691423
-0.45869972143772836, 0.7619852804515272, 0.17781036638714887
-0.4274682260174128, 0.761984235771877, 0.18262896485132055
-0.46042250714302124, 0.7619991302490234, 0.0035332924208493753
-0.4736433669654887, 0.7619991302490234, 0.08481831015942895
-0.4723820713046791, 0.7619991302490234, 0.07309806013153987
-0.47594265670587127, 0.7619991302490234, 0.013244842592008645
-0.47759783080494833, 0.7619991302490234, 0.02262720677809278
-0.47297629977638167, 0.7619991302490234, 0.03051409644276581
-0.47599682051123215, 0.7619991302490234, 0.0660870040046204
-0.485500270957489, 0.7619991302490233, 0.09247023368867752
-0.47410983516761107, 0.7619991302490234, 0.024656354317316713
-0.4922241319682027, 0.7619847026586775, 0.1800826724103314
-0.4877384747358857, 0.7619961653069633, 0.12760398897877948
-0.491043476685353, 0.7619991302490234, 0.005322787827793996
-0.5019962847083212, 0.761974015396027, 0.18121621458165346
-0.5031108426565005, 0.7619850495501695, 0.06593751545794756
-0.5079194398531569, 0.7600960439661566, 0.051512533724261865
-0.5079462690981379, 0.7561482124273682, 0.05453882957486672
-0.5079454862313009, 0.7527832256925261, 0.11067382015832791
-0.5078996565846055, 0.7484977397223983, 0.08213515295123697
-0.5063088226577289, 0.7470079895372567, 0.10343426311385827
-0.5058918286255821, 0.7354176310497315, 0.14827055190614194
-0.5058898886665988, 0.727097092329203, 0.06024238103744303
-0.5058973044413764, 0.7326295124717144, 0.11040844181998426
-0.5058901995699818, 0.7273157060080948, 0.09612119631415869
-0.5059377525674407, 0.743602822927037, 0.06412160989760893
-0.5058867033080356, 0.6851740971872747, 0.07713326946293841
-0.5058866794897535, 0.6890596922093685, 0.05207046549537903
-0.5058866927881329, 0.6920989901286038, 0.09303417964456548
-0.50586620691986, 0.6832475811050942, 0.19139873694139758
-0.5058693669940095, 0.6952238793281778, 0.17939815804333675
-0.5058656133996877, 0.7010788269743692, 0.1938629539085991
-0.5058964315082932, 0.6737641982941076, 0.11315402923829906
-0.5058871025198131, 0.6741816165960247, 0.14663200902785958
-0.5059054203521708, 0.6670513727420049, 0.07707953875452912
-0.505900707709311, 0.6705648193435583, 0.06655565316259404
-0.5058940925295838, 0.6755147883402866, 0.005516518592655659
-0.5065160317791821, 0.6587026539050589, 0.17900334331602552
-0.5079486376328226, 0.652226432133608, 0.08720831542542122
-0.48708240052379775, 0.6615227246702831, -0.13025091807246975
-0.3647927198345275, 0.6631755761151066, -0.20834214843395055
-0.3481992094606353, 0.6631801736271044, -0.20834416309877987
-0.38088413731504933, 0.6587986666993098, -0.206802998057663
-0.35893971499024746, 0.6587839513331546, -0.20037545444049085
-0.30000931413127796, 0.6587930656426237, -0.20696012847702666
-0.3299396354431639, 0.6587801294597883, -0.19954261227027023
-0.2944441650931491, 0.6587720817431066, -0.19687090773704982
-0.300740572167474, 0.6587769606728244, -0.1990371410581559
-0.4294224169312217, 0.6587478655757459, -0.14421050516562978
-0.43937318502115463, 0.6587565626122494, -0.14549143647862603
-0.4651863505861941, 0.6587858013641673, -0.18005728938595797
-0.45651539679962105, 0.6587739079360013, -0.15875321202087322
-0.4737214872941709, 0.6587911161316878, -0.1711204379925459
-0.46112165407281624, 0.6587782320110462, -0.1607412026692612
-0.45094137612939145, 0.6587711246099921, -0.16780646210124117
-0.4849910529875211, 0.7469579239877081, -0.14973474499748024
-0.45027241633241455, 0.7469956871527875, -0.11233437194947297
-0.4634354240298248, 0.7469779461718732, -0.14649401344172283
-0.46624721392686747, 0.7469775512880991, -0.1339795330081468
-0.4677696400242555, 0.7469781365948699, -0.1225401920554321
-0.4700721343898745, 0.7469725600907858, -0.1429486363991923
-0.3537633949315712, 0.7470006531019716, -0.18530669424066754
-0.3600963834271506, 0.7469970306318588, -0.18690376689630828
-0.3349711995741524, 0.7469963540998716, -0.18852415182597138
-0.3197977641754044, 0.7470093276368894, -0.1824270899203503
-0.27053271959091024, 0.7470143384796019, -0.1822534991909009
-0.3884809709486809, 0.7469767642887895, -0.1961928846213749
-0.2610606707387551, 0.7419650144085922, -0.2083612687804522
-0.2905103613633014, 0.7451143538318207, -0.20831940435144874
-0.3848303703447044, 0.7405897624666602, -0.20835743379084315
-0.3099791532820334, 0.738008680866678, -0.20836992370789376
-0.2835256946453636, 0.7318569787379519, -0.2083817385828075
-0.35098542696481505, 0.7399278564221276, -0.2083623677292244
-0.42873130626335654, 0.7272394634085235, -0.2083669291790778
-0.4630710722253453, 0.7373470951376383, -0.2083172208661576
-0.4871090520451868, 0.7391406557806741, -0.17753140342529664
-0.48712994631555384, 0.7274953560643849, -0.15791825839062157
-0.48709021431722227, 0.7433026587700001, -0.14398144591791914
-0.44536998019876506, 0.6587493443925804, 0.19933457068123106
-0.4703356469534379, 0.6587698337651828, 0.20159346683651483
-0.34302660444759264, 0.6587224879631928, 0.21008693681181356
-0.38821738899359015, 0.6587275567266523, 0.20640224222135012
-0.261473833784788, 0.6587166079391105, 0.20148162963298266
-0.4134051738982061, 0.6587293809164574, 0.2090220585951297
-0.3171576636424512, 0.6587204541180589, 0.2081448290714661
-0.3429877029512189, 0.6587246045808084, 0.20018717141189435
-0.3522941904425798, 0.6587246801087653, 0.20394948293364523
-0.36702603774967957, 0.6606352629739773, -0.22499620334291065
-0.4267257330593205, 0.6600464556959889, -0.2250028701297983
-0.5058719529253476, 0.7389008556844477, -0.2027719713112693
-0.27334604767302717, 0.7470402555046983, 0.21736604363540332
-0.3189887154600305, 0.7470375658420312, 0.22529688758339178
-0.3599821253919885, 0.7470329944391585, 0.21960995686188323
-0.2983609389521845, 0.7470389001256965, 0.22241806274812947
-0.28349351105408477, 0.7470380042545935, 0.20930500115654815
-0.28569358423785673, 0.7470376050579849, 0.20808554033811855
-0.4427733951201454, 0.7470129529914995, 0.21713000760259915
-0.42905280532043927, 0.7470228368014079, 0.2127824909697485
-0.4871359700456708, 0.7456943779283141, 0.21636220955262878
-0.47724170770227226, 0.7398366220392292, -0.2249496636997499
-0.3679212997955579, 0.741433024420038, -0.22495451233662597
-0.42708831443746725, 0.7433285696107172, -0.22497595423458877
-0.5058249291324118, 0.7316651590961099, 0.21881164624766436
-0.5059130698971506, 0.7417211219899427, 0.12257019275165423
-0.4673124667937051, 0.6584673841521371, 0.22817388539010938
-0.4279567862214446, 0.7485416988981628, -0.22843984075643672
-0.2639488877345962, 0.644193236231773, -0.2284007005056452
-0.40164508239831415, 0.6437879579750025, -0.20631657071178836
-0.33630806503972566, 0.6438016369547062, -0.2133451969723233
-0.4066478004302132, 0.6438001325082116, -0.21258279312960865
-0.4088548776407046, 0.6437935844244334, -0.20921332339370552
-0.3945615374157653, 0.6437894124317702, -0.20706388662770253
-0.41827050029155044, 0.6438196764219548, -0.22264263381936925
-0.4579544443132721, 0.6438758669244505, -0.22816691138753703
-0.4677380049542192, 0.6438065453685504, -0.21588287094431183
-0.44671598516519706, 0.6437846390197131, -0.204607701509308
-0.4585550178038452, 0.7619790455788376, -0.20022759421872796
-0.4349957892845731, 0.7619336815096399, -0.22359834274690712
-0.450775586815413, 0.761951256403824, -0.2145440716667138
-0.4557736942210536, 0.7619930398809316, 0.14202001455988533
-0.45939161372564585, 0.7619971325076884, 0.12314278263015996
-0.4806072738897571, 0.7619917626589909, 0.1479111916154058
-0.4754342228736762, 0.7619984698044113, 0.11697450080232416
-0.4702606112760727, 0.7619958330686272, 0.12913643951113318
-0.45009583955177834, 0.7619937673987914, 0.13866434157308985
-0.4366672260727111, 0.7619977110267742, 0.1204743702926464
-0.4492535772215039, 0.7619589237065169, 0.21059404160030215
-0.44103599960195594, 0.7619424461205753, 0.21908300070703868
-0.2999906146751064, 0.7619497601491139, 0.21531493930265927
-0.31347847398219725, 0.7619795204426948, 0.19998295179997821
-0.2634800271079707, 0.7619566637969365, 0.2117582931150142
-0.28717096679847925, 0.7619546754738739, 0.21278264671330738
-0.35913183157148465, 0.7619801893950688, 0.19963832653278574
-0.2993047678935624, 0.7619791901998505, 0.20015308490091716
-0.3244206859233246, 0.7619702679361289, 0.20474968530617593
-0.46055184034340135, 0.7619751164087505, 0.20225183552841386
-0.4616272123651858, 0.761959549041353, 0.21027187405323614
-0.2455232660965619, 0.7610730927230536, 0.22841899081224848
-0.5058841603868747, 0.7619556248098901, 0.1419558199638406
-0.3750178553137069, 0.6437963901838447, 0.21066013338399892
-0.41655020575376855, 0.6437892078133853, 0.2069638656143677
-0.3536763186202167, 0.6438202323889537, 0.2229300622048969
-0.27352331747038433, 0.6438215636120654, 0.22361515038158267
-0.331864569390743, 0.6438075062883646, 0.2163808211559839
-0.40095849148164187, 0.6438154869772623, 0.2204879280393643
-0.3929896906082466, 0.6437892877537431, 0.20700500537028874
-0.44641772549499936, 0.6437823641756091, 0.20343589674181678
-0.47500913263798944, 0.6437753278109992, 0.19979647759644675
-0.44588038512498723, 0.6437622075618336, 0.14213885226596704
-0.42815636045162775, 0.6437666864722301, 0.16294460221603518
-0.4491966775476056, 0.643766664942547, 0.1627498402654512
-0.44921689492862593, 0.643765400878452, 0.156900447173134
-0.4518207726166079, 0.643765121384019, 0.15559534723557422
-0.4602543862788719, 0.6437691672253933, 0.17427884888135334
-0.45231252585442067, 0.6437739030711238, 0.19622930452696755
-0.43619642823700255, 0.6438278346374511, 0.22684241207001823
-0.43019418648022034, 0.6437883420491907, 0.2065183168492669
-0.487861138513248, 0.6437626385063466, 0.14412581577182215
-0.48715033845288347, 0.70497322623375, 0.005759244491623046
-0.48715031087000515, 0.716549310262777, -0.02770531081139079
-0.48715028598425925, 0.7170670965005902, -0.057897606641071624
-0.4871502911037914, 0.6906290937466839, -0.09468243666356972
-0.48715031223534755, 0.695788292739232, -0.03933624070764676
-0.4871503018757961, 0.6932590428248748, -0.050209203711029306
-0.48715891119927945, 0.6874508445622152, 0.14976911039632523
-0.4871661904251692, 0.6938036630406572, 0.17675785894740917
-0.48716336629249163, 0.6898429320510416, 0.1663021712788801
-0.48714181924326283, 0.6749312609068349, 0.0703711971607206
-0.4871465421483705, 0.6783414333692347, 0.07111076313857545
-0.48716301009020063, 0.7093727939180965, 0.16460149003944807
-0.4871653012985044, 0.7169415891821671, 0.1728976508331783
-0.48715033953568676, 0.7086296285421894, 0.09117662433857812
-0.4871502758192203, 0.7224045093669873, 0.1000361295282194
-0.487150322752403, 0.7137014184470702, 0.08633790805385266
-0.4871503412723541, 0.6997516882013533, 0.09560623772210243
-0.4871503412723541, 0.6992570623503191, 0.058059401212788235
-0.4871503412723541, 0.6998318787466268, 0.013433786201643465
-0.48715032289757026, 0.6824620643930387, 0.038500401969607606
-0.4871503184747366, 0.6938176901323347, 0.10029313450367214
-0.48715032438158345, 0.6932913224489172, 0.09051082124279067
-0.487137601632558, 0.671949588076463, -0.05519174749463589
-0.48713699794495013, 0.6715420036734543, -0.09740336413144982
-0.4871408412332628, 0.6742635472400388, -0.03930122149452945
-0.4994265388306347, 0.7619942114605267, -0.006680585985093481
-0.5038138886999305, 0.7619832307230568, -0.009751738477214146
-0.4985716960943607, 0.761996362397398, 0.08066708543979068
-0.49181402769486793, 0.7619991302490234, -0.09967326541096974
-0.5024857964080429, 0.7589618100599556, -0.22845546196428448
-0.4972713473449334, 0.643756091594696, 0.054213347591398627
-0.5023814296114801, 0.6437683365087628, -0.0767783149512737
-0.4974892612721237, 0.643756167033118, -0.06652368179309649
-0.4957660639992326, 0.6437560780540588, -0.0700178676198094
-0.4998019207706049, 0.6466781721616532, 0.2284626742825204
-0.5058742683425064, 0.7043739677601057, -0.16065493127487943
-0.5058757874493724, 0.7135109731082483, -0.15473005215279267
-0.5058867121965704, 0.7224287533911868, 0.06076223103961389
-0.5058867135513999, 0.715776734491279, 0.028888431527859075
-0.5058866835527747, 0.7244108419778663, 0.016689436427171845
-0.5058867311306554, 0.695433091333479, -0.03399247624938898
-0.5058867126302352, 0.6902754099074141, -0.025604124747383356
-0.5058867304737114, 0.700142483536534, -0.008361399342693391
-0.5058867182468654, 0.7061180000025756, -0.04577329786712188
-0.5058867128626032, 0.7164806035204305, -0.10964411014874517
-0.5058867109467837, 0.7121557133230346, -0.09088425771937474
-0.5058867177228258, 0.6973329543761144, -0.05869937655295494
-0.5058867294599121, 0.6975201435935442, -0.03546547375619792
-0.5058867088623458, 0.6939871912236665, -0.09283136694362631
-0.5058867068027604, 0.6917459491211084, -0.10834328076437982
-0.5058710364219094, 0.6854229402890883, -0.17313911506578533
-0.5058662894860462, 0.6826628728015818, -0.19130535077160324
-0.5058867085498401, 0.6993785136936012, 0.02927147361523141
-0.5058866839577986, 0.6912279287516052, 0.03371832884662667
-0.5058866748443173, 0.69395859252114, 0.06514544243235554
-0.505895125208877, 0.6747564973777926, 0.10820002575459381
-0.5058949722286985, 0.6748609300894601, 0.0825996301611005
-0.5059026990246147, 0.6690774416781181, -0.07810316743770032
-0.5059041687032931, 0.6679848117019435, -0.07354565705136921
-0.5059078278289488, 0.6652765952489259, -0.031151623898975484
-0.5079357764354145, 0.7585183408978262, -0.039914620617000976
-0.5079493615690531, 0.7536986692787463, -0.0015575222287861413
-0.5079419815923331, 0.7571187697131156, 0.007241203134583265
-0.5079180936121224, 0.6469273701472003, -0.1790915954683622
-0.5079377635294737, 0.6476915006565751, -0.06273162579550035
-0.5079444035196257, 0.6532261616329045, 0.005564587680668066
-0.4871249852588189, 0.6700003429264727, -0.1360855182842439
-0.48705536671982536, 0.6671096224345333, -0.20323172523908503
-0.4871466936700249, 0.6823346593591684, -0.11185206839311393
-0.48714224007344153, 0.6944807323171193, -0.12772509970089618
-0.4870688148169203, 0.6723426266907268, -0.20009586346852787
-0.48711457277119163, 0.7152876727694274, -0.18563520025290417
-0.487139911594465, 0.7143882334080021, -0.13574629497498675
-0.4871433926043497, 0.71118745627947, -0.12357004488328248
-0.4871467348252045, 0.7030442394445301, -0.11195217962999143
-0.43644312642734084, 0.6622408256597614, -0.2083153012334608
-0.34556679816520497, 0.6725975983106902, -0.2083724968366696
-0.37987827451142614, 0.6790174997563332, -0.2083765709916882
-0.40428479260360395, 0.6670985360179275, -0.20835781313727564
-0.38677509218818146, 0.677656525259702, -0.20837390695507255
-0.44281213680962456, 0.6784936999378638, -0.20835135831485957
-0.36178083892448165, 0.6970682693824479, -0.2083815382032735
-0.25558664309351037, 0.7015628601768431, -0.20839500645952602
-0.24860272884932788, 0.698142520109613, -0.2083958972804056
-0.28630337452080756, 0.6983704569568698, -0.2083911133428468
-0.282680643016377, 0.695516217906986, -0.20839157690880897
-0.40209101650223333, 0.7179094072373862, -0.20837641940662088
-0.36015242606841846, 0.7218848571059996, -0.20838174761123668
-0.3155876018451925, 0.7180057993672843, -0.20838740946879597
-0.3244502027702803, 0.7237357281577212, -0.20838628349848365
-0.3689136035258309, 0.713395243806989, -0.20838063451914546
-0.4688036739879195, 0.7131920681237133, -0.20832434542129447
-0.4652882519537016, 0.708146461052838, -0.20832835264720062
-0.43079037597251396, 0.6980033681851846, -0.20836767676276916
-0.4535657449128645, 0.6970886846223974, -0.20834171514776584
-0.4686159047875027, 0.6882568330293446, -0.2083245594895011
-0.4420676593338205, 0.6660662020628887, -0.20833641407337872
-0.44382588599540634, 0.6743746956114055, -0.20834546244738833
-0.46937740760510727, 0.6587744623483052, -0.09376909145962398
-0.47462224796986174, 0.6587787821872675, -0.04035495057145067
-0.4670972018446543, 0.6587718938283053, -0.02742394506433691
-0.47821753540414325, 0.6587821902996596, -0.06171285294869781
-0.47274262007017304, 0.6587769042470367, -0.01671397987188355
-0.48424396949619, 0.6587873321752103, -0.023466499000163135
-0.4728944072111455, 0.6587774160103044, -0.06533712668536147
-0.47487402094155196, 0.6587791990912087, -0.0649718545593764
-0.4078462675021182, 0.6587332173891468, -0.012901080536475278
-0.3691423668227539, 0.6587293911161074, -0.04588145979973513
-0.4198539311803553, 0.6587345107583562, -0.06709403487442095
-0.42107246840748924, 0.6587346228599826, -0.06098659252134225
-0.3524266752449893, 0.6587277895219907, -0.0909900123997188
-0.40614382972320795, 0.6587331067351894, -0.04929441252152176
-0.3842013786636165, 0.6587309848769368, -0.09670749821641797
-0.4243972652591514, 0.6587348682985074, -0.007692764556418583
-0.3558669084307261, 0.6587280738536678, -0.054254791544396476
-0.4096937747357394, 0.6587334404122523, -0.03580105457324088
-0.41858541928752413, 0.6587342659931453, 0.004172048525689579
-0.3645814905347532, 0.6587289401045069, -0.04969348395700722
-0.4158508828171325, 0.6587341157822237, -0.07096927725196912
-0.36727742828069954, 0.6587292284532857, -0.060626707400725434
-0.36578081134730306, 0.6587290671920015, -0.053837198357569754
-0.25640357256292395, 0.6587181736819854, -0.09827044056985254
-0.35879117885968054, 0.6587283624128699, -0.05143893814170582
-0.35289872273035816, 0.6587277790208825, -0.05593696449655758
-0.3879078686349262, 0.658731290316972, -0.05658516653428346
-0.36140812589913035, 0.6587286223501523, -0.04995180939702809
-0.2903706179608203, 0.6587215729014898, -0.09431855267362195
-0.3161895523760757, 0.6587241206441887, -0.06945633846784491
-0.39731257066448533, 0.6587322481760767, -0.06560875414832024
-0.35720114055383656, 0.658728253930027, -0.08231730548926237
-0.34641452405566303, 0.6587271024028983, -0.03989079266745719
-0.4344495388236607, 0.658742601215364, 0.028610955759593222
-0.46768500251844936, 0.6587717546687999, 0.10988857862585409
-0.4517192518683276, 0.6587577294310297, 0.08006583226454231
-0.44674005988490273, 0.6587533718514034, 0.06334351089662987
-0.43519600747495224, 0.6587432154092794, 0.0487722845062175
-0.45492490949049486, 0.658760565866531, 0.07683873393683704
-0.4638554265096471, 0.6587684041084851, 0.09660993230043025
-0.4320788165041647, 0.6587403189021507, 0.114402767248037
-0.4537175581077564, 0.6587595008481922, 0.07657601457821363
-0.43144161266347836, 0.6587343660265287, 0.21197351617589283
-0.4624397021168788, 0.6587558929531365, 0.2251138414160809
-0.36503378621390564, 0.6587279074899691, 0.15215767631949162
-0.3330255542966859, 0.6587250402507465, 0.14166654334968645
-0.39396709351370346, 0.6587300636443332, 0.17864026880405448
-0.42025328785095484, 0.6587341565347212, 0.11942781113085578
-0.404462180608272, 0.6587323322646448, 0.1302404252420933
-0.42177090860712385, 0.6587337071866641, 0.14276431593538552
-0.3966491734869044, 0.6587310107037982, 0.15193876729204198
-0.387070247607525, 0.6587305275156206, 0.13417094770366025
-0.38904827766671946, 0.6587310718231204, 0.12049370633578593
-0.4229186178372471, 0.6587338710514559, 0.14075802769680318
-0.3843796251160124, 0.6587300821416892, 0.1412632298817617
-0.416986765948847, 0.6587324088165653, 0.17513781016816043
-0.3251525629342209, 0.6587243838582652, 0.1371796343520186
-0.3827016918688141, 0.6587303576126744, 0.12409876813740223
-0.34501089135339463, 0.6587267114049922, 0.12227835719272523
-0.338262887110339, 0.6587259066710185, 0.12788106836482074
-0.30036493753269494, 0.6587223299086831, 0.12255880901289357
-0.3557892696583916, 0.658727214656224, 0.14384908561279086
-0.31963514787523356, 0.6587235714736046, 0.14778573160937314
-0.3911219742548384, 0.6587313584562163, 0.08572246397638364
-0.39156020110037726, 0.6587315311195611, 0.02705492936513576
-0.4081756885856864, 0.6587331335557813, 0.05100650020520537
-0.3510859930919945, 0.6587274731711903, 0.03897922782068441
-0.42483166504905573, 0.6587347775945442, 0.05787341988500172
-0.39576110807172427, 0.6587318192138548, 0.08633951089975024
-0.308020318661553, 0.6587232347832229, 0.015568472816665064
-0.35270122106314145, 0.658727597856967, 0.055446038603323464
-0.3237259240906452, 0.6587247202646421, 0.05148878810031183
-0.3139019387952673, 0.6587237896091847, 0.029690918306968395
-0.4085987709803037, 0.6587331213340057, 0.07572940942300005
-0.2840229316150758, 0.6587208093780865, 0.03147177839363313
-0.3728387743302882, 0.6587295709658325, 0.07037911749328417
-0.3542086480307362, 0.6587278053261192, 0.02938388847046208
-0.4011743118547888, 0.6587324675645798, 0.036712964983696944
-0.4107558311922662, 0.6587333635761305, 0.06328176400243445
-0.3483375641327564, 0.6587272399021086, 0.020558180460245812
-0.35199233741872904, 0.6587275986895489, 0.022955953064374226
-0.4218831960936191, 0.6587344716706011, 0.0634306135436323
-0.2736058488172715, 0.6587197887868966, 0.02370564901290423
-0.4064956917902028, 0.6587330008218615, 0.03526564068571011
-0.3754204804085267, 0.6587298963208699, 0.03937177645416665
-0.3875248092610982, 0.6587311028839267, 0.03899720243843517
-0.3090427535939321, 0.6587233177569543, 0.02415110492472357
-0.39253103338738216, 0.6587316247733523, 0.02844327672407598
-0.4407663666688705, 0.6587467675311269, 0.14831123404059585
-0.44200444524879023, 0.658746898151207, 0.1843730332042542
-0.47433719070388886, 0.6587745153007921, 0.18436765323116214
-0.4584634679422107, 0.658761201775085, 0.1748350645132412
-0.4286812660473041, 0.6587351692357276, 0.19794840334510128
-0.445813423408128, 0.6587498853190096, 0.1947326762273966
-0.4268534019058646, 0.6587345464358808, 0.16143585292860413
-0.4518264985314681, 0.6587563669382787, 0.14699470850064983
-0.46990550778740503, 0.6587718874128408, 0.15626276349435375
-0.4729956320525065, 0.6587759684061825, 0.12745996511190572
-0.47693519871083834, 0.6587780879182418, 0.1563419212472184
-0.48131819679942955, 0.6587826267654275, 0.1420754018057196
-0.4714040642830926, 0.6587741230410323, 0.13683632745686897
-0.4818268651233628, 0.6587844455338419, 0.08003181497025214
-0.46920887833700187, 0.6587736231684459, 0.020641868877743354
-0.45866331541887234, 0.6587640169790618, 0.04941156296491183
-0.47756716727622966, 0.6587809748072934, 0.03445085508549167
-0.47512542858956525, 0.6587787024715493, 0.04783093392114335
-0.4689068578915618, 0.6587729571867207, 0.07606098314694393
-0.46648285595644035, 0.6587708369995434, 0.07039762144376084
-0.482103232665909, 0.6587849357935625, 0.04596320957692277
-0.48012002626685013, 0.6587828746604582, 0.08693371203627881
-0.4871470618647072, 0.6787145323258854, 0.11489970876514508
-0.48712922587948776, 0.6657542154823498, 0.05008853719343297
-0.4870887047707727, 0.6614915912279626, -0.0822304111422706
-0.48700712711833544, 0.6589501472410226, 0.17739419693813302
-0.487143875064941, 0.6691101279077294, 0.15457306521570272
-0.48713392641459285, 0.6646611156669215, 0.14020503841532342
-0.48709211714706363, 0.6602083631931819, 0.18323245347091371
-0.5067954950228791, 0.6586515310901344, -0.0025853150538278466
-0.5059393001883065, 0.6620164477777257, 0.009163477532742888
-0.5058902798031937, 0.6672062629218487, -0.17010603563879406
-0.5059008612547516, 0.6657669328709079, -0.13703657795582233
-0.5059053337163091, 0.6671110592812415, -0.10240303519185948
-0.5058944186009311, 0.6752857861087793, -0.10882975543068973
-0.5058904109296454, 0.678262583134785, -0.04862414834013411
-0.5059147517303904, 0.6641060444039212, -0.031710235671821276
-0.4985685203897794, 0.67447533160286, -0.22674629877655275
-0.5058220090111041, 0.6666217171029765, -0.2242512069515256
-0.5059020854528877, 0.6629940665755205, -0.19940248272633979
-0.5058863475516711, 0.7023342154514512, -0.11432533170448785
-0.5058660713602863, 0.7015339543457291, -0.19213855593746085
-0.5058325229632137, 0.7032070530879622, -0.21156375592018856
-0.5058588707070775, 0.7003102679815889, -0.2003446892416405
-0.5058071468635965, 0.697502431816792, -0.22238217705634142
-0.5058974029675912, 0.6694140216713472, -0.1316744847813072
-0.5058804936918806, 0.676597770153468, -0.15966172276373936
-0.48708824019802, 0.6613169075132732, 0.11900118465333932
-0.4872120908275297, 0.6658047527416195, 0.22458200700703568
-0.4871538059451501, 0.7012311086412368, 0.13057080093525802
-0.4871516951744934, 0.6864268304408361, 0.12294107894674457
-0.4872092675166906, 0.7028853853068753, 0.21439444597028207
-0.48717864941531336, 0.699117049558525, 0.20172717177693533
-0.48713865162415626, 0.6686986305605958, 0.1371906010925221
-0.4871448393945642, 0.6733368523275007, 0.13665388245074755
-0.48723292561546266, 0.6997997037202169, 0.22419677001553623
-0.4871403573484354, 0.73188069085062, 0.06818315683564548
-0.4871483787154676, 0.7260675227821458, 0.10590711060635526
-0.4870697416431908, 0.7458334927123723, -0.041816283921298804
-0.487123049967512, 0.7415056391520034, 0.050247300710076506
-0.487148568456386, 0.7315758106597041, 0.14593039902700156
-0.4871318716002747, 0.7386716763676991, 0.1201624862824774
-0.487203402295847, 0.7255595266042502, 0.21234418899497387
-0.4871244465096556, 0.7415375886979902, 0.12344649385570462
-0.2806202815015868, 0.7470347025743388, 0.0012731392912567188
-0.2788338674005363, 0.7470348804943927, -0.024145164778780773
-0.2965123579149626, 0.7470331194620179, -0.05615504856173963
-0.32875491160968257, 0.7470299077422826, -0.02365492933420998
-0.31281761853187834, 0.7470314952658073, -0.04808500151069629
-0.31388015968527305, 0.7470313894436531, -0.030407036302550528
-0.37108147567503513, 0.7470256914955882, -0.021948571991348687
-0.3669833491176243, 0.7470260997486042, 0.0035842679616232085
